-29.0593834 -122.6923447 73.2590561
17.8220997 -119.6568680 70.8468628
15.4454098 -119.3777847 72.8635864
13.0893135 -119.1610870 74.5203323
10.7340603 -118.9895096 75.8859558
8.3998537 -118.8597641 77.0219803
6.0588808 -118.7658691 77.9176941
-14.9024162 -119.2131500 78.3004150
-17.2529659 -119.4097137 77.4646454
-19.6141205 -119.6386261 76.4323578
-21.9816437 -119.9088745 75.1672897
-24.3711910 -120.2259216 73.6014099
15.4888363 -117.7690506 68.7754974
13.1157780 -117.5061035 70.7286072
10.7526741 -117.3056488 72.2757034
8.4109144 -117.1529388 73.5580750
6.0576477 -117.0404816 74.5837708
-14.9777231 -117.4802856 75.0072479
-17.3360996 -117.6879730 74.0720139
-19.7148685 -117.9393005 72.8947067
10.7769756 -115.7225800 67.9463806
8.4228830 -115.5305634 69.4935684
6.0603743 -115.3922806 70.6699448
3.7195358 -115.2991867 71.6138916
1.3683138 -115.2454529 72.2839203
-0.9698886 -115.2278366 72.7577972
-3.3129077 -115.2400360 72.9985046
-5.6560602 -115.2906494 73.0368958
-7.9980135 -115.3700180 72.8843384
-10.3490067 -115.4854813 72.5150146
-12.6987743 -115.6345596 71.9444427
-15.0626669 -115.8201752 71.1233215
-17.4337158 -116.0508575 70.0394516
8.4404783 -114.0787354 64.2751617
6.0581589 -113.8828888 65.7864304
3.7143042 -113.7479248 66.9581451
1.3452091 -113.6703491 67.7787704
-1.0024847 -113.6380920 68.3262100
-3.3547711 -113.6451569 68.6342468
-5.7081909 -113.6914978 68.6825104
-8.0609579 -113.7767639 68.5078125
-10.4255476 -113.9024353 68.0437775
-12.7934608 -114.0701904 67.3363800
-51.7006454 -92.5827484 -143.4620361
-48.5724106 -89.1119385 -138.5328217
-51.5680084 -89.3670349 -140.5975037
-54.5774231 -89.6647263 -143.1220703
6.2087879 -86.0933151 -146.4161224
3.3114917 -85.8279343 -143.1980438
-45.5319481 -85.7930908 -134.8424835
-48.4729385 -85.9878845 -136.3909760
-51.4676895 -86.2252502 -138.3007660
-54.4542542 -86.4909592 -140.5805817
9.1072998 -83.2527771 -147.7100525
6.1966228 -82.9559021 -144.0887451
3.2980819 -82.7228928 -141.1239319
0.4212795 -82.5326462 -138.6573792
-42.5469131 -82.5752182 -131.9822388
-45.4632072 -82.7346954 -133.1801147
-48.4009514 -82.9170074 -134.6467896
-51.3718033 -83.1293640 -136.4172058
-54.3534164 -83.3759918 -138.5397339
-57.3890228 -83.6667023 -141.1200867
9.0831814 -80.1349182 -145.5593262
6.1870794 -79.8797455 -142.2395020
3.2925673 -79.6716156 -139.4708405
0.4122658 -79.5005646 -137.1423798
-39.5933304 -79.4362717 -129.7593994
-42.4971504 -79.5646362 -130.6817474
-45.4060783 -79.7107849 -131.8094177
-48.3403854 -79.8835526 -133.2144775
-51.3026810 -80.0801086 -134.8842773
-54.2759247 -80.3079224 -136.8847504
-57.3029251 -80.5748291 -139.2962036
11.9888859 -77.3731689 -147.7502441
9.0735950 -77.0807495 -143.9057770
6.1723728 -76.8424072 -140.7690735
3.2775991 -76.6509399 -138.1263733
0.4097584 -76.5006256 -135.9106140
-2.4543142 -76.3788071 -134.0438843
-39.5615463 -76.4612274 -128.7312927
-42.4685822 -76.5832977 -129.6209106
-45.3730927 -76.7240524 -130.7248840
-48.2979164 -76.8852081 -132.0637207
-51.2490005 -77.0669937 -133.6525726
-54.2081223 -77.2790985 -135.5513916
-57.2304688 -77.5268173 -137.8420410
-60.2551651 -77.8094406 -140.5570831
11.9683218 -74.3270721 -146.2475891
9.0548019 -74.0595093 -142.6203918
6.1583433 -73.8499985 -139.6447601
-2.4597025 -73.4182281 -133.1245422
-39.5318871 -73.5090637 -127.9132843
-54.1734543 -74.2841949 -134.5152893
-57.1650391 -74.5121155 -136.6884460
-60.1880417 -74.7764282 -139.2786713
-63.2605515 -75.0871582 -142.4231567
14.8814087 -71.6357422 -149.4682922
11.9567089 -71.3235397 -145.1516418
9.0444984 -71.0772247 -141.6668549
6.1468811 -70.8814163 -138.7849731
-2.4665000 -70.4766846 -132.4155884
-5.3175592 -70.3921356 -130.8923340
-36.6409302 -70.4854584 -126.6429138
-39.5174179 -70.5802765 -127.3066406
-54.1254234 -71.3135834 -133.7112274
-57.1314850 -71.5333099 -135.8403778
-60.1338272 -71.7782669 -138.3269958
-63.2083130 -72.0702896 -141.3370972
14.8694820 -68.6410904 -148.5343475
11.9399376 -68.3525009 -144.3842468
-2.4713616 -67.5628357 -131.9541931
-5.3251081 -67.4820404 -130.4451752
-8.1603031 -67.4204254 -129.1628265
-11.0139332 -67.3724060 -128.0886230
-13.8503695 -67.3410492 -127.1944809
-30.9253311 -67.4414215 -125.4970245
-33.7704697 -67.5026321 -125.7702713
-36.6416206 -67.5788879 -126.2359085
-39.5070572 -67.6679001 -126.8746796
-60.1106453 -68.8091202 -137.6491394
-63.1637421 -69.0806122 -140.5504456
14.8571644 -65.6769562 -147.9412079
11.9210873 -65.4066162 -143.8996887
-2.4780395 -64.6645050 -131.6767883
-5.3318977 -64.5877457 -130.1778870
-8.1756849 -64.5294189 -128.9179077
-11.0204372 -64.4847794 -127.8359146
-13.8527575 -64.4579773 -126.9810181
-16.6916065 -64.4422836 -126.2788773
-19.5326881 -64.4368286 -125.7267990
-22.3731537 -64.4493103 -125.3712616
-25.2181721 -64.4703979 -125.1482849
-28.0556145 -64.5058823 -125.1277847
-30.9234619 -64.5543976 -125.2723541
-33.7670593 -64.6140137 -125.5346527
-36.6396751 -64.6872482 -125.9894562
-39.5104446 -64.7735443 -126.6112061
-60.0863800 -65.8607178 -137.2157593
-63.1366272 -66.1174240 -140.0419922
14.8415108 -62.7395592 -147.6693115
11.9112673 -62.4854622 -143.6958771
-13.8604403 -61.5850983 -126.8939209
-16.6950130 -61.5719566 -126.2062607
-19.5334721 -61.5669937 -125.6585617
-22.3811684 -61.5807266 -125.3243713
-60.0779610 -62.9334106 -137.0187836
-63.1335983 -63.1797600 -139.8226318
-66.2325211 -63.4691772 -143.2019348
14.8339043 -59.8282204 -147.7383728
11.9072104 -59.5853462 -143.7769470
-13.8733702 -58.7263145 -126.9986191
-22.3870125 -58.7222672 -125.4157791
-60.0873260 -60.0249100 -137.0650635
-63.1405716 -60.2614861 -139.8623352
14.8221607 -56.9366150 -148.1011505
11.8893967 -56.7020416 -144.1058197
-13.8863859 -55.8798561 -127.2799683
-16.7232628 -55.8664703 -126.5834427
-22.4097748 -55.8754921 -125.6732712
-25.2521515 -55.8975449 -125.4767532
-28.0998974 -55.9293556 -125.4390945
-60.1088295 -57.1316071 -137.3318634
-63.1566925 -57.3584213 -140.1220398
14.8106489 -54.0625992 -148.7572479
11.8800087 -53.8339653 -144.7041016
-13.9060173 -53.0408859 -127.7229996
-19.5847111 -53.0263405 -126.4689484
-22.4283638 -53.0393028 -126.1057281
-25.2690201 -53.0596046 -125.8980484
-28.1173344 -53.0897980 -125.8584900
-60.1504364 -54.2528000 -137.8463287
-63.1971741 -54.4727554 -140.6660156
14.8175573 -51.2057800 -149.7762756
11.8776627 -50.9806595 -145.5872803
8.9688931 -50.8060417 -142.2066956
6.0732732 -50.6628227 -139.3718719
-13.9270191 -50.2111740 -128.3283997
-19.6108475 -50.1972351 -127.0566254
-22.4482441 -50.2088356 -126.6812897
-60.1959190 -51.3848877 -138.5762482
-63.2575645 -51.6006165 -141.4736633
14.8109226 -48.3670959 -151.1432800
11.8721142 -48.1402359 -146.7606659
8.9653006 -47.9653320 -143.2863159
6.0613251 -47.8272591 -140.3518982
-13.9521351 -47.3877335 -129.1063538
-19.6348934 -47.3801575 -127.8359222
-22.4831390 -47.3858147 -127.4544373
-60.2624245 -48.5296593 -139.5783539
-63.3334122 -48.7396622 -142.5545654
11.8756342 -45.3121300 -148.3060150
8.9582024 -45.1382675 -144.6277771
6.0574088 -44.9994125 -141.6174927
3.1644328 -44.8888550 -139.0523071
0.2961648 -44.7970428 -136.8753662
-13.9714127 -44.5689774 -130.0644531
-16.8218079 -44.5624733 -129.3319855
-19.6588707 -44.5597534 -128.7637024
-22.5113792 -44.5704613 -128.3732452
-54.3248596 -45.3522263 -136.1605377
-57.3260002 -45.5058861 -138.3061218
-60.3450584 -45.6820602 -140.8441162
11.8705559 -42.4986496 -150.2200623
8.9654980 -42.3196297 -146.3411255
6.0457888 -42.1809921 -143.1598053
3.1608551 -42.0694199 -140.4954376
0.2815990 -41.9791756 -138.2381134
-13.9967756 -41.7592850 -131.2317200
-16.8475380 -41.7432327 -130.4819183
-19.6952839 -41.7465591 -129.8981323
-22.5447311 -41.7567902 -129.5171204
-54.4004402 -42.5205612 -137.5086670
-57.4096603 -42.6703720 -139.7416687
-60.4377937 -42.8453064 -142.4074707
8.9663200 -39.5116425 -148.4338684
6.0383525 -39.3711166 -145.0284729
3.1519222 -39.2589645 -142.2302551
0.2618032 -39.1733093 -139.8701324
-54.4943504 -39.6922379 -139.1667786
-57.5126877 -39.8412857 -141.5034637
-60.5546341 -40.0161171 -144.3300323
8.9569149 -36.7193146 -150.9975739
6.0275106 -36.5663834 -147.2929535
3.1383913 -36.4535561 -144.3034515
0.2534855 -36.3629646 -141.8211975
-54.5995789 -36.8724747 -141.1128540
-57.6278648 -37.0231400 -143.6107483
6.0172420 -33.7760353 -150.0253296
3.1237581 -33.6551895 -146.7757263
0.2289209 -33.5620842 -144.0974731
-2.6520042 -33.4908142 -141.8495483
-5.5269785 -33.4369392 -139.9777222
-8.3914852 -33.3900604 -138.4263000
-11.2553873 -33.3637657 -137.1154938
-42.8825188 -33.6431427 -136.6799011
-45.8064194 -33.7259789 -137.9027252
-48.7572212 -33.8202209 -139.4055786
-51.7346916 -33.9283981 -141.2431183
-54.7324715 -34.0598526 -143.4414825
-57.7911072 -34.2055855 -146.1886139
3.1216421 -30.8652020 -149.7957001
0.2075191 -30.7673874 -146.8091431
-2.6703894 -30.6912365 -144.3951874
-5.5589504 -30.6360073 -142.3830566
-8.4256430 -30.5939808 -140.7173615
-11.2900095 -30.5632896 -139.3326874
-42.9809265 -30.8354244 -138.9151917
-45.9160042 -30.9165497 -140.2310791
-48.8719215 -31.0114994 -141.8386536
-51.8668137 -31.1204910 -143.8278961
-54.8877792 -31.2519455 -146.2452545
0.1906458 -27.9781647 -150.1310730
-2.6973569 -27.9000072 -147.4122009
-5.5834570 -27.8408756 -145.2225647
-8.4639883 -27.7933311 -143.4157410
-11.3325014 -27.7650185 -141.9240417
-37.2450104 -27.8979492 -139.5234680
-40.1541214 -27.9588928 -140.3817749
-43.0913010 -28.0259247 -141.5242004
-46.0443954 -28.1080284 -142.9619446
-49.0226669 -28.2053223 -144.7377167
-52.0298004 -28.3147449 -146.9459229
-2.7326822 -25.1128120 -151.0949707
-5.6267591 -25.0453320 -148.6383362
-8.5073538 -24.9996433 -146.6227112
-11.3828964 -24.9619064 -144.9992065
-37.3625908 -25.0934639 -142.4194183
-40.2810669 -25.1531658 -143.3585663
-43.2279396 -25.2242165 -144.6124573
-46.1985283 -25.3039722 -146.2369995
-49.1997833 -25.4006500 -148.2560577
-5.6653147 -22.2671051 -152.8748932
-8.5574427 -22.2062016 -150.5346069
-11.4449234 -22.1734486 -148.6538696
-14.3218889 -22.1443653 -147.2158203
-17.1991558 -22.1328373 -146.0742493
-20.0848484 -22.1311207 -145.2569275
-22.9712448 -22.1338081 -144.6958466
-31.6496162 -22.2021351 -144.5830078
-34.5654831 -22.2392941 -145.0829315
-37.4968643 -22.2859821 -145.8675385
-40.4292755 -22.3507347 -146.9297333
-43.3993759 -22.4214859 -148.3845520
-46.3810120 -22.5071831 -150.2322388
-11.5083008 -19.3880234 -153.2488098
-14.4098530 -19.3526783 -151.5449829
-17.2855568 -19.3402138 -150.2056122
-20.1844082 -19.3296871 -149.2808533
-23.0649357 -19.3384571 -148.6222534
-31.7925282 -19.3975029 -148.5719147
-34.7131538 -19.4379387 -149.1351929
-37.6539574 -19.4932785 -150.0437622
-40.6117706 -19.5529747 -151.3475189
-17.3926048 -16.5579491 -155.5324097
-20.3001461 -16.5411186 -154.4030304
-23.1933460 -16.5423985 -153.6202393
-26.1121292 -16.5496559 -153.2590790
-29.0266304 -16.5749874 -153.2263336
-31.9557133 -16.6082478 -153.5616760
-26.2937660 -13.7762909 -160.1381683
3.4796009 -205.6418762 78.2065277
2.3333645 -205.5409241 78.6368179
1.1292882 -205.4799652 79.0306702
-0.1078880 -205.4407501 79.3218384
-1.2375326 -205.4627533 79.4246216
-2.3445625 -205.4925842 79.4644012
-3.5158958 -205.5817261 79.4011383
-4.7410526 -205.6806946 79.2540665
9.2934561 -204.3419800 78.1205826
4.5729408 -203.6284485 81.1541367
3.4784391 -203.5940247 81.4989243
2.3650022 -203.5351868 81.8523560
1.1442707 -203.4929657 82.1648712
-0.1006171 -203.4887848 82.3734283
-1.2258652 -203.4909668 82.4952393
-2.3190246 -203.5371552 82.4936142
-3.4759119 -203.5765533 82.4700394
-4.7211523 -203.6468353 82.3669281
-5.9173441 -203.7619171 82.1735077
-7.0119009 -203.8691406 81.9174728
-8.1441956 -204.0010376 81.5472412
-9.3611240 -204.1840515 81.0757141
-10.6105022 -204.4380951 80.4610214
9.2645779 -202.2998810 81.2523956
8.1752653 -202.1553192 81.9265213
6.9961090 -202.0139771 82.6132507
5.7542768 -201.8856812 83.2626495
4.5616331 -201.8159485 83.7296753
3.4876285 -201.7691956 84.0531616
-9.3089085 -202.3191223 83.7263489
-10.5796070 -202.5130615 83.2108154
13.9680338 -201.3697205 79.9333115
12.8220892 -201.0988464 80.9965668
11.6185179 -200.8684845 82.0450592
10.3705349 -200.6585236 83.0049515
9.2459850 -200.5198364 83.7001953
8.1633368 -200.4024506 84.2763672
6.9984026 -200.2974396 84.8403244
5.7584329 -200.1739197 85.4259644
4.5473208 -200.0895081 85.8849869
3.4853442 -200.0647278 86.1451874
-9.2748842 -200.6062317 85.8971481
-10.5548458 -200.7837524 85.4444427
-11.6810703 -200.9422607 85.0155563
-12.7468014 -201.1028137 84.5362930
-13.9185734 -201.3148193 83.8940430
-15.2015152 -201.5970001 83.0849838
15.0473423 -199.7577820 81.5205994
13.9499340 -199.5541534 82.4464722
12.8213434 -199.3460388 83.3539886
-13.8578758 -199.6062622 86.0180359
-15.1514282 -199.8587189 85.2623138
-16.3936157 -200.1308289 84.4592438
-17.4650478 -200.3586884 83.7503128
-18.5816555 -200.6473083 82.8974228
-19.8302307 -201.0321045 81.7534943
18.6715546 -198.9951935 79.7828064
15.0068331 -198.0281982 83.7322998
13.9294596 -197.8744507 84.5189056
12.8075285 -197.7029572 85.3019257
-13.8252802 -198.0072937 87.8014374
-15.1191330 -198.2370911 87.1119080
-16.3414078 -198.4803314 86.4006805
-17.3948135 -198.6634674 85.8057480
-18.5132027 -198.9076080 85.0448685
-19.7745514 -199.2423859 84.0223236
-21.0826664 -199.6456451 82.8527832
20.9073830 -197.8865509 79.3270874
19.7393551 -197.5008850 80.8576050
18.6203060 -197.2126007 82.0989380
17.4455109 -196.9408875 83.2996521
16.1815567 -196.6464081 84.5501251
14.9758940 -196.4072266 85.5830841
-9.2025270 -195.8998718 90.7926254
-10.5192680 -196.0763092 90.3901596
-11.6163940 -196.1917572 90.0920563
-12.6225042 -196.2851410 89.8245087
-13.7756481 -196.4350739 89.3880157
-15.0982656 -196.6878967 88.7067261
-21.0349236 -197.9298553 84.8724365
-22.1819954 -198.2526398 83.8972397
22.1233978 -196.5632477 79.8789597
20.8435268 -196.1141510 81.6550369
19.7076550 -195.8277283 82.9363708
18.5958939 -195.5857697 84.0164719
17.4121380 -195.3274078 85.1218109
16.1533623 -195.0657043 86.2513580
14.9615927 -194.8581238 87.1772308
-9.1900177 -194.4291077 92.0730362
-10.5021477 -194.5977631 91.6940842
-11.5914621 -194.7086182 91.4133377
-12.6138468 -194.8178253 91.1444168
-13.7581987 -194.9594421 90.7433090
-15.0713367 -195.1749725 90.1237183
-21.0033016 -196.3405762 86.6028595
-22.1283989 -196.6045074 85.7299118
-23.2034130 -196.8966217 84.8608551
23.3075809 -195.2748718 80.2913742
22.0662804 -194.8617096 81.9993668
4.5040345 -192.5375061 93.0935669
3.4718022 -192.5752869 93.2047424
2.3904581 -192.5650024 93.3557892
1.1695652 -192.5445862 93.5808105
-9.1705770 -193.0107422 93.2129974
-10.4832420 -193.1761017 92.8524170
-15.0616808 -193.7183990 91.3747177
-16.3003483 -193.9355469 90.7941971
-17.2988968 -194.0515747 90.4022598
-18.4020729 -194.2455902 89.8667526
-19.6440201 -194.4946289 89.0915756
-23.1438141 -195.2893677 86.5485382
-24.3316288 -195.6193848 85.4889526
-25.6398201 -196.0332336 84.1625824
24.4339142 -193.9957275 80.6964569
23.2721004 -193.6270905 82.2432251
22.0375481 -193.2770081 83.7584305
4.5013518 -191.1525574 94.1277924
3.4657984 -191.1653748 94.2408218
2.3951735 -191.1862640 94.3496475
1.1736381 -191.1485138 94.5951920
-9.1636467 -191.6204529 94.2518463
-10.4733009 -191.7742310 93.9086304
-15.0580435 -192.3159790 92.5303040
-16.2863235 -192.5115356 91.9561615
-17.2898521 -192.6305237 91.5874481
-18.3420124 -192.7577820 91.1652374
-19.6059875 -193.0238037 90.3923492
-23.1020813 -193.7650909 88.0551453
-24.2791748 -194.0609436 87.0902786
-25.5793037 -194.4356995 85.8663330
-26.8506031 -194.8412323 84.6135635
25.5055676 -192.7193451 81.0590591
24.3922081 -192.3796387 82.5311813
6.9525318 -189.9180298 94.2876587
5.6893559 -189.8323212 94.7545471
4.5022244 -189.7749329 95.0858536
3.4654353 -189.8185577 95.1527252
1.1596733 -189.8037109 95.4954300
-9.1423693 -190.2421570 95.2188492
-10.4642611 -190.4006653 94.8722229
-11.5658464 -190.5078735 94.6474533
-15.0455914 -190.9199677 93.5746078
-18.3254585 -191.3569336 92.2994385
-19.5680313 -191.5841370 91.5691605
-25.5394325 -192.9130249 87.3476410
-26.7924767 -193.2752075 86.1688004
-27.9143562 -193.6127472 85.1040955
26.7059097 -191.5732269 81.0087128
25.4687424 -191.1573792 82.7448044
24.3538208 -190.8583527 84.0701981
6.9425139 -188.5863953 95.1627808
5.6750755 -188.4877319 95.6267090
4.5013952 -188.4656219 95.9363480
-9.1454201 -188.9114227 96.0830154
-10.4490175 -189.0498047 95.7581177
-11.5455284 -189.1534729 95.5365906
-12.5299988 -189.2012177 95.4017258
-13.6692543 -189.3226318 95.0962524
-18.2795353 -189.9537811 93.3584290
-19.5351982 -190.1814270 92.6264725
-25.5079174 -191.4512939 88.6458130
-26.7487926 -191.7797394 87.5519485
-27.8458672 -192.0737915 86.5579605
-29.0172005 -192.4474335 85.4262772
27.9405670 -190.4746399 80.7353897
26.6627617 -190.0254517 82.6149979
6.9299364 -187.2648163 95.9734955
5.6797485 -187.1770172 96.4195938
1.1654155 -187.1535339 97.1314240
-13.6492710 -187.9963989 95.9409027
-18.2857380 -188.6077271 94.2386169
-19.5243149 -188.8266754 93.5595474
-27.8139954 -190.6166534 87.8383102
-28.9448967 -190.9197540 86.8125916
29.1194000 -189.3887482 80.4300613
27.8817806 -188.9368744 82.3012619
26.6136322 -188.5342102 84.0236511
6.9276018 -185.9425049 96.7358398
5.6748285 -185.8679199 97.1685486
-13.6349344 -186.6617432 96.7352295
-14.9649544 -186.8759460 96.1834564
-16.2061882 -187.0630493 95.6959000
-17.2102356 -187.1502991 95.4244080
-18.2634182 -187.2674255 95.0646667
-19.5117130 -187.4818726 94.4266281
-27.7632980 -189.1719208 89.0269623
-28.9031849 -189.4688568 88.0258560
-30.1511955 -189.8435516 86.7666855
-31.4459343 -190.2740479 85.3244324
30.2158718 -188.2671204 80.2122498
29.0578899 -187.8613129 81.9551163
6.9134817 -184.6723328 97.4181671
5.6814380 -184.6035919 97.8253326
4.4825258 -184.5303345 98.1637573
3.4571300 -184.5656738 98.1758804
2.3660657 -184.5631561 98.2644653
1.1545703 -184.5797729 98.5001373
-30.0975838 -188.4123535 87.9417191
-31.3869019 -188.8041382 86.5864716
-32.5924759 -189.2306824 85.2091599
31.3496151 -187.2061310 79.8023376
30.1718388 -186.7742004 81.6419067
29.0268250 -186.4148102 83.2363358
6.8972974 -183.3978882 98.0531158
5.6745338 -183.3304596 98.4424744
4.4873171 -183.2948914 98.7396164
3.4404902 -183.3063354 98.8347168
2.3583469 -183.3321228 98.9343719
1.1646216 -183.3286438 99.1192703
-30.0689602 -187.0119324 88.9979172
-31.3537560 -187.3870087 87.7127075
-32.5234909 -187.7363739 86.4582672
31.3070107 -185.7255249 81.1608582
-32.4956436 -186.3399353 87.5496063
-33.6315918 -186.6872711 86.3645630
32.5663300 -184.7897339 80.2848587
31.2719460 -184.2933655 82.3729248
-32.4467201 -184.9609070 88.5313873
-33.6001816 -185.3001862 87.3513031
32.5030975 -183.3458862 81.5180664
31.2421551 -182.9052734 83.4295654
-32.4208069 -183.6196899 89.3915558
-33.5486374 -183.9288025 88.2896118
-34.7555923 -184.2979279 87.0152283
33.7272758 -182.4253540 80.5305786
32.4792137 -181.9649963 82.5416565
31.2093506 -181.5483246 84.3620987
-32.3946190 -182.3005829 90.1645660
-33.5356636 -182.6032410 89.0992126
-34.7180786 -182.9460144 87.8873749
-35.9877548 -183.3532104 86.4334717
-37.3069649 -183.8455353 84.7513504
34.9118919 -181.5093842 79.5240173
33.6784668 -181.0335083 81.5894852
-37.2334099 -182.4447021 85.7199249
36.0622444 -180.5995178 78.4909897
34.8619690 -180.1227417 80.5689926
33.6492844 -179.6897583 82.4961700
-37.1814690 -181.0884399 86.5981445
36.0082207 -179.2124939 79.5138245
9.0828295 -174.9239960 100.6959763
7.9779992 -174.8941345 100.9749756
6.8363352 -174.8625488 101.2575073
5.6619606 -174.8265533 101.5370026
-37.1373558 -179.7584229 87.4053345
-38.3072929 -180.1373291 86.0521393
37.2578316 -178.3947296 78.1498032
35.9604721 -177.8560486 80.4357910
9.0756092 -173.7401733 101.0059967
7.9678960 -173.7143860 101.2836380
6.8305101 -173.6874847 101.5587616
5.6649237 -173.6602783 101.8243942
-37.1222191 -178.4760895 88.0616837
-38.2707100 -178.8272552 86.7626038
-39.5021324 -179.2470398 85.2950745
35.9359894 -176.5483856 81.1942368
11.3785429 -172.6800842 100.5526199
10.1836424 -172.6124268 100.9534607
9.0756397 -172.5794220 101.2622528
7.9567261 -172.5459595 101.5331268
5.6551094 -172.4860840 102.0850830
-39.4480400 -177.9280090 85.9880829
37.1800995 -175.7370605 79.7748566
35.9063835 -175.2603607 81.8775635
11.3560467 -171.5144958 100.8065796
10.1919098 -171.4618073 101.1807861
5.6487927 -171.3343506 102.3244095
-39.4218483 -176.6491547 86.5954590
37.1348915 -174.4328003 80.4696884
35.8919868 -173.9973907 82.4594498
13.6498823 -170.4786072 100.2021790
12.5051823 -170.4132690 100.6252365
11.3578892 -170.3566284 101.0260849
10.1844721 -170.2993927 101.3960953
5.6484318 -170.1858826 102.5193405
4.4931946 -170.1912689 102.7175446
3.3880091 -170.1719208 102.8953552
2.2586589 -170.1712646 103.0565872
1.1297162 -170.1797485 103.1863251
-39.3977470 -175.3794861 87.1466446
-40.6370621 -175.7876282 85.6373749
38.3804398 -173.6635437 78.8115158
37.1150780 -173.1738434 81.0419388
35.8751068 -172.7581787 82.9604950
13.6413965 -169.3363037 100.3982849
10.1867476 -169.1649017 101.5792160
9.0592413 -169.1231537 101.9013824
7.9389257 -169.0924530 102.1897354
6.8086996 -169.0740814 102.4458008
5.6453199 -169.0492859 102.6781387
4.4996037 -169.0422516 102.8810349
3.3866920 -169.0362244 103.0657883
2.2534070 -169.0355682 103.2265015
1.1243892 -169.0390320 103.3592072
-39.3807640 -174.1328430 87.6379700
-40.6134834 -174.5275879 86.1411438
39.6286659 -172.9315491 76.9920959
38.3540573 -172.3950500 79.3987656
13.6284275 -168.1867065 100.5686417
10.1733770 -168.0264893 101.7349167
9.0576191 -167.9894104 102.0496292
7.9329691 -167.9595490 102.3350906
4.4986472 -167.9061127 103.0334091
1.1166664 -167.9041290 103.5112152
-0.0481056 -167.9213257 103.6113815
-1.1722397 -167.9366455 103.6813507
-2.2898657 -167.9674988 103.7248993
-3.4186990 -167.9936218 103.7523575
-6.8362899 -168.1317749 103.6511993
-7.9715052 -168.1898499 103.5693665
-9.1056337 -168.2518005 103.4586945
-10.2696285 -168.3260193 103.3116684
-11.4029989 -168.4071655 103.1394653
-12.5228958 -168.4841614 102.9500275
-13.6651554 -168.5804596 102.7282257
-14.8097734 -168.6718140 102.4751205
-39.3636131 -172.9010620 88.0711212
-40.5937080 -173.2835083 86.6115494
-41.9046783 -173.7480774 84.8961487
39.5877190 -171.6555786 77.5897064
38.3374100 -171.1532593 79.8951340
13.6263323 -167.0579224 100.6981735
12.4823532 -167.0021210 101.1102524
11.3404961 -166.9470825 101.4945450
10.1755152 -166.8977356 101.8588028
9.0512733 -166.8550262 102.1819763
7.9307990 -166.8283997 102.4706726
4.4925146 -166.7754517 103.1639481
1.1101733 -166.7797699 103.6281815
-2.2945867 -166.8381958 103.8493195
-3.4315975 -166.8691559 103.8681030
-6.8340673 -167.0009613 103.7783051
-7.9772696 -167.0599976 103.6941681
-9.1102772 -167.1213684 103.5833740
-10.2684851 -167.1940002 103.4346542
-11.4011698 -167.2738647 103.2673950
-12.5291443 -167.3532715 103.0901031
-13.6717405 -167.4407501 102.8701324
-14.8230658 -167.5429382 102.6155930
-39.3548431 -171.6881409 88.4305878
-40.5636177 -172.0508728 87.0403595
-41.8545761 -172.4735413 85.4229736
39.5389404 -170.3951263 78.1313934
38.2985039 -169.9187927 80.3498688
18.2075100 -166.2489929 98.8143539
17.0496063 -166.1565552 99.3713913
15.8969574 -166.0726013 99.8858109
14.7471142 -165.9982758 100.3683472
11.3348484 -165.8185425 101.6013870
10.1719656 -165.7740021 101.9579544
6.7743092 -165.6807861 102.8273239
5.6359086 -165.6647339 103.0540771
4.4883370 -165.6490784 103.2712097
3.3743982 -165.6478424 103.4465942
2.2324681 -165.6462860 103.5970612
1.1035501 -165.6588745 103.7174149
-2.2991371 -165.7084045 103.9478912
-3.4362953 -165.7488556 103.9646606
-4.5701866 -165.7814331 103.9593964
-5.7201095 -165.8326111 103.9341431
-6.8320389 -165.8797607 103.8815994
-10.2716656 -166.0696259 103.5395813
-14.8259029 -166.4123230 102.7347183
-41.8537941 -171.2644196 85.7724762
-43.0696526 -171.7055969 84.0723343
39.5333023 -169.1802521 78.5156097
38.2919846 -168.7159119 80.6870651
18.2044640 -165.1242981 98.9117203
17.0483952 -165.0279083 99.4659119
15.8943100 -164.9482269 99.9778137
14.7468815 -164.8755951 100.4572067
11.3255348 -164.6998138 101.6729507
10.1751423 -164.6604614 102.0222168
3.3670619 -164.5326385 103.5172043
2.2346272 -164.5274353 103.6660233
1.1064395 -164.5441437 103.7792358
-0.0560651 -164.5557861 103.8791351
-1.1782885 -164.5764465 103.9611664
-2.3060939 -164.5987244 104.0137024
-3.4408736 -164.6320496 104.0347214
-10.2706747 -164.9514771 103.6266403
-14.8211298 -165.2857666 102.8214417
-41.8172569 -170.0460663 86.1132736
40.7738724 -168.4818420 76.5025787
39.5034637 -167.9653931 78.8838577
38.2774124 -167.5216064 80.9833755
18.1916161 -163.9998932 98.9908142
14.7333984 -163.7606964 100.5207138
13.6108122 -163.6986542 100.9459534
12.4640350 -163.6428223 101.3468933
11.3295975 -163.5940857 101.7147293
10.1671724 -163.5473938 102.0712662
9.0475750 -163.5157013 102.3738861
3.3616898 -163.4246063 103.5611420
2.2238514 -163.4245758 103.7099991
1.1008949 -163.4344940 103.8266907
-1.1719587 -163.4667816 104.0001602
-2.3022566 -163.4877930 104.0502167
-3.4389348 -163.5239258 104.0750046
-7.9351206 -163.6883545 103.9890594
-9.1101952 -163.7599945 103.8349380
-10.2703075 -163.8338623 103.6760406
-14.8163767 -164.1666565 102.8845978
-15.9733610 -164.2665710 102.6063843
-17.0964031 -164.3707581 102.3100510
-18.2377377 -164.4861450 101.9772110
-19.3823261 -164.6048431 101.6230927
-41.8086624 -168.8401947 86.4322662
-43.0257301 -169.2324219 84.9053345
40.7654457 -167.2796326 76.8104935
39.4998169 -166.7772827 79.1491547
38.2613678 -166.3396912 81.2246857
18.1894016 -162.8943939 99.0247269
12.4482937 -162.5323792 101.3782654
11.3268986 -162.4883575 101.7439957
10.1623096 -162.4428406 102.0906830
4.4845591 -162.3240814 103.4163666
3.3572514 -162.3187256 103.5850906
-1.1825808 -162.3664093 104.0190582
-2.3113685 -162.3923950 104.0681610
-14.8219166 -163.0569611 102.9270248
-18.2500534 -163.3717651 102.0232697
-19.3781605 -163.4858704 101.6753006
-41.8036423 -167.6549530 86.6811371
-43.0276718 -168.0386505 85.1850739
40.7339096 -166.0808716 77.0922318
15.8878326 -161.6257629 100.0779724
12.4454098 -161.4291992 101.3864670
11.3110800 -161.3807220 101.7550354
10.1660814 -161.3461304 102.0871429
-13.6758451 -161.8647156 103.1391754
-18.2527847 -162.2640533 102.0404587
-19.3829269 -162.3766327 101.6941071
-44.2598610 -167.2722931 83.7743454
40.7093582 -164.9034576 77.3010101
15.8705292 -160.5251617 100.0534439
14.7251892 -160.4553986 100.5258484
-17.1146889 -161.0536194 102.3446732
-18.2616692 -161.1620178 102.0264587
-19.3885365 -161.2739868 101.6899261
-44.2462845 -166.0906067 83.9607697
40.7052650 -163.7465210 77.4146729
18.1711349 -159.5954895 98.9741440
17.0196285 -159.5101471 99.5059814
15.8678102 -159.4346466 100.0026245
-15.9854832 -159.8559418 102.6002884
-17.1034813 -159.9517822 102.3159637
-44.2417412 -164.9220276 84.1037979
40.7028427 -162.6065063 77.4667740
18.1637821 -158.5079956 98.9033813
17.0178185 -158.4269714 99.4327011
15.8673782 -158.3494720 99.9303131
-17.1161194 -158.8618469 102.2689362
-44.2356186 -163.7656708 84.1913452
40.6886444 -161.4693298 77.4962082
18.1575089 -157.4275208 98.8066254
17.0026398 -157.3434143 99.3414841
-17.1175785 -157.7726135 102.2029114
-18.2717648 -157.8828583 101.8676910
-19.3989105 -157.9940796 101.5256729
-20.5687065 -158.1163483 101.1422424
-21.7066994 -158.2404022 100.7393646
-44.2230911 -162.6186371 84.2333527
-45.4979477 -163.0465393 82.5082855
41.9435425 -160.8496399 75.0249939
40.6820297 -160.3487854 77.4571381
18.1534748 -156.3514709 98.6853638
16.9999504 -156.2688599 99.2180710
-19.4172478 -156.9249420 101.4394150
-20.5766449 -157.0323486 101.0424042
-21.7072105 -157.1531982 100.6454773
-44.2231216 -161.4851532 84.2273712
-45.4882774 -161.9039764 82.5216370
41.9639130 -159.7259216 74.9676208
40.6842117 -159.2418060 77.3533630
18.1455822 -155.2798462 98.5432053
17.0013924 -155.1995850 99.0690536
15.8588457 -155.1262360 99.5646439
-20.5885639 -155.9559021 100.9080353
-21.7175655 -156.0757294 100.5170670
-44.2309761 -160.3627014 84.1720276
-45.5022545 -160.7786865 82.4645996
41.9701767 -158.6183777 74.8559494
40.6718636 -158.1393127 77.2270966
18.1507893 -154.2134094 98.3742142
16.9987888 -154.1336975 98.9009628
-20.5980206 -154.8831329 100.7533493
-21.7370148 -155.0032654 100.3617783
-44.2430763 -159.2509460 84.0686951
-45.5164146 -159.6624451 82.3671646
40.6814766 -157.0565491 77.0100327
18.1469269 -153.1521301 98.1802597
16.9989281 -153.0736389 98.7041168
-19.4249611 -153.6941528 100.9656143
-20.5856838 -153.8112335 100.5875244
-21.7384758 -153.9331665 100.1889496
-44.2602844 -158.1460114 83.9312592
-45.5133553 -158.5474243 82.2581940
40.6849289 -155.9806824 76.7556458
18.1457748 -152.0965881 97.9574738
16.9963303 -152.0178680 98.4847641
15.8456202 -151.9444427 98.9873352
-19.4422073 -152.6336212 100.7560349
-20.6078701 -152.7501221 100.3791275
-21.7378426 -152.8675232 99.9920883
-44.2624435 -157.0433502 83.7795258
-45.5177269 -157.4444580 82.0943604
41.9753723 -155.3991699 74.0063019
40.6912651 -154.9179993 76.4387665
18.1472816 -151.0449219 97.7131195
16.9925518 -150.9664612 98.2417526
15.8467798 -150.8952332 98.7363129
-19.4506187 -151.5756226 100.5298004
-20.6044502 -151.6890869 100.1621857
-21.7477379 -151.8076324 99.7694855
-44.2819290 -155.9565430 83.5546112
-45.5363159 -156.3539734 81.8735352
41.9759789 -154.3438568 73.6314697
40.7016907 -153.8673859 76.0571213
18.1448956 -149.9977722 97.4444351
-21.7708302 -150.7533875 99.5182419
-44.2994843 -154.8768616 83.2925186
42.0083351 -153.3054047 73.1634216
40.7141914 -152.8244781 75.6367645
18.1338120 -148.9559174 97.1503830
-21.7746716 -149.7039337 99.2403946
-44.3009644 -153.8007813 83.0094604
40.7395935 -151.7969360 75.1311722
18.1388626 -147.9205780 96.8178558
16.9929085 -147.8404236 97.3579483
15.8471642 -147.7673035 97.8694229
14.6994228 -147.6970825 98.3616028
-18.3518486 -148.3266602 100.0342331
-19.4858379 -148.4294434 99.7018967
-20.6384850 -148.5407715 99.3331451
-21.7898026 -148.6587372 98.9329681
-44.3312912 -152.7419434 82.6423187
-45.6013718 -153.1268921 80.9724197
40.7377701 -150.7741852 74.6057816
15.8387508 -146.7354279 97.5282745
14.6883183 -146.6667175 98.0159149
-21.8009167 -147.6161194 98.6135406
-44.3595695 -151.6863098 82.2512665
40.7627869 -149.7629395 74.0048065
15.8458729 -145.7073669 97.1480560
14.6909561 -145.6394958 97.6395264
-21.8152771 -146.5767822 98.2734451
-44.3852234 -150.6368561 81.8269958
40.7914467 -148.7674408 73.3192139
39.5121002 -148.3225403 75.6828690
38.2773132 -147.9327850 77.7457199
15.8466587 -144.6828613 96.7541351
14.6889324 -144.6172791 97.2467194
-17.2300930 -145.1160126 99.3277206
-18.3716965 -145.2178650 99.0154724
-19.5217934 -145.3161011 98.6733017
-20.6773281 -145.4297485 98.3054810
-21.8372841 -145.5433807 97.8974762
-41.9351959 -148.9069672 84.3620529
-43.1521835 -149.2339783 82.9479065
-44.4073715 -149.5945435 81.3632507
40.8194885 -147.7837219 72.5676575
39.5272789 -147.3262787 75.0083923
38.2962341 -146.9316101 77.1099701
15.8494778 -143.6625519 96.3371277
14.7010965 -143.5957031 96.8179016
10.1125879 -143.4022217 98.4281311
-0.1428836 -143.3033905 100.3605804
-1.2190384 -143.3054504 100.5217743
-17.2448692 -144.0899200 98.9303741
-18.4037380 -144.1876984 98.6083755
-19.5409927 -144.2897491 98.2704391
-20.6904907 -144.4004822 97.9031754
-21.8421001 -144.5142212 97.5005417
-41.9611893 -147.8731995 83.8747406
-43.1846733 -148.2031555 82.4360962
-44.4401588 -148.5623474 80.8389816
39.5411682 -146.3421478 74.2820587
38.3025665 -145.9384308 76.4396515
15.8433895 -142.6463470 95.8919830
14.6863680 -142.5848846 96.3799896
13.5593691 -142.5240479 96.8140335
8.9728718 -142.3635101 98.2826843
-0.1491578 -142.2842560 99.9468994
-14.9546175 -142.8906708 99.0578156
-16.1188660 -142.9755859 98.7934036
-17.2419052 -143.0697632 98.5093765
-41.9947357 -146.8481140 83.3299866
-43.2150345 -147.1792145 81.8773346
39.5718536 -145.3722534 73.4491272
38.3294220 -144.9619598 75.6615601
15.8467112 -141.6346588 95.4139328
14.6885157 -141.5701447 95.9029617
13.5556822 -141.5131378 96.3430710
12.3858452 -141.4603577 96.7859573
11.2628756 -141.4092407 97.1807404
10.1075563 -141.3740082 97.5354004
8.9706717 -141.3437347 97.8465347
7.8241158 -141.3141174 98.1502991
6.6845183 -141.2898102 98.4398651
-1.2737916 -141.2622223 99.6335144
-14.9608994 -141.8696136 98.6222916
-16.1331406 -141.9579163 98.3417587
-17.2698040 -142.0485992 98.0519791
-42.0200958 -145.8296204 82.7570572
-43.2432022 -146.1629639 81.2810287
39.6067467 -144.4163208 72.5490799
38.3561592 -143.9955750 74.8279572
6.6773062 -140.2792511 97.9592209
5.5515461 -140.2610931 98.2018890
0.9971141 -140.2486725 98.9268799
-0.1581668 -140.2566223 99.0325394
-1.2982070 -140.2710876 99.1302185
-2.4326298 -140.2850342 99.2026520
-3.5689654 -140.3168640 99.2332764
-4.7053990 -140.3498993 99.2342987
-5.8592682 -140.3733368 99.2303543
-10.4245987 -140.5797882 98.8871155
-11.5545654 -140.6302032 98.7614594
-14.9776487 -140.8560181 98.1521759
-42.0487137 -144.8179169 82.1362686
-43.2818909 -145.1555634 80.6251221
39.6534462 -143.4732819 71.5464783
38.3803024 -143.0423584 73.9284515
6.6734743 -139.2765503 97.4567795
5.5362859 -139.2583923 97.7002106
4.3972435 -139.2447662 97.9190903
3.2576470 -139.2367554 98.1168976
2.1079764 -139.2353210 98.2939835
0.9847481 -139.2441711 98.4344101
-0.1600542 -139.2508240 98.5403900
-1.2904029 -139.2664642 98.6304016
-2.4423339 -139.2878418 98.6919250
-3.5891211 -139.3092957 98.7198944
-4.7206626 -139.3460693 98.7292862
-5.8644409 -139.3708038 98.7272491
-10.4337921 -139.5672760 98.3975983
-11.5640841 -139.6274109 98.2617874
-12.7198048 -139.6878052 98.0967407
-13.8514271 -139.7636108 97.8907776
-14.9948797 -139.8483887 97.6429749
-42.0957298 -143.8167725 81.4503326
-43.3330498 -144.1545715 79.9207382
38.4062195 -142.1010132 72.9426270
-4.7220383 -138.3355865 98.2231598
-5.8714261 -138.3726959 98.2172241
-7.0022535 -138.4101105 98.1777191
-8.1539574 -138.4550323 98.1052246
-9.2782288 -138.5111542 98.0141678
-10.4334288 -138.5662079 97.8897552
-39.6735687 -142.2127228 83.4771576
-40.8744431 -142.5022736 82.1920319
-42.1219559 -142.8280640 80.7321091
38.4354095 -141.1714172 71.8844299
-4.7294197 -137.3326874 97.6914825
-5.8798704 -137.3687592 97.6734467
-7.0184064 -137.4092865 97.6243439
-8.1647081 -137.4544678 97.5553131
-9.2936106 -137.5045166 97.4616852
-10.4534121 -137.5574799 97.3425980
-39.7133102 -141.2192688 82.7496490
-40.9129791 -141.5152130 81.4291840
38.4985390 -140.2449493 70.7227554
37.2182159 -139.8356934 73.0662537
35.9762115 -139.4728394 75.1132050
-39.7381630 -140.2323608 81.9933853
-40.9431381 -140.5281677 80.6541138
37.2695885 -138.9184418 71.8963394
36.0037766 -138.5456848 74.0449142
-39.7882195 -139.2546692 81.1633224
-40.9956398 -139.5560303 79.7825699
36.0297279 -137.6320190 72.9016724
-9.3316746 -134.5191345 95.6687393
-10.4860516 -134.5778198 95.5476227
-11.6275024 -134.6393738 95.3962631
-12.7800560 -134.7002716 95.2072372
-13.9238787 -134.7728577 94.9928055
-15.0700788 -134.8512726 94.7509079
-39.8260117 -138.2851105 80.2905045
-41.0453987 -138.5953369 78.8592911
37.3700867 -137.1288300 69.2439117
36.0716438 -136.7306061 71.6434326
-9.3428335 -133.5326385 95.0120850
-10.5077829 -133.5839233 94.8798599
-11.6434708 -133.6499634 94.7315292
-12.7904129 -133.7185211 94.5494843
-13.9568758 -133.7859650 94.3289337
-15.0808792 -133.8666840 94.0946960
-39.8722038 -137.3257141 79.3460083
-41.1056099 -137.6394501 77.8638153
36.1304359 -135.8368530 70.2784271
34.8793907 -135.4809723 72.3988342
33.6320992 -135.1458435 74.3599243
-9.3597851 -132.5552979 94.3221893
-15.1013136 -132.8838348 93.3938599
-39.9172592 -136.3796539 78.3375626
-41.1600037 -136.6985779 76.8026276
34.9135895 -134.5916748 71.0487366
33.6561775 -134.2486877 73.0948639
-9.3736448 -131.5733185 93.5906906
-10.5347271 -131.6282501 93.4659882
-15.1228466 -131.9083557 92.6499329
-39.9795494 -135.4419250 77.2304306
33.7109795 -133.3663483 71.6848831
32.4783554 -133.0477295 73.5954819
31.2488251 -132.7582092 75.3183060
-9.3876095 -130.6009369 92.8343277
-10.5444784 -130.6639099 92.7017212
-11.6971769 -130.7252655 92.5089264
-15.1444149 -130.9332428 91.8733215
-37.5674667 -133.9136505 78.9629440
-38.7787132 -134.1997681 77.6075592
-40.0300255 -134.5139160 76.0721588
33.7679672 -132.4843292 70.2089462
32.5161171 -132.1677856 72.1989136
31.2824459 -131.8669739 74.0041656
-9.4032497 -129.6279144 92.0424576
-10.5725937 -129.6831360 91.9006424
-11.7115116 -129.7493286 91.7383728
-12.8716421 -129.8143005 91.5408325
-14.0198622 -129.8817749 91.3150787
-15.1606245 -129.9669952 91.0675278
-37.6253510 -132.9813995 77.8151932
-38.8453293 -133.2801208 76.3982086
32.5553513 -131.3072662 70.6841888
31.3174229 -130.9963989 72.5729523
30.1217155 -130.7179565 74.2154617
28.8911057 -130.4754486 75.7751465
27.6878357 -130.2532959 77.1627350
26.5001526 -130.0477295 78.4022522
-35.2268333 -131.5283203 79.1964569
-36.4323692 -131.7840576 77.9818802
-37.6764984 -132.0649414 76.6026917
-38.9039841 -132.3681335 75.1133041
32.6434517 -130.4463348 68.9661636
31.3668747 -130.1356659 70.9976959
30.1672134 -129.8370972 72.7744370
28.9338226 -129.5773163 74.4046936
27.7205925 -129.3557129 75.8563080
26.5194454 -129.1449890 77.1804504
-35.2810059 -130.6062164 77.9953308
-36.4945145 -130.8696747 76.7222900
-37.7331314 -131.1613922 75.2891006
-38.9790230 -131.4693604 73.7219772
31.4120979 -129.2939453 69.3126678
27.7507267 -128.4640503 74.4727478
26.5546341 -128.2491150 75.8524170
-35.3413773 -129.6964417 76.7036896
-36.5620880 -129.9705811 75.3532791
28.9899349 -127.8598557 71.3587952
27.7832069 -127.5956879 72.9743576
26.5765057 -127.3655090 74.4321899
-35.4064789 -128.8025208 75.3053055
-36.6193542 -129.0872650 73.8997803
29.0553169 -127.0280533 69.5413513
27.8072701 -126.7526093 71.3455124
26.6116772 -126.5032349 72.8792419
-33.0207825 -127.3975220 76.4152527
-34.2438774 -127.6506500 75.1722794
-35.4648361 -127.9253006 73.8126450
29.1215916 -126.2049561 67.5867615
27.8458290 -125.9270172 69.5408325
26.6369877 -125.6649170 71.2116165
-33.0694847 -126.5177002 74.9665070
-34.3021317 -126.7807541 73.6356354
27.9411278 -125.1007996 67.5108490
26.6792488 -124.8476563 69.3422089
-30.6979256 -125.1712189 75.7663422
-31.9277878 -125.4012451 74.6050415
-33.1498642 -125.6537323 73.3353043
-34.3861618 -125.9278107 71.9234085
26.7512150 -124.0495300 67.2165909
-30.7755241 -124.3021164 74.1615982
-32.0053635 -124.5451355 72.9145966
-33.2234344 -124.8111877 71.5651474
26.7962399 -123.2873077 64.9164505
25.5453262 -123.0182648 66.8780441
24.3523102 -122.7516174 68.5865860
23.1219769 -122.5077057 70.1663971
21.9270058 -122.2966080 71.5040359
-30.8366814 -123.4550629 72.4412766
-32.0744934 -123.7117920 71.0865479
25.6238766 -122.2714386 64.3770828
24.3980293 -121.9916458 66.3103180
23.1609058 -121.7227783 68.0496902
21.9725189 -121.4939041 69.5266876
-30.9107685 -122.6310806 70.5369110
23.1935825 -120.9822540 65.6995926
21.9965515 -120.7285156 67.3437500
20.7924557 -120.4979630 68.8115768
19.6151161 -120.3065414 70.1015091
-26.1265888 -120.9102554 73.1862183
-27.3353119 -121.1126328 72.1870422
-28.5464554 -121.3291245 71.0597839
-29.7756653 -121.5720673 69.8043518
-30.9916706 -121.8238525 68.4422302
23.2783089 -120.2477036 62.9284668
22.0440998 -119.9883041 64.8530426
20.8100147 -119.7485504 66.5763855
19.6301460 -119.5300369 67.9987106
-26.1975574 -120.0866394 71.2817535
-27.4155006 -120.2985001 70.1726990
-28.6192913 -120.5336456 68.9636993
20.8879185 -119.0033493 63.8924179
19.6824131 -118.7966614 65.4935074
18.4599705 -118.5794601 66.9752426
17.2583752 -118.3868408 68.2629166
-21.4823818 -118.5608368 72.8277512
-22.6488724 -118.7205505 72.0882111
-23.8561687 -118.8896027 71.2037659
-25.0541649 -119.0773392 70.2427139
-26.2559834 -119.2849274 69.1719360
-27.4829121 -119.5147400 67.9538269
19.7359352 -118.0937576 62.6182327
18.4926205 -117.8704681 64.3358841
17.2763214 -117.6568069 65.8150406
-21.5257568 -117.7436676 70.8317108
-22.7145252 -117.9113083 70.0101471
-23.9290276 -118.0911179 69.0423584
-25.1336708 -118.2988434 67.9761200
-26.3364410 -118.5249023 66.7962952
17.3276978 -116.9524078 62.9534225
16.1119194 -116.7671661 64.4254761
14.9257040 -116.5758591 65.7138062
13.7478886 -116.4114761 66.8434296
12.5449276 -116.2714615 67.8606110
-19.2017670 -116.6449738 70.1789703
-20.3894310 -116.7932739 69.4367218
-21.5854530 -116.9562607 68.6066666
16.1536198 -116.1087646 61.2518234
14.9503078 -115.9052277 62.7926102
13.7750406 -115.7158279 64.0794601
12.5554008 -115.5539932 65.2822342
-19.2592163 -115.8692017 67.8446350
-20.4444065 -116.0346527 67.0346146
-21.6658020 -116.2196121 66.0537567
13.8140640 -115.0373840 60.8142776
12.5836859 -114.8838882 62.2280312
11.3914833 -114.7289505 63.4212914
10.2014284 -114.5854950 64.4458847
-14.5484381 -114.5880508 67.9629593
-15.7223911 -114.7034607 67.4299316
-16.9257565 -114.8357010 66.7790680
-18.1141605 -114.9914780 66.0485611
-19.3233376 -115.1650696 65.1944809
-20.5197754 -115.3309784 64.2398834
10.2325773 -113.9144287 61.1828957
-14.5996351 -113.8616867 65.2789307
-15.7879820 -113.9954834 64.6460266
-16.9895077 -114.1487274 63.8786469
-18.1671925 -114.3140717 62.8687553
9.0656252 -113.2066803 58.4111366
7.8703585 -113.0586395 59.6371574
6.6743336 -112.9155731 60.6355133
5.4938393 -112.8183670 61.5215149
4.2940931 -112.7646866 62.2646904
3.1249359 -112.6871338 62.8994904
1.9188073 -112.6317139 63.4172173
0.7468760 -112.5881424 63.7773056
-0.4364655 -112.5625610 64.1287231
-1.5982676 -112.5488663 64.4210892
-2.7918348 -112.5401306 64.5847015
-3.9869950 -112.5495224 64.6775513
-5.1571836 -112.5757675 64.7058487
-6.3415217 -112.6115799 64.6653748
-7.5143185 -112.6601028 64.5648117
-8.7151146 -112.7166824 64.3505936
-9.8900433 -112.7888947 64.0703735
-11.0894136 -112.8764725 63.7200928
-12.2713041 -112.9699554 63.2958565
-13.4652042 -113.0719986 62.7436218
-14.6620712 -113.2108078 62.0889778
-15.8524342 -113.3421707 61.3317986
4.3066206 -112.1689453 58.3342285
3.1276307 -112.0966721 59.1665306
1.9185846 -112.0535202 59.7876434
0.7348124 -111.9956665 60.2618065
-0.4546153 -111.9576645 60.7088547
-1.6235011 -111.9297409 61.0269279
-2.8183589 -111.9091721 61.2486458
-4.0111656 -111.9206009 61.3479080
-5.1893878 -111.9578323 61.3648567
-6.3774128 -111.9937744 61.3343582
-7.5478058 -112.0371475 61.2076874
-8.7509823 -112.0998383 60.9675446
-9.9300747 -112.1816330 60.6430931
-11.1412878 -112.2645798 60.1726151
-5.2153125 -111.4235687 57.0280342
-51.1731071 -96.6592636 -147.3457642
-52.6973839 -96.8621826 -148.9436340
-49.5430527 -94.7985611 -144.0653687
-51.0699997 -94.9566040 -145.3580627
-52.5608406 -95.1220551 -146.7813416
-54.1277466 -95.3453522 -148.4990845
5.5302882 -93.4004364 -153.2836609
-47.9788284 -93.0350571 -141.3402863
-49.4645081 -93.1684265 -142.3976135
-54.0008698 -93.6333237 -146.4518738
-55.5353622 -93.8302078 -148.1921997
5.5156403 -91.6967926 -151.0556183
4.0404897 -91.4977875 -149.0256653
-46.4065247 -91.2958755 -139.0117340
-47.9125824 -91.4269485 -139.9239807
-49.4078102 -91.5592117 -140.9341736
-53.9384155 -92.0062561 -144.6898804
-55.4413376 -92.1748199 -146.2326508
-57.0290871 -92.4161606 -148.0198517
8.4099827 -90.4459381 -153.8047638
6.9643574 -90.2335587 -151.3558197
5.4901886 -90.0310364 -149.2128296
4.0327091 -89.8615875 -147.3311615
2.6140895 -89.7299576 -145.7117004
1.1481956 -89.6025925 -144.1873627
-46.3664474 -89.7243881 -137.7912140
-56.9213829 -90.7424240 -146.2519836
-58.4863358 -90.9607925 -148.0990143
9.8757229 -89.0219879 -154.4898834
8.3943377 -88.7708740 -151.7892761
6.9466672 -88.5816116 -149.5606232
5.4928074 -88.4109573 -147.5976410
4.0369396 -88.2571640 -145.8326721
2.5987940 -88.1234589 -144.2760162
1.1366730 -87.9989395 -142.8552856
-0.2749570 -87.9272003 -141.6344604
-41.9171181 -87.8957977 -134.6880798
-43.3892479 -87.9643326 -135.2872314
-44.8605804 -88.0641632 -135.9482422
-46.3205147 -88.1639404 -136.6697388
-56.8398590 -89.1166458 -144.6667480
-58.3941040 -89.3146210 -146.4160767
11.3438139 -87.6169968 -155.3274841
9.8657990 -87.3481903 -152.4787598
8.3897762 -87.1295776 -150.0302887
1.1287092 -86.4386749 -141.6810913
-0.2839135 -86.3390198 -140.4758606
-41.8744888 -86.3410187 -133.7063446
-43.3594246 -86.4330902 -134.2969360
-56.7771072 -87.5193329 -143.2704010
-58.3154526 -87.6921997 -144.8866272
-59.8523407 -87.8969803 -146.6745911
11.3005552 -85.9443512 -153.3316498
9.8564634 -85.7232361 -150.7763519
8.3900366 -85.5322037 -148.5627441
1.1278809 -84.8829041 -140.6037750
-0.2851635 -84.7927399 -139.4451599
-1.7417071 -84.7122879 -138.3533936
-40.4193878 -84.7575378 -132.3866577
-41.8621864 -84.8249969 -132.8632202
-43.3169670 -84.8901596 -133.4049072
-56.7013893 -85.9286652 -142.0039978
-58.2442703 -86.1011047 -143.5353088
-59.7512970 -86.2730637 -145.2166748
12.8246899 -84.5882874 -154.5722046
11.2721090 -84.3121414 -151.6635437
-1.7388635 -83.1850128 -137.4798889
-40.3742294 -83.2242584 -131.5987549
-59.6777687 -84.6860275 -143.9313049
-61.2198524 -84.8776245 -145.7910767
11.2826433 -82.7293854 -150.3171997
-1.7382078 -81.6623230 -136.6919556
-38.8950920 -81.6591949 -130.4625854
-40.3620338 -81.7218933 -130.9046936
-59.6332283 -83.1204224 -142.8231354
-61.1768227 -83.3004837 -144.5585938
12.7493782 -81.3527527 -151.5492554
11.2750530 -81.1586304 -149.1028748
-1.7415190 -80.1447678 -135.9722900
-3.1555367 -80.0877228 -135.0323181
-59.5867615 -81.5651245 -141.8198853
-61.1268768 -81.7404785 -143.4817810
-62.6921234 -81.9362183 -145.2952271
14.2077808 -80.0036011 -153.0013580
12.7534666 -79.7874680 -150.3747406
11.2554340 -79.5950317 -148.0126038
-1.7383304 -78.6525116 -135.3220978
-3.1658216 -78.5822601 -134.4161377
-4.5983553 -78.5327911 -133.5840454
-59.5391426 -80.0241699 -140.9292908
-61.0818024 -80.1893158 -142.5286560
-62.6215134 -80.3670807 -144.2657166
14.1807919 -78.4239273 -151.7987061
-4.6005430 -77.0445099 -133.0422974
-37.4206734 -77.1241608 -128.4342346
-62.5524826 -78.8120193 -143.3370972
-64.1781464 -79.0203857 -145.2772827
15.6708031 -77.1020355 -153.6472168
14.1819620 -76.8746719 -150.7825165
-4.6042285 -75.5570755 -132.5441284
-6.0140057 -75.5204391 -131.8062744
-35.9592552 -75.5987778 -127.7020874
-37.4028091 -75.6412659 -127.9812927
-62.5229416 -77.2836914 -142.5509796
-64.0992584 -77.4653702 -144.4023285
-65.6626892 -77.6682892 -146.4084930
17.1537361 -75.8059387 -155.7774811
15.6386108 -75.5384827 -152.5684052
14.1802597 -75.3420639 -149.9153137
-4.6090059 -74.0736237 -132.0960388
-6.0259080 -74.0419083 -131.3846436
-7.4398799 -74.0073166 -130.7163696
-35.9485703 -74.1202393 -127.2981262
-37.3955269 -74.1672516 -127.5735092
-65.6127167 -76.1259613 -145.5874634
17.1042519 -74.2340164 -154.6942291
15.6456041 -74.0084839 -151.7433929
14.1541729 -73.8113251 -149.1391296
-4.6020007 -72.6086578 -131.7115784
-6.0327396 -72.5674286 -130.9969482
-7.4488349 -72.5298462 -130.3465118
-8.8848181 -72.5028458 -129.7307892
-33.0663452 -72.5844727 -126.5327530
-34.5160141 -72.6171265 -126.7169952
-35.9355011 -72.6570969 -126.9366150
-37.3754578 -72.6990814 -127.2164459
-65.5541382 -74.5864716 -144.8397522
17.0887775 -72.6959381 -153.8480682
-7.4454236 -71.0679626 -130.0424042
-8.8730335 -71.0419693 -129.4360352
-10.2853060 -71.0134888 -128.8774719
-11.7270889 -70.9922028 -128.3728027
-31.6409645 -71.0811462 -126.0845337
-33.0572929 -71.1198044 -126.2237396
-34.4957924 -71.1508408 -126.3991241
-65.5333786 -73.0724716 -144.2436218
-67.1436920 -73.2775574 -146.3475647
18.6421013 -71.4441071 -156.5856018
17.0881500 -71.1773987 -153.1922150
-7.4438658 -69.6162186 -129.7793427
-8.8815155 -69.5814514 -129.1586609
-10.2910500 -69.5568008 -128.6151886
-11.7294950 -69.5385666 -128.1398010
-13.1252785 -69.5243073 -127.7131042
-14.5722342 -69.5055618 -127.2809143
-15.9610929 -69.5078735 -126.9256134
-27.3563290 -69.5578613 -125.6213989
-28.7632637 -69.5646439 -125.6543655
-30.2027588 -69.6030731 -125.7414551
-31.6417427 -69.6258469 -125.8360062
-33.0615997 -69.6661835 -125.9678497
-34.4887505 -69.6916580 -126.1381378
-65.4914780 -71.5578613 -143.6974182
