-31.8290291 -180.6975708 89.7422028
30.6516113 -178.8699341 83.9337006
29.4940662 -178.4739685 85.6901398
7.4900360 -175.3895874 101.3213272
6.2812090 -175.3141785 101.7155151
5.0534420 -175.2654266 102.0857391
3.9619350 -175.2425690 102.2834320
2.9266746 -175.2853088 102.3506775
1.7951146 -175.2765656 102.5146637
0.5542812 -175.2564087 102.7328033
-0.6356108 -175.2615051 102.8646317
-10.9062996 -175.8158264 102.1235657
-11.9095554 -175.8538208 102.0008316
-12.9743290 -175.9397888 101.8193436
-14.1977472 -176.0786743 101.4251251
-15.4897804 -176.2691345 100.9384003
-16.5791836 -176.3657379 100.6300049
-31.7913208 -179.2755127 90.9131165
30.5968018 -177.4066467 85.3239746
29.4625168 -177.0590515 86.9187622
7.4721327 -174.1303406 101.9401398
6.2740650 -174.0595703 102.3167725
5.0549216 -174.0214996 102.6596451
3.9519432 -174.0182495 102.8411102
2.9104176 -174.0382843 102.9388580
1.7708424 -174.0339966 103.1020126
0.5443153 -174.0191345 103.3046112
-0.6266607 -174.0285187 103.4275894
-10.8929501 -174.5681152 102.7345810
-11.9026623 -174.6029053 102.6218185
-12.9742908 -174.6918945 102.4244461
-14.1893082 -174.8194885 102.0493469
-15.4528770 -174.9909821 101.5996399
-16.5736523 -175.1136169 101.2721939
-31.7575111 -177.9063873 91.9568939
-32.8902359 -178.2253113 90.8020096
-34.0394440 -178.5669861 89.5529785
31.7865372 -176.4052734 84.6748962
30.5580997 -175.9877319 86.5393143
29.4213486 -175.6751404 88.0217056
-17.5847549 -173.9393463 101.6129303
-18.7041893 -174.0721130 101.2031708
-19.9794998 -174.2838440 100.5900803
-21.1930637 -174.4606018 100.0242157
-34.0061760 -177.1763763 90.6105042
-35.2546120 -177.5812836 89.1841736
33.0460587 -175.4917450 83.7045898
31.7415810 -174.9960327 85.8479767
30.5325089 -174.6235504 87.5746460
29.3869991 -174.3212280 88.9957352
-17.5761127 -172.7101288 102.1573486
-18.6999092 -172.8315125 101.7548370
-19.9549561 -173.0224457 101.1794128
-21.1703053 -173.2153168 100.6223907
-33.9587288 -175.8136902 91.5786438
-35.2054825 -176.1983643 90.1991272
32.9852943 -174.0732422 84.8831329
31.7212009 -173.6451874 86.8408813
-15.4203739 -171.2813110 103.2533417
-16.5084686 -171.3708191 102.9643631
-17.5745945 -171.4743500 102.6845398
-19.9592743 -171.8002625 101.7327957
-21.1459560 -171.9640503 101.1904449
-33.9389992 -174.4935303 92.4224701
-35.1609268 -174.8475342 91.1209641
-36.4855652 -175.2775879 89.6101913
34.1676636 -173.1400757 83.9222565
32.9524460 -172.7149963 85.8914642
31.6861973 -172.3080444 87.7490234
-15.3879795 -170.0529480 103.7370300
-19.9505692 -170.5644226 102.2325592
-21.1182022 -170.7257538 101.7073822
-33.9094505 -173.1826172 93.2037506
-35.1262436 -173.5173950 91.9573669
-36.4291382 -173.9196472 90.4857178
35.3183098 -172.2253265 82.9138870
34.1326370 -171.7833557 84.9334564
-1.6844327 -168.0265045 105.6952209
-2.7863224 -168.0531921 105.7279968
-3.9436626 -168.0950012 105.7310410
-5.1384048 -168.1413422 105.7052155
-6.2509804 -168.1892853 105.6591263
-7.3202300 -168.2374725 105.5912781
-15.3714600 -168.8414612 104.1688232
-19.9135647 -169.3522949 102.6714630
-21.1094074 -169.5162811 102.1648254
-36.3767090 -172.5934448 91.2977753
-37.5698166 -172.9857178 89.8786697
36.4927864 -171.3404694 81.7217102
35.2786827 -170.8554382 83.9343109
34.0967484 -170.4536285 85.8281555
-1.6880726 -166.8474426 106.0401611
-2.7946675 -166.8760071 106.0692520
-7.3288822 -167.0657349 105.9295120
-15.3626385 -167.6548309 104.5362244
-16.4844723 -167.7697144 104.2258072
-17.5725555 -167.8713379 103.9239502
-18.7058392 -167.9910736 103.5541229
-19.9080353 -168.1504517 103.0753937
-21.0882473 -168.3010101 102.5974808
-36.3493500 -171.3019104 92.0250626
-37.5210838 -171.6409607 90.7256393
-38.6895866 -172.0132141 89.3741455
36.4556656 -169.9854126 82.7244110
-1.6825408 -165.6840973 106.3373032
-2.8007572 -165.7072449 106.3704224
-7.3254790 -165.8832703 106.2521591
-8.4547234 -165.9385681 106.1523056
-9.6394997 -166.0201111 106.0002441
-38.6412277 -170.6958008 90.1351776
36.4165077 -168.6535187 83.6020203
-1.6815587 -164.5286102 106.6052246
-2.8049908 -164.5539856 106.6395645
-9.6294174 -164.8518677 106.2878036
-38.6177635 -169.4122620 90.7960358
-39.8630524 -169.8190765 89.2942429
36.3898926 -167.3608246 84.3520966
-1.6906424 -163.3614502 106.8598785
-2.8055296 -163.3986206 106.8907928
-9.6297722 -163.7035217 106.5293427
-38.5958061 -168.1536713 91.3841248
-39.8207932 -168.5316772 89.9407196
36.3489113 -166.0838318 85.0319977
-1.6892066 -162.2285767 107.0790329
-2.8083999 -162.2449646 107.1162491
-3.9512916 -162.2905121 107.1197128
-5.1145954 -162.3270111 107.1007690
-6.2334433 -162.3718262 107.0484848
-9.6226358 -162.5487671 106.7604218
-38.5804977 -166.9087982 91.9092789
-39.7821274 -167.2648621 90.5182495
37.5942726 -165.2793884 83.4749908
36.3330536 -164.8353424 85.5887985
7.3614674 -161.0929718 105.9858627
6.2219830 -161.0623322 106.2549896
5.0579281 -161.0526886 106.4895630
3.9455049 -161.0432587 106.6737747
2.8277960 -161.0402374 106.8389130
1.7020129 -161.0380707 106.9901276
-6.2293992 -161.2330017 107.2455215
-7.3418407 -161.2811432 107.1729889
-8.4652863 -161.3417816 107.0851059
-9.6163473 -161.4070129 106.9682770
-38.5657883 -165.6769562 92.3865585
-39.7589912 -166.0192871 91.0411148
38.8421555 -164.5200958 81.7385101
37.5823860 -164.0387115 84.0174179
36.3184319 -163.6130676 86.0650177
7.3546352 -159.9648438 106.1527634
6.2141633 -159.9318542 106.4190826
3.9395080 -159.9091492 106.8393326
2.8266053 -159.9104767 106.9977646
1.6915313 -159.9148102 107.1490784
-6.2296138 -160.1008301 107.4161530
-7.3472476 -160.1559753 107.3467560
-8.4764032 -160.2118835 107.2556000
-9.6233244 -160.2679443 107.1387024
-38.5435791 -164.4542999 92.8226547
-39.7385330 -164.7883301 91.5157013
-41.0139275 -165.1848450 89.9646301
-42.3091316 -165.6460571 88.2064743
38.8094635 -163.2611084 82.3195496
7.3444586 -158.8292694 106.2950745
6.2112403 -158.8124237 106.5530243
2.8170056 -158.7849274 107.1353912
1.6901113 -158.7864685 107.2865601
-3.9553366 -158.8944092 107.6015778
-5.1167402 -158.9368744 107.5879974
-6.2349815 -158.9775085 107.5532837
-7.3463087 -159.0295105 107.4880066
-8.4793625 -159.0848083 107.3978729
-9.6249552 -159.1489258 107.2808456
-10.7640667 -159.2105255 107.1428070
-11.8828907 -159.2811279 106.9767075
-40.9704666 -163.9462433 90.4249496
38.7807159 -162.0249634 82.8193817
7.3337412 -157.7122498 106.4074249
6.2040892 -157.6918182 106.6608505
5.0546951 -157.6792908 106.8908768
3.9363048 -157.6696777 107.0836029
2.8138652 -157.6645813 107.2536469
1.6870335 -157.6695557 107.4007568
-3.9608657 -157.7770996 107.7090302
-5.1108007 -157.8119507 107.7050934
-6.2340798 -157.8529053 107.6746674
-7.3436480 -157.9003906 107.6127014
-8.4838200 -157.9574738 107.5206757
-9.6203575 -158.0212708 107.4039688
-10.7681131 -158.0910797 107.2629395
-11.8778458 -158.1626587 107.0966644
-40.9752541 -162.7426147 90.7903290
-42.2284012 -163.1419067 89.2007904
40.0107498 -161.2939453 80.9184341
38.7558670 -160.8097992 83.2460327
9.5780621 -156.6599884 105.9151611
8.4560165 -156.6250610 106.2134552
7.3259635 -156.5997162 106.4994659
6.1962957 -156.5778351 106.7519531
5.0477233 -156.5619812 106.9776382
3.9358854 -156.5552521 107.1720734
2.8055222 -156.5448761 107.3457336
1.6817085 -156.5567932 107.4877853
0.5402081 -156.5618591 107.6051178
-0.5953660 -156.5789642 107.6921692
-1.7103620 -156.6025391 107.7487030
-2.8382456 -156.6277466 107.7849121
-3.9641318 -156.6623077 107.8069077
-7.3526177 -156.7920685 107.7156525
-10.7679977 -156.9770050 107.3515701
-11.8858910 -157.0477295 107.1840134
-13.0200472 -157.1249695 106.9854736
-14.1429386 -157.2106018 106.7616425
-15.3004780 -157.3010254 106.5134125
-16.4379997 -157.4010620 106.2397079
-17.5602932 -157.5038910 105.9342575
-18.7051163 -157.6171875 105.5887756
-40.9499016 -161.5407104 91.1293716
-42.2116547 -161.9348755 89.5539856
39.9927559 -160.0795898 81.3125839
38.7277069 -159.6063690 83.6128693
9.5766487 -155.5571289 105.9636536
8.4554071 -155.5189362 106.2751465
2.8001266 -155.4450836 107.4063644
-0.5969384 -155.4764404 107.7538757
-1.7136582 -155.4977875 107.8106384
-2.8441687 -155.5186462 107.8526917
-3.9672487 -155.5502319 107.8800507
-14.1528778 -156.0993347 106.8432770
-15.3111925 -156.1878510 106.5993805
-16.4422531 -156.2857971 106.3244019
-17.5652390 -156.3873291 106.0141525
-18.7006569 -156.4963226 105.6730881
-40.9513168 -160.3591309 91.4013062
-42.1840897 -160.7181244 89.9462128
-43.4058533 -161.1037903 88.4002991
41.2334938 -159.3962708 79.1749954
39.9725952 -158.8834229 81.6370697
38.7153893 -158.4263611 83.8912659
11.8464890 -154.5285645 105.3312683
10.7038488 -154.4873657 105.6802063
9.5694599 -154.4533997 106.0052643
8.4523125 -154.4169312 106.3160934
-2.8551798 -154.4226074 107.8869095
-17.5659847 -155.2790527 106.0618591
-18.7155170 -155.3879242 105.7243805
-43.3820610 -159.9087524 88.6825790
-44.6528244 -160.3328094 86.9866486
41.2014618 -158.1933746 79.5065231
39.9431458 -157.6959229 81.9275513
38.6957626 -157.2545776 84.1205368
9.5620461 -153.3507080 106.0349197
8.4417524 -153.3219604 106.3158569
3.9097891 -153.2537537 107.2749176
-17.5759239 -154.1757202 106.0961304
-18.7025337 -154.2754822 105.7729187
-43.3591118 -158.7241211 88.9265823
39.9298782 -156.5291290 82.1301575
38.6945953 -156.1048431 84.2586060
16.3997841 -152.5834961 103.5780106
15.2371454 -152.5109558 104.0717545
14.1033964 -152.4479523 104.5159073
12.9760275 -152.3948364 104.9274521
-18.7087860 -153.1732483 105.7993393
-19.8573856 -153.2905884 105.4272614
-21.0177650 -153.4126740 105.0256653
-43.3720665 -157.5629578 89.0870972
39.9314346 -155.3809357 82.2530670
38.6843796 -154.9617920 84.3672943
16.3875351 -151.4940186 103.5426865
15.2388906 -151.4250183 104.0273285
-21.0245266 -152.3164978 105.0133514
-43.3672371 -156.4064026 89.2246246
41.1439209 -154.6908569 80.0569611
39.9195137 -154.2368927 82.3477020
38.6732330 -153.8266907 84.4356537
16.3884087 -150.4129181 103.4829712
15.2365351 -150.3440094 103.9670181
-21.0158024 -151.2216492 104.9758072
-22.1429806 -151.3416443 104.5703659
-23.3002968 -151.4756927 104.1217651
-24.4448318 -151.6124420 103.6422958
-25.6129627 -151.7601013 103.1170502
-43.3612366 -155.2566223 89.3234711
-44.5887299 -155.6376343 87.7242584
41.1349716 -153.5554199 80.1071472
39.9048462 -153.1058502 82.3900070
38.6753120 -152.7087708 84.4326401
16.3799057 -149.3292694 103.4143906
-19.8708038 -150.0185242 105.2995758
-21.0290260 -150.1368713 104.9074478
-22.1575222 -150.2557220 104.5133209
-23.3178177 -150.4001465 104.1033707
-24.4573326 -150.5211487 103.5959015
-25.6161976 -150.6675873 103.0619354
-43.3729286 -154.1237183 89.3563995
-44.6001587 -154.4983978 87.7701416
41.1357384 -152.4342499 80.0869598
16.3838711 -148.2556763 103.3134003
-25.6236382 -149.5808716 102.9815598
-43.3664818 -152.9925385 89.3711548
-44.5953331 -153.3618164 87.8017426
41.1307106 -151.3203735 80.0298996
16.3746185 -147.1864319 103.1826630
-25.6311893 -148.4984741 102.8765717
-43.3745117 -151.8751221 89.3271866
-44.5944595 -152.2359009 87.7832794
41.1328659 -150.2220459 79.8998184
16.3724899 -146.1223145 103.0262604
-21.0470486 -146.9047699 104.5726776
-22.1912403 -147.0091705 104.1918869
-23.3304691 -147.1454620 103.7428513
-24.4774094 -147.2807159 103.2598648
-25.6358719 -147.4211578 102.7488556
-43.3803864 -150.7650299 89.2465591
-44.6071587 -151.1230621 87.7047195
41.1286049 -149.1324310 79.7242432
16.3780365 -145.0633087 102.8465118
-21.0473747 -145.8353271 104.4188156
-22.1902752 -145.9521484 104.0176239
-23.3409309 -146.0775146 103.5753784
-24.4729939 -146.2068176 103.1100616
-25.6380672 -146.3480530 102.5958176
-43.3803101 -149.6604462 89.1368713
-44.6131248 -150.0176086 87.5891342
41.1295433 -148.0543518 79.4919891
18.6516476 -144.1632080 101.5678177
17.5059128 -144.0824280 102.1220551
16.3650150 -144.0060730 102.6530457
-43.3940201 -148.5672760 88.9722290
-44.6353493 -148.9248505 87.4119492
-45.8905258 -149.3061218 85.7394409
42.4810257 -147.4993896 76.5083160
41.1416702 -146.9854126 79.2088242
18.6499825 -143.1112366 101.3406143
17.4924870 -143.0302124 101.9007874
-43.4092484 -147.4815369 88.7696838
-44.6421204 -147.8332062 87.2245712
-45.8935738 -148.2119141 85.5492477
41.1622124 -145.9278717 78.8634262
18.6534786 -142.0648499 101.0813141
17.4856071 -141.9841003 101.6488647
-19.9226227 -142.5503235 104.1664429
-21.0781727 -142.6609497 103.7853470
-43.4199677 -146.4007721 88.5384827
-44.6432457 -146.7464600 87.0106201
-45.9062195 -147.1283722 85.3062897
41.1675110 -144.8837280 78.4531555
18.6484718 -141.0226440 100.8022385
17.4949989 -140.9437561 101.3581390
16.3713188 -140.8732452 101.8622589
-19.9329891 -141.5021515 103.9050827
-21.0850067 -141.6106873 103.5273285
-43.4445496 -145.3307495 88.2525635
-44.6840401 -145.6772156 86.7087631
41.1659470 -143.8495026 77.9848099
39.9258995 -143.4213715 80.3003998
38.6749687 -143.0357361 82.4075317
16.3609581 -139.8341370 101.5719147
-19.9404125 -140.4564056 103.6276855
-21.0879250 -140.5645447 103.2513657
-43.4452705 -144.2627258 87.9536209
-44.7102623 -144.6143341 86.3698959
39.9406166 -142.3946838 79.8040161
38.7016296 -142.0093842 81.9144821
16.3569469 -138.7987061 101.2577286
15.2010098 -138.7332916 101.7547073
14.0790730 -138.6753845 102.2023544
-19.9622936 -139.4127350 103.3268585
-21.1095181 -139.5227966 102.9409332
-43.4789581 -143.2087708 87.5778885
-44.7175903 -143.5550232 86.0129089
-45.9835587 -143.9262695 84.3095779
39.9437485 -141.3743134 79.2715759
38.7125359 -140.9874268 81.3999023
14.0685797 -137.6471252 101.8502197
12.9295006 -137.5944824 102.2783508
11.8065472 -137.5451660 102.6724243
-21.1177464 -138.4836121 102.6169434
-43.4955788 -142.1562805 87.1922302
-44.7436867 -142.5042877 85.6016235
41.2637787 -140.8064728 76.1871262
39.9645767 -140.3687134 78.6482849
38.7255821 -139.9752655 80.8276215
14.0754738 -136.6210480 101.4768372
12.9258289 -136.5690308 101.9156342
11.7958927 -136.5199127 102.3191681
-21.1314888 -137.4499817 102.2609711
-43.5147781 -141.1126862 86.7553940
-44.7696762 -141.4610291 85.1460342
39.9986572 -139.3762970 77.9447479
38.7379379 -138.9739227 80.1968231
11.7944517 -135.4989929 101.9225769
-15.4252586 -135.9533386 103.4703522
-21.1462479 -136.4216156 101.8728561
-43.5483627 -140.0803223 86.2473068
-44.8005981 -140.4300842 84.6237030
40.0225601 -138.3900299 77.2024689
38.7612381 -137.9846191 79.4867096
11.7823439 -134.4829254 101.5018387
0.4457428 -134.3153076 103.9714355
-15.4420280 -134.9263306 103.0717087
-18.8655682 -135.1899719 102.1999359
-20.0024796 -135.2894592 101.8487854
-21.1487179 -135.3966980 101.4714737
-43.5689468 -139.0523224 85.7206726
-44.8286362 -139.4007263 84.0819931
40.0545578 -137.4156189 76.3763657
38.7717285 -137.0006104 78.7503586
11.7927570 -133.4658508 101.0550461
10.6618309 -133.4250793 101.4241409
9.5092287 -133.3932495 101.7739639
4.9665761 -133.3049316 102.8801880
1.5724039 -133.2947540 103.4242096
0.4412146 -133.3030548 103.5503464
-0.6969479 -133.3105164 103.6560135
-1.8245188 -133.3258820 103.7404175
-2.9688168 -133.3462677 103.7868881
-4.0805502 -133.3735046 103.8128510
-5.2275591 -133.3988953 103.8176727
-15.4540615 -133.9037018 102.6553955
-16.5796967 -133.9884949 102.4010696
-17.7321777 -134.0752258 102.0982437
-18.8816757 -134.1696014 101.7646179
-43.6070557 -138.0334625 85.1327515
38.7941132 -136.0286407 77.9344711
11.7838192 -132.4587402 100.5909882
10.6580334 -132.4161377 100.9589844
9.5098705 -132.3826599 101.3029938
3.8336103 -132.2821198 102.6338959
2.6954978 -132.2787323 102.8176727
1.5646255 -132.2825623 102.9759369
0.4336595 -132.2870789 103.0986023
-0.7066120 -132.3002014 103.2070923
-1.8329816 -132.3154907 103.2865372
-2.9748049 -132.3335876 103.3331680
-4.0923367 -132.3604889 103.3693619
-10.9112949 -132.6167145 102.9834595
-14.3165617 -132.8081512 102.4546204
-15.4539442 -132.8897247 102.2200546
-16.5934105 -132.9702606 101.9563675
-17.7456188 -133.0581207 101.6458893
-18.8876591 -133.1532898 101.3205872
-43.6450653 -137.0210114 84.4981689
38.8186264 -135.0692291 77.0359650
37.5880737 -134.6913910 79.2001572
36.3382339 -134.3504639 81.1836472
9.5045738 -131.3814392 100.7986755
3.8300805 -131.2749481 102.1674042
0.4253012 -131.2745514 102.6224518
-0.7128135 -131.2924347 102.7280579
-4.0952163 -131.3528748 102.8961105
-7.5173178 -131.4528198 102.8116302
-8.6481094 -131.5014038 102.7444839
-9.7727671 -131.5504761 102.6383896
-10.9250898 -131.6069031 102.5052719
-12.0615025 -131.6649475 102.3543854
-41.2068176 -135.3855286 86.8126602
-42.4373398 -135.6873016 85.3878098
-43.6869774 -136.0141296 83.8196564
38.8659363 -134.1163635 76.0422058
37.6076279 -133.7336731 78.3009491
36.3621902 -133.3842316 80.3385010
9.5031853 -130.3726044 100.3027878
8.3654518 -130.3400116 100.6267548
7.2265105 -130.3101807 100.9183121
6.0932398 -130.2943115 101.1894836
4.9608359 -130.2787323 101.4359436
3.8258297 -130.2703857 101.6559525
-0.7182679 -130.2815247 102.2188263
-4.1108098 -130.3429871 102.3821487
-5.2547574 -130.3757477 102.3933640
-6.3819370 -130.4112549 102.3695068
-7.5274644 -130.4483948 102.3108444
-8.6542692 -130.4949646 102.2414703
-9.7887411 -130.5452271 102.1416702
-10.9347239 -130.5989532 102.0110016
-12.0689344 -130.6614838 101.8565903
-41.2534714 -134.3837585 86.1235657
-42.4855423 -134.6927490 84.6681061
37.6654968 -132.7844696 77.2941895
36.3825912 -132.4266510 79.4457855
4.9575777 -129.2749939 100.8889847
3.8228409 -129.2720947 101.1100464
2.6798673 -129.2628632 101.3022766
1.5458299 -129.2659760 101.4623566
0.4180959 -129.2690735 101.5954056
-2.9917736 -129.3194733 101.8379440
-41.2663422 -133.3913422 85.4146423
37.7316666 -131.8221588 76.3546982
36.4389343 -131.4782257 78.4301758
4.9479022 -128.2820587 100.3262100
3.8230753 -128.2739868 100.5426254
2.6765399 -128.2675934 100.7372437
1.5429566 -128.2660522 100.9031525
0.4085908 -128.2683716 101.0437469
-3.0090265 -128.3144531 101.2839203
-41.2993851 -132.4096985 84.6154633
36.4789581 -130.5391846 77.3612442
0.4066527 -127.2794342 100.4591751
-0.7355763 -127.2863617 100.5682755
-1.8711028 -127.2990494 100.6484375
-3.0212865 -127.3172913 100.7065506
-38.9305420 -130.8661499 86.4702377
-40.1592865 -131.1377411 85.1576920
-41.3472061 -131.4368744 83.7574768
36.4934196 -129.6312561 76.1839523
0.3979237 -126.2830734 99.8422852
-0.7410475 -126.2954330 99.9605865
-1.8792837 -126.3081207 100.0482025
-3.0190649 -126.3284073 100.1106262
-38.9750671 -129.8881226 85.6409073
-40.1963196 -130.1620483 84.3071136
36.5158310 -128.7266235 74.9400635
35.2873917 -128.3762665 77.0720291
34.0719872 -128.0578156 78.9815140
-39.0199928 -128.9170074 84.7548981
-40.2355194 -129.1939392 83.3968506
35.3243637 -127.4723358 75.7956314
34.1009903 -127.1412048 77.8057938
-39.0611305 -127.9540634 83.8133926
-40.2854424 -128.2379150 82.4063873
-41.5247040 -128.5389252 80.8736115
35.3949280 -126.5725784 74.3941727
34.1318665 -126.2384644 76.5396042
-39.1128654 -127.0014267 82.7998962
-40.3367271 -127.2902832 81.3516083
34.1901169 -125.3500748 75.1207657
-39.1684341 -126.0581207 81.7097015
34.2403603 -124.4608307 73.6225739
32.9757919 -124.1488800 75.7079849
31.7582893 -123.8544922 77.5581360
-36.7796326 -124.5862122 83.2781219
-37.9885406 -124.8441086 81.9882050
-39.2251930 -125.1268311 80.5425720
33.0407600 -123.2749710 74.1595154
31.7804699 -122.9691467 76.1711578
-36.8381615 -123.6514893 82.1230850
-38.0399323 -123.9172668 80.7990265
-39.2956924 -124.2024612 79.2830505
31.8455677 -122.0809784 74.6252823
30.6076832 -121.8124695 76.4677048
29.4212284 -121.5558167 78.0832367
-34.4589157 -122.2428207 83.3912659
-35.6595383 -122.4731827 82.2179337
-36.8660202 -122.7362213 80.9199982
31.8934593 -121.2293396 72.9161072
30.6613216 -120.9507294 74.8619461
29.4429665 -120.6802521 76.6426086
-34.5084724 -121.3142471 82.1920166
-35.7109528 -121.5565567 80.9732971
30.7065716 -120.0980301 73.1538544
29.4796886 -119.8213501 75.0438538
-34.5770226 -120.3974304 80.8775482
-35.7784500 -120.6436691 79.6039276
30.7867718 -119.2607727 71.2002106
29.5331459 -118.9801636 73.2457352
-34.6391945 -119.4969330 79.4835968
-35.8252258 -119.7538605 78.1698761
-37.0919380 -120.0288086 76.6018753
29.6199074 -118.1499329 71.2511063
28.3324642 -117.8703766 73.3063583
27.1154900 -117.6031113 75.0796356
-32.2713013 -118.1384201 80.4724884
-33.4565887 -118.3609848 79.3192139
-34.7047615 -118.6090927 77.9698944
-35.9088516 -118.8741837 76.5482254
28.3880386 -117.0446396 71.3071289
27.1536560 -116.7722015 73.2225037
-32.3393478 -117.2441483 78.9745178
-33.5310936 -117.4780807 77.7502899
-34.7800598 -117.7348557 76.3182678
27.2231464 -115.9593430 71.1436844
25.9955978 -115.7035751 72.9415359
24.7974720 -115.4722519 74.5480881
-29.9762020 -115.9358597 79.6878128
-31.1711483 -116.1431198 78.6000061
-32.3949547 -116.3705063 77.3763657
26.0419693 -114.9102707 70.8020859
24.8348770 -114.6641464 72.5436401
-30.0361862 -115.0560532 78.0841141
-31.2380791 -115.2759628 76.9151840
26.1263351 -114.1290207 68.3370972
24.8924141 -113.8679123 70.3220444
23.6655426 -113.6257019 72.0717239
22.4548645 -113.3990097 73.6462326
-27.6899433 -113.7956314 78.5049667
-28.9025154 -113.9900665 77.4623337
-30.1043797 -114.1994171 76.3226242
-31.3143234 -114.4366837 75.0404282
23.7158165 -112.8522491 69.7345886
22.4868393 -112.6159821 71.4771576
-27.7633705 -112.9360580 76.7228317
-28.9638481 -113.1410828 75.6260757
-30.1775932 -113.3670502 74.3808212
-31.3865509 -113.6111450 73.0137939
22.5497971 -111.8302994 69.0148087
21.3241520 -111.6116714 70.7457199
20.1248360 -111.4103394 72.2349625
-25.4193802 -111.7210693 76.8665543
-26.6277542 -111.9047852 75.8785934
-27.8302460 -112.1034241 74.7885208
21.3906822 -110.8385162 68.1016693
20.1724434 -110.6447601 69.7669678
-25.4840050 -110.8847275 74.9076767
-26.6969242 -111.0762711 73.8254395
20.2416592 -109.8971863 66.9398880
19.0206814 -109.7025452 68.6230392
17.8025551 -109.5077438 70.1602936
16.6117077 -109.3254242 71.4721222
15.4255829 -109.1668625 72.6447449
-20.7782936 -109.4156876 76.3189392
-21.9708595 -109.5585175 75.5660553
-23.1504211 -109.7162170 74.7356644
-24.3677483 -109.8927612 73.7687683
-25.5478439 -110.0824280 72.7393036
-26.7641182 -110.2930908 71.5439606
17.8704910 -108.7388306 67.3330536
16.6584129 -108.5630722 68.8477783
15.4525223 -108.4059448 70.1905365
-20.8371620 -108.5951996 74.2625809
-22.0303688 -108.7482910 73.4360886
-23.2285919 -108.9143372 72.4829712
-24.4348640 -109.1026306 71.4241104
15.4896164 -107.6863403 67.3548279
14.3059368 -107.5272141 68.6629105
13.1165352 -107.3682098 69.8543472
11.9240751 -107.2292633 70.8835297
10.7508068 -107.1110840 71.7855453
-18.5284843 -107.5121460 73.4545898
-19.7085152 -107.6529541 72.7480545
-20.9014683 -107.8049316 71.9214706
-22.1031837 -107.9804916 70.9918823
14.3462572 -106.8168945 65.4740448
13.1329994 -106.6643982 66.9205322
11.9334030 -106.5165710 68.1414948
10.7642756 -106.3682709 69.1519165
-18.5811958 -106.7401199 71.0225220
-19.7777328 -106.8905334 70.1775513
-20.9655304 -107.0612946 69.2498627
12.0992222 -105.7846832 65.1071548
10.7877808 -105.6618195 66.0576935
9.5938759 -105.5657425 67.1637726
8.4305840 -105.4470749 68.1337433
7.2385764 -105.3372040 68.9183350
6.0528555 -105.2503433 69.6286469
-13.9007425 -105.5028000 70.9174805
-15.0725937 -105.6081543 70.3725128
-16.2553482 -105.7321472 69.7617493
-17.4490547 -105.8642502 69.0323715
-18.6572132 -106.0031509 68.1961136
9.6300306 -104.8864975 63.5513115
8.4497643 -104.7522888 64.7076569
7.2424235 -104.6687698 65.7216339
6.0571938 -104.5830078 66.5738831
-13.9521961 -104.7907562 67.9875259
-15.1331100 -104.9088593 67.3613281
-16.3344212 -105.0292969 66.6357956
6.0791450 -103.9457626 62.6880035
4.8886547 -103.8348007 63.6629333
3.7140684 -103.7776947 64.4603424
2.5210304 -103.7131119 65.1309052
1.3373363 -103.6526108 65.6314697
0.1653839 -103.6193008 66.1106262
-1.0099000 -103.5851593 66.4754562
-2.1827140 -103.5618286 66.7425385
-3.3733954 -103.5633545 66.9035339
-4.5381069 -103.5834656 66.9559250
-5.7246199 -103.6132965 66.9583588
-6.8976564 -103.6521454 66.8950272
-8.0816574 -103.7038116 66.7220459
-9.2692451 -103.7660675 66.4567184
-10.4508905 -103.8401031 66.1243744
-11.6393280 -103.9203415 65.6885681
-12.8181229 -104.0044022 65.1625671
-14.0157490 -104.1126251 64.4814911
0.1517397 -103.0748749 61.9851265
-1.0359974 -103.0419769 62.4223862
-4.5659218 -103.0011597 63.0875778
-5.7572007 -103.0349731 63.1217346
-6.9301720 -103.0292053 63.0427628
-8.1195831 -103.0688629 62.7952805
-53.2439499 -88.4279938 -145.4252930
-50.0952950 -86.4182739 -140.5219421
-51.6154251 -86.5693436 -141.8187866
-53.1075897 -86.7130280 -143.2651520
4.7676287 -84.9647369 -149.5605774
-48.5137215 -84.6657028 -137.7604065
-50.0068321 -84.7858810 -138.8388367
-51.5212250 -84.9276352 -140.0429688
-53.0230408 -85.0703430 -141.3840027
6.2452974 -83.4793549 -149.6903381
4.7519898 -83.2777863 -147.3276672
-46.9643250 -82.9530640 -135.4506378
-48.4594040 -83.0783081 -136.3359070
-49.9514275 -83.1947937 -137.3522339
-51.4493866 -83.3242340 -138.4689484
-52.9277687 -83.4513855 -139.6751404
-54.4654541 -83.6132813 -141.0981903
-55.9543686 -83.7624969 -142.6132507
-57.5536804 -83.9919128 -144.4020386
7.6856155 -82.0393982 -150.0262604
6.2155046 -81.8227158 -147.5855255
4.7598934 -81.6547623 -145.4755859
3.3255384 -81.4965210 -143.6084900
1.8793314 -81.3672791 -141.9463196
-45.4372902 -81.3082428 -133.5373993
-46.9195480 -81.3915787 -134.1914978
-48.4054527 -81.5118790 -135.0551453
-55.8948593 -82.1609955 -140.9691010
-57.4378433 -82.3274994 -142.6002655
9.1326237 -80.5953217 -150.6074524
7.6571145 -80.3661270 -147.9875946
6.2160721 -80.1969604 -145.7934570
4.7570047 -80.0452652 -143.8396606
3.3289373 -79.9114151 -142.1257172
1.8687432 -79.7888336 -140.5722809
0.4343783 -79.6855698 -139.1953125
-0.9847704 -79.6132278 -137.9449463
-43.9451675 -79.6649933 -131.6978149
-45.3884315 -79.7532959 -132.3227997
-46.8640213 -79.8399963 -133.0397186
-48.3238144 -79.9346390 -133.8557129
-55.8132362 -80.5608063 -139.4565430
-57.3551865 -80.7200470 -141.0057373
-58.9085884 -80.9182053 -142.6920776
9.1256695 -78.9600983 -148.6862183
-0.9883759 -78.0454330 -136.7790527
-43.9233932 -78.1461029 -130.6774902
-45.3539619 -78.2173233 -131.3068390
-58.8003960 -79.2941437 -141.1880188
-60.3448029 -79.4796906 -142.9951019
10.5600519 -77.5458527 -149.5262756
9.1118708 -77.3441620 -146.9801941
-0.9850757 -76.5052490 -135.7544861
-40.9589615 -76.4799118 -128.7416687
-42.3947716 -76.5365601 -129.1994934
-43.8857346 -76.6139069 -129.7755127
-45.3413086 -76.7004929 -130.4136963
-58.7437286 -77.7234573 -139.8725128
-60.2709045 -77.8851624 -141.5699463
10.5553446 -75.9460602 -147.8887939
9.1070147 -75.7647476 -145.5378571
-0.9893069 -74.9861755 -134.8296967
-2.4262424 -74.9253159 -133.7741852
-40.9413490 -74.9756393 -127.9684372
-42.3829079 -75.0318146 -128.4198456
-58.6670876 -76.1606445 -138.6591492
-60.2040596 -76.3107605 -140.2721558
13.4972544 -74.8013840 -152.0589905
12.0120287 -74.5619736 -149.0113525
10.5404482 -74.3631668 -146.4499054
9.0961895 -74.2032089 -144.2627563
-1.0006195 -73.4586639 -133.9750671
-2.4390638 -73.4021378 -132.9688568
-39.4439240 -73.4172592 -126.8334808
-40.9168930 -73.4772186 -127.2516632
-42.3486824 -73.5285110 -127.6913757
-58.6078110 -74.6060486 -137.5745697
-60.1555023 -74.7595367 -139.1248169
-61.6765976 -74.9200287 -140.8107910
-63.2407913 -75.1119537 -142.7156677
11.9943123 -72.9811707 -147.6057739
-3.8452542 -71.8483047 -131.3003387
-39.4349442 -71.9208374 -126.1780319
-61.6233368 -73.3715210 -139.7331390
-63.1828156 -73.5473633 -141.5532227
13.4411049 -71.6151505 -149.0265350
11.9788589 -71.4194641 -146.3919373
-3.8578429 -70.3383560 -130.6468964
-5.2770462 -70.3116989 -129.8342133
-39.4166794 -70.4379196 -125.5868073
-61.5667038 -71.8310547 -138.7632751
-63.1144753 -71.9935608 -140.5121307
-64.6959229 -72.1860199 -142.4610901
14.9134541 -70.2794342 -150.7739105
13.4302750 -70.0606842 -147.8392029
11.9852953 -69.8920822 -145.3861237
-3.8440137 -68.8643723 -130.0747986
-5.2841234 -68.8217239 -129.2692566
-39.3929176 -68.9575500 -125.0605240
-64.6246872 -70.6336975 -141.4906006
-66.2327499 -70.8423691 -143.5702362
14.8946743 -68.7194443 -149.5703125
13.4215450 -68.5190430 -146.8078461
11.9617891 -68.3591690 -144.4499817
-3.8486748 -67.3891144 -129.5539246
-5.2903285 -67.3467407 -128.7734833
-6.6877379 -67.3141785 -128.0579224
-37.9575768 -67.4366913 -124.2570953
-39.3919334 -67.4929810 -124.5915604
-64.5708771 -69.0967941 -140.5933228
16.3904457 -67.4121780 -151.6710510
14.8777933 -67.1813736 -148.5632629
-6.6863022 -65.8485718 -127.6267853
-36.5165901 -65.9368896 -123.5509720
-37.9518661 -65.9680634 -123.8189545
-39.3579407 -66.0106583 -124.1386795
-64.5374603 -67.5785217 -139.8235474
-66.0870056 -67.7494049 -141.7594604
16.3525257 -65.8604050 -150.6740570
14.8792715 -65.6589355 -147.7113037
-6.6931129 -64.3777618 -127.2276840
-8.1216631 -64.3475952 -126.5587921
-35.0561600 -64.4233551 -122.9331512
-36.4960938 -64.4670258 -123.1667023
-37.9382095 -64.5118027 -123.4502792
-39.3437195 -64.5471115 -123.7731705
-64.4993210 -66.0662079 -139.1430054
-66.0384674 -66.2273941 -141.0291748
-67.6656647 -66.4258270 -143.1845703
16.3381691 -64.3320160 -149.7749939
14.8737984 -64.1447601 -146.9632263
-6.6850109 -62.9237595 -126.8922348
-8.1289520 -62.8903465 -126.2419128
-9.5265198 -62.8698921 -125.6402664
-10.9311876 -62.8389397 -125.0568924
-32.1971931 -62.9167786 -122.3032990
-33.6393509 -62.9488335 -122.4474106
-35.0494728 -62.9738235 -122.6291809
-36.5131416 -63.0212021 -122.8843079
-67.6015854 -64.8973694 -142.4855957
16.3289032 -62.8189926 -149.0534515
14.8663445 -62.6434975 -146.3442535
-6.6991758 -61.4684296 -126.5970306
-8.1194792 -61.4433136 -125.9727325
-9.5382938 -61.4151802 -125.3802032
-10.9413586 -61.4002075 -124.8291550
-12.3788214 -61.3705750 -124.3189163
-13.7735767 -61.3714828 -123.9093552
-29.3535461 -61.4181595 -121.8782425
-30.7992897 -61.4413223 -121.9450455
-32.1957321 -61.4620514 -122.0379257
-33.6472435 -61.5010452 -122.1920853
-35.0594788 -61.5307236 -122.3874359
-36.4937286 -61.5658569 -122.6246414
-67.5625687 -63.3877869 -141.8993530
17.8119888 -61.5286789 -151.6066437
16.3311119 -61.3211861 -148.4900970
14.8347979 -61.1444206 -145.7918701
-12.3778458 -59.9296150 -124.1001434
-13.7702160 -59.9218369 -123.6856842
-15.1973982 -59.9038887 -123.2958374
-16.5969467 -59.8783188 -122.9523468
-19.4328537 -59.8965912 -122.3631821
-26.5109806 -59.9291458 -121.6078949
-27.9479179 -59.9557343 -121.6311722
-29.3394470 -59.9739609 -121.6693420
-30.7822342 -59.9947662 -121.7126160
-67.5113220 -61.8823547 -141.3654480
-69.1220169 -62.0688782 -143.5775757
17.7710190 -60.0172577 -150.9964600
16.3195782 -59.8273659 -147.9991455
14.8435211 -59.6644135 -145.4069519
-12.3838596 -58.4876595 -123.9147034
-13.7801590 -58.4760437 -123.4883652
-15.2020493 -58.4669151 -123.1002045
-16.6127129 -58.4578857 -122.7477875
-18.0295715 -58.4560165 -122.4539566
-19.4291401 -58.4576035 -122.2124176
-20.8544121 -58.4628601 -121.9698410
-22.2743683 -58.4593925 -121.7606125
-23.6928291 -58.4707985 -121.6449585
-25.1064796 -58.4889336 -121.5362778
-26.5078926 -58.4929962 -121.4699249
-27.9473953 -58.5124931 -121.4743423
-29.3512306 -58.5325928 -121.4898834
-30.7861977 -58.5527954 -121.5323486
-67.5018539 -60.3925362 -140.9629822
-69.0878448 -60.5662842 -143.0926208
17.7602901 -58.5241852 -150.5373230
-26.5092907 -57.0613785 -121.3658142
-27.9416847 -57.0822296 -121.3530273
-29.3566303 -57.0946426 -121.3532867
-30.7989330 -57.1230545 -121.4119720
-32.1856995 -57.1385498 -121.5118408
-33.6322556 -57.1716843 -121.6608887
-67.5031433 -58.9104424 -140.6622620
-69.0792160 -59.0771561 -142.7537842
17.7521896 -57.0416908 -150.2155762
-26.5160713 -55.6312714 -121.2804260
-32.1992416 -55.7068825 -121.4529953
-33.6304970 -55.7360687 -121.5825348
-67.4906006 -57.4311905 -140.4167175
-69.0566711 -57.5921555 -142.5040894
-70.7203522 -57.7811203 -144.9071198
17.7463074 -55.5652008 -149.9601746
-15.2193775 -54.1654739 -122.8162308
-16.6157150 -54.1605911 -122.4748459
-18.0444431 -54.1572952 -122.1630402
-19.4443245 -54.1544647 -121.9141998
-26.5268173 -54.1960602 -121.2174988
-32.1993942 -54.2767754 -121.3867950
-33.6367798 -54.3052559 -121.5343704
-67.4845886 -55.9579086 -140.2384491
-69.0290909 -56.1120834 -142.3015289
17.7795429 -54.0994339 -149.8569183
-15.2173767 -52.7389259 -122.8247375
-16.6190491 -52.7350044 -122.4799728
-18.0596504 -52.7293167 -122.1585617
-19.4453373 -52.7304535 -121.9056854
-26.5271988 -52.7696266 -121.2154694
-27.9341908 -52.7845726 -121.1815262
-29.3601151 -52.8052254 -121.2083359
-30.8072662 -52.8271599 -121.2862396
-32.2158661 -52.8506927 -121.3962097
-33.6337929 -52.8744698 -121.5313797
-67.4733582 -54.4885445 -140.1277924
-69.0406036 -54.6422272 -142.2081909
17.7717571 -52.6356926 -149.8257294
-15.2256060 -51.3136559 -122.8556976
-16.6414413 -51.3111534 -122.5218506
-19.4704933 -51.3249283 -121.9708252
-20.8831444 -51.3103065 -121.7397308
-22.2902889 -51.3146324 -121.5457916
-67.4856339 -53.0279007 -140.1309357
-69.0389862 -53.1756363 -142.1784668
17.7535934 -51.1842766 -149.9488220
-15.2311831 -49.8922615 -122.9365082
-20.8820381 -49.8885040 -121.8166351
-22.3052750 -49.8934288 -121.6260452
-67.4922638 -51.5698929 -140.1888123
-69.0539093 -51.7154007 -142.2419281
17.7278843 -49.7341728 -150.1233978
-15.2480555 -48.4754105 -123.0652008
-20.8840561 -48.4679642 -121.9247208
-22.2993279 -48.4731865 -121.7511139
-67.4798737 -50.1135330 -140.2727203
-69.0544968 -50.2573700 -142.3516235
17.7374172 -48.2907410 -150.4183807
-15.2401180 -47.0556679 -123.2243500
-16.6388798 -47.0489159 -122.8699570
-18.0726700 -47.0451050 -122.5432739
-19.4766788 -47.0482864 -122.2855530
-20.8941116 -47.0506439 -122.0847778
-22.3219852 -47.0578079 -121.9072189
-67.4913254 -48.6641617 -140.4654846
-69.0569992 -48.8049889 -142.5454559
-70.7205353 -48.9625015 -144.9382019
17.7197590 -46.8514900 -150.7698517
16.2521229 -46.6989098 -147.8718262
14.7928123 -46.5705795 -145.3765411
-64.4346161 -46.9810486 -137.2484894
-65.9741440 -47.0944519 -138.9163666
-67.5375290 -47.2186661 -140.7709961
17.7363205 -45.4190407 -151.2976227
16.2596512 -45.2667809 -148.3245850
14.7764397 -45.1381683 -145.7511139
-64.4506683 -45.5427856 -137.5523987
-65.9903488 -45.6522141 -139.2225647
16.2682705 -43.8380127 -148.8810120
14.7903767 -43.7094955 -146.2579498
-64.4702072 -44.1074562 -137.9155426
-66.0088425 -44.2146378 -139.6090393
17.7523117 -42.5597420 -152.5608826
16.2415504 -42.4154854 -149.4579773
14.7886000 -42.2862625 -146.8289490
-64.5146103 -42.6732330 -138.3873138
-66.0423508 -42.7817383 -140.1027679
17.7970886 -41.1359062 -153.4857788
16.2584877 -40.9957771 -150.2523041
14.7861338 -40.8644295 -147.5160980
-64.5383148 -41.2444382 -138.9013672
-66.0741043 -41.3513832 -140.6473083
16.2572212 -39.5838470 -151.1569672
14.7758045 -39.4531364 -148.2951660
-64.5763474 -39.8142242 -139.4993744
-66.1139832 -39.9181480 -141.2651978
16.2742290 -38.1637039 -152.1592102
14.7855844 -38.0380402 -149.2292480
13.3137798 -37.9272919 -146.6690216
11.8765373 -37.8268471 -144.5119171
-64.6152573 -38.3917503 -140.1756897
-66.1782990 -38.4915619 -142.0105286
16.3113956 -36.7440681 -153.2810822
14.7839098 -36.6256294 -150.2260742
13.3205452 -36.5160484 -147.6230164
11.8501110 -36.4202728 -145.3195801
-64.6900558 -36.9650650 -140.9830322
13.2987328 -35.1114960 -148.6137390
11.8525219 -35.0075836 -146.2824554
-64.7399979 -35.5440407 -141.8416138
-66.3115921 -35.6382904 -143.7575073
13.3192101 -33.6983070 -149.7968445
11.8589592 -33.5970078 -147.3660126
-64.7850647 -34.1262512 -142.7716827
13.3083248 -32.3056679 -151.1420135
11.8395796 -32.2039871 -148.5215149
-61.7548599 -32.5235519 -140.2825165
-63.2902222 -32.6154480 -141.9503784
-64.8658600 -32.7043571 -143.8465271
13.3584738 -30.8875866 -152.6945953
11.8412390 -30.7995453 -149.8877258
-61.8193970 -31.1095295 -141.3300781
-63.3726807 -31.1964836 -143.0933990
11.8467045 -29.4071903 -151.4295959
10.3919601 -29.3054733 -148.8776855
8.9600048 -29.2264824 -146.6968994
-58.8232880 -29.5437164 -139.4012756
-60.3518181 -29.6161327 -140.8690033
-61.8959694 -29.6951466 -142.5112305
-63.4512329 -29.7813339 -144.3421936
11.8912935 -27.9868317 -153.1659393
10.3878031 -27.9153175 -150.4192505
8.9532661 -27.8352222 -148.1197510
-58.8841248 -28.1281281 -140.5409241
-60.4302635 -28.1982307 -142.0942078
-61.9633408 -28.2865257 -143.7926636
-63.5392303 -28.3642120 -145.7134399
10.4271345 -26.4895210 -152.1625977
8.9458418 -26.4370041 -149.7204895
7.4657917 -26.3663330 -147.4931335
6.0320311 -26.2989655 -145.5844116
-58.9596863 -26.7194901 -141.7970886
-60.4984856 -26.7957478 -143.4206848
8.9678631 -25.0352249 -151.5320740
7.4598751 -24.9762459 -149.1475983
6.0332518 -24.8932667 -147.1298218
-59.0388031 -25.3071308 -143.2001953
-60.5821495 -25.3858223 -144.9318695
7.4710889 -23.5708656 -151.0058136
6.0229025 -23.5056629 -148.8126831
-56.0821152 -23.7668056 -141.7314606
-57.6251526 -23.8212166 -143.1990204
-59.1162262 -23.9016781 -144.7384338
7.5065169 -22.1553726 -153.1311951
5.9999838 -22.1172123 -150.6903076
-56.1610870 -22.3618279 -143.2512207
-57.7072220 -22.4171257 -144.7913818
-59.2244377 -22.4922619 -146.4680481
6.0256248 -20.6925259 -152.8477173
4.5295978 -20.6587486 -150.5493622
3.1255555 -20.6041279 -148.6345825
-53.2129593 -20.8343868 -142.2031860
-54.7294922 -20.8960438 -143.4923401
-56.2414894 -20.9530983 -144.9147949
-57.7880821 -21.0175571 -146.5555573
4.5610275 -19.2344894 -152.7858887
3.1226554 -19.2077675 -150.7218628
-53.3164063 -19.4253159 -143.9101410
-54.8543739 -19.4754810 -145.3149414
-56.3519516 -19.5403538 -146.8215027
3.1288064 -17.7954540 -153.1158905
1.6323807 -17.7792816 -150.9556274
0.1790478 -17.7155533 -149.0989075
-53.4063873 -18.0220222 -145.7845459
-54.9574432 -18.0743675 -147.3114624
1.6218319 -16.3792324 -153.5261536
0.1517788 -16.3377857 -151.4161377
-53.5165215 -16.6152840 -147.9215393
0.1507451 -14.9377117 -154.1770172
-1.3164394 -14.9076710 -152.1123199
-2.7391396 -14.8493404 -150.3880920
-50.5921249 -15.1109467 -147.3363953
-52.1233978 -15.1545515 -148.7864990
-53.6352539 -15.2099037 -150.3671875
-1.3130791 -13.4876385 -155.0950623
-2.7725959 -13.4795456 -153.0525208
-50.7228584 -13.7042770 -149.8369446
-52.2547874 -13.7433853 -151.4310608
-2.7551010 -12.0244846 -156.3051453
-4.2152596 -12.0437717 -154.3217010
-5.6905994 -12.0165863 -152.5702362
-7.1223378 -11.9786434 -151.0768890
-8.5592041 -11.9454889 -149.7619324
-41.8267059 -12.0783634 -145.7425842
-43.3083839 -12.1054277 -146.5406342
-44.8150101 -12.1302881 -147.4746094
-46.2953033 -12.1690674 -148.5037537
-47.8115158 -12.2084112 -149.7295227
-49.3196106 -12.2590361 -151.1095734
-50.8706665 -12.2773037 -152.7282867
-5.6839967 -10.5549412 -155.8442688
-7.1501241 -10.5597830 -154.0891266
-8.6058788 -10.5651646 -152.5824280
-41.9354973 -10.6650181 -148.1659241
-43.4158897 -10.6937466 -149.0507507
-44.9209213 -10.7193928 -150.1082764
-46.4109497 -10.7711697 -151.2978516
-47.9542160 -10.8002958 -152.7320557
-8.6226511 -9.1259069 -155.9714661
-10.0569496 -9.1388063 -154.4313202
-11.5172482 -9.1319008 -153.0785828
-12.9626617 -9.0944500 -151.9754486
-14.4077005 -9.0880003 -150.9618378
-39.0803146 -9.1981640 -149.3664398
-40.5598183 -9.2261305 -150.1098175
-42.0621033 -9.2498226 -151.0082245
-11.5527725 -7.6848965 -156.7494049
-13.0318470 -7.7205954 -155.3686829
-14.4707460 -7.6873512 -154.2612000
-39.2039261 -7.7978845 -152.4611816
-40.6886711 -7.8244791 -153.3583374
-42.1883621 -7.8723164 -154.4159851
-14.4980583 -6.2307296 -158.3112793
-15.9658489 -6.2579422 -157.0502625
-17.3901863 -6.2923684 -156.0015869
-18.8574390 -6.2613678 -155.1997070
-20.3088875 -6.2583418 -154.5289154
-21.7643280 -6.2559128 -153.9516602
-23.1836224 -6.2554955 -153.4628143
-24.6374969 -6.2556691 -153.1130371
-26.1019096 -6.2458348 -152.9468384
-27.5474854 -6.2674398 -152.8087769
-29.0127125 -6.2658849 -152.8305359
-30.4523258 -6.2747431 -152.9401550
-31.9378815 -6.2817969 -153.1885376
-33.4089508 -6.2925086 -153.5528259
-34.8786736 -6.3211632 -153.9933929
-36.3508072 -6.3573165 -154.5980530
-37.8371429 -6.3813863 -155.3692322
-39.3359222 -6.4069133 -156.2887421
-20.3624229 -4.8017826 -158.8389435
-21.8317223 -4.8528070 -158.1216431
-23.2746716 -4.8856621 -157.5464630
-24.7437401 -4.8762264 -157.1481476
-26.2009487 -4.8598480 -156.9334106
-27.6509762 -4.8805490 -156.8022308
-29.1160851 -4.8931508 -156.8076172
0.8316941 -199.1266174 78.7538300
0.2082523 -199.1139221 78.9197235
-0.3873469 -199.0925140 79.0429535
-0.9276245 -199.0406036 79.1529770
-3.8367701 -199.1698761 79.2037430
-4.4562602 -199.2217407 79.1563644
4.8604412 -198.3161621 79.1405106
4.2982402 -198.2304230 79.5376282
2.6329255 -198.0558624 80.4153519
-3.2064950 -197.8757019 81.5028763
6.6914759 -197.4112244 80.1334839
6.0475650 -197.2501831 80.6559830
5.4336567 -197.1488953 81.0218124
4.8298564 -197.0765686 81.3544846
4.2910466 -197.0011597 81.7064133
3.7584078 -196.9712830 81.9623108
3.2052269 -196.9248962 82.1787262
2.6160595 -196.8514862 82.4304581
-1.4949718 -196.7559662 83.4006271
-2.0318747 -196.7695007 83.4107285
-2.5937450 -196.7864380 83.3899536
-3.1763763 -196.8034515 83.3663483
-7.2728782 -197.2099762 82.6431046
-7.8405037 -197.3070831 82.4416428
-8.4418583 -197.4231567 82.1649780
-9.0403290 -197.5199890 81.8852081
-9.6577187 -197.6309509 81.5492325
10.7046413 -196.0405121 80.4628601
10.1046991 -195.8771820 81.0971909
9.5439653 -195.7531738 81.6139450
9.0031128 -195.6340027 82.0811691
8.4365625 -195.5200348 82.5179443
-11.9535398 -195.9693756 83.7830276
-15.4748449 -194.8227844 84.2669067
-16.1031075 -195.0135345 83.7505569
14.2488976 -193.8511505 81.8180008
15.3318577 -193.1661224 82.0675125
14.7507076 -192.9812469 82.7331085
14.2077608 -192.8364716 83.3039627
-17.7047710 -193.4460754 85.2318726
16.5493603 -192.5852051 82.0073013
-18.8320713 -192.9413605 85.5394592
16.5103493 -191.6003265 83.4245224
-18.7782059 -192.0114288 86.7178879
-19.4037609 -192.1912842 86.1970520
-20.0675755 -192.4102020 85.5786057
18.9283161 -191.4658051 81.6226349
20.0005894 -190.8771057 81.5378876
19.4412956 -190.6873169 82.2657166
18.8836727 -190.5153351 82.9657364
19.9582329 -189.9054260 82.9038620
-21.2478466 -190.1511536 87.6447372
21.1517754 -189.4645233 82.4458618
20.5013447 -189.1944122 83.3929596
19.9406033 -189.0209198 84.1033478
-21.2261009 -189.3253937 88.6294556
22.3669968 -188.1377716 82.9693985
-24.5912991 -188.6467590 87.5045547
-25.2585564 -188.8822784 86.8039932
-11.7703629 -185.5021667 95.7291412
-12.2273827 -185.5162659 95.6811981
-12.6887121 -185.4927673 95.6405869
-13.3488712 -185.6577148 95.3212509
-25.8915310 -188.2768097 87.0531464
24.6865387 -187.2886963 81.6183395
-25.8365421 -187.4467163 87.9534073
-11.7455893 -184.0863342 96.8404236
-27.0151100 -187.0157013 87.5489426
-27.5205421 -187.1547699 86.9405670
25.7557507 -185.9651184 82.1406250
-11.7466755 -183.3881989 97.3564377
-26.9750767 -186.2031097 88.3858414
-11.7353277 -182.6976776 97.8633575
-14.6035967 -183.0233459 96.9916687
-26.9387722 -185.4283752 89.2082520
-11.7234631 -182.0192108 98.3497009
-12.2041855 -182.0515137 98.2824249
-12.7236547 -182.1045990 98.1783600
-13.2957926 -182.1649780 98.0068970
-13.9160852 -182.2352753 97.7759476
-14.5723324 -182.3306885 97.5005493
-26.9463291 -184.6971130 89.9372025
-27.4737530 -184.8344574 89.4570084
-27.9977207 -184.9720306 88.9499207
-28.5754013 -185.1584320 88.3626404
-29.2138786 -185.3975372 87.6965637
26.9556713 -183.9892883 83.1339340
3.2021105 -180.7212524 99.2542801
2.6880338 -180.7316895 99.3091278
2.1191392 -180.7610931 99.3915634
1.5054719 -180.7545013 99.5228424
0.8687927 -180.7216797 99.6726227
0.2111763 -180.6841125 99.7995682
-12.7280293 -181.4433594 98.6353226
-13.2976503 -181.4991608 98.4641342
-13.8999252 -181.5531158 98.2591782
-14.5639782 -181.6617889 97.9910355
-29.1790943 -184.6175842 88.4703979
27.5699711 -183.4364014 83.0175934
26.9208012 -183.1805115 84.0626526
3.2162988 -180.1148071 99.6600418
0.2097668 -180.0683441 100.1989441
-12.7200470 -180.7693787 99.1176758
-14.6116924 -181.0566406 98.4519348
-29.1488667 -183.8444061 89.2116547
-29.8036919 -184.0821381 88.5243225
5.3238368 -179.3877563 99.7890625
0.2139349 -179.3964233 100.6039047
-11.7047186 -180.0487518 99.6855621
-12.1492805 -180.0990295 99.6413956
-14.6518774 -180.3465576 98.8746796
-30.4080753 -183.5250549 88.5570755
5.3371806 -178.7794495 100.1592789
0.2309199 -178.7180023 100.9899063
-11.6909180 -179.3946686 100.0986938
-13.9430447 -179.5859680 99.5930405
-14.5624838 -179.6801758 99.2865295
-30.3642845 -182.7621307 89.2435837
-31.0546856 -183.0135193 88.4697266
29.3410320 -181.7851868 82.6310654
5.3640018 -178.1236420 100.5353622
-14.5406780 -178.9902039 99.6931686
-31.6634769 -182.4777985 88.4306564
29.8892593 -181.2254028 82.5466309
29.3028793 -180.9947815 83.4973831
5.3421245 -177.4478760 100.9204407
-14.5466204 -178.3795929 100.0528488
-31.6079769 -181.7112732 89.1092834
-32.1901474 -181.9023895 88.4621658
30.4159012 -180.6538086 82.4844742
5.3211284 -176.8044128 101.2683716
1.4865599 -176.8564301 101.7892990
-14.5373287 -177.7187805 100.4398499
-32.7031174 -181.3459167 88.4026184
31.0018234 -180.1357269 82.2747345
30.3621693 -179.8549500 83.3485947
5.3377395 -176.2197876 101.5552597
4.7488408 -176.2003479 101.7170029
4.2217522 -176.1938324 101.8181229
3.7118239 -176.2154236 101.8524551
3.2017965 -176.2411041 101.8700714
2.6685660 -176.2715454 101.8942566
2.1087601 -176.2379150 101.9869461
1.4891601 -176.2185516 102.1049423
-12.7030020 -176.8740692 101.3933792
-13.2711096 -176.9301605 101.2563095
-13.8744898 -176.9917908 101.0516663
-14.5243511 -177.0785370 100.7990646
31.5838871 -178.8697205 82.7574005
-32.6619377 -179.1948090 90.2772064
-33.2190514 -179.3617706 89.6625748
-33.7815933 -179.5328674 89.0112915
-34.4212494 -179.7644806 88.2504196
-35.0611877 -180.0047455 87.4968033
32.2313766 -178.4188538 82.3364105
31.5345402 -178.1125031 83.5239792
31.5006046 -177.3595581 84.2463608
-34.9910202 -178.5480194 88.7517471
32.7777634 -176.4475708 83.3102112
-36.2528038 -176.9109039 88.7536469
33.9386101 -174.7869873 83.0005722
-18.4102993 -171.8711395 102.2650681
-18.9936047 -171.9409332 102.0185242
35.1549568 -174.5996246 81.3514709
34.5101585 -174.3151245 82.5317230
33.8972435 -174.0668793 83.6150742
-37.4085159 -175.2498474 88.7247696
35.7101440 -174.1276398 80.8948135
35.0930595 -173.8550415 82.0278015
-16.2492809 -170.4644775 103.3847733
-16.7724819 -170.5034332 103.2639847
-17.2277203 -170.5743103 103.1576462
-37.3445168 -174.5376129 89.2128220
35.0827637 -173.1610870 82.5789413
-16.2293682 -169.8292999 103.6315918
-19.0700951 -170.1059418 102.7556458
-37.3324471 -173.8897858 89.5978546
-37.9054871 -174.0980072 88.8696442
-38.4831734 -174.3101959 88.1191788
36.2136154 -172.9351044 80.9939041
-16.2283115 -169.2227631 103.8422012
-19.0108414 -169.5311432 102.9673615
36.9097443 -172.5897675 80.1343155
36.1902466 -172.2358398 81.5539627
-16.2293720 -168.6379242 104.0289154
-16.7551746 -168.6815033 103.8866959
-18.9907265 -168.9205933 103.1696930
-38.4195709 -172.9068298 89.1333923
-3.6656182 -167.2041626 105.9937973
-4.2437458 -167.2148132 105.9949875
-4.8352885 -167.2374268 105.9868622
-5.4203897 -167.2641449 105.9693604
-5.9750733 -167.2893677 105.9446640
-6.5159149 -167.3204346 105.9101791
37.5329170 -171.4955750 79.9057159
-3.6556258 -166.6202545 106.1584625
-6.4964767 -166.7152710 106.0831146
37.4730797 -170.7684784 80.5492783
-3.6532111 -166.0235748 106.3155899
-6.4937925 -166.1265869 106.2425842
-39.5965881 -171.3439484 88.8185272
-40.2426567 -171.5705261 88.0061951
-3.6625915 -165.4468994 106.4568405
-6.5125327 -165.5706482 106.3853378
-39.5776558 -170.6816101 89.1765671
37.4250374 -169.3961487 81.6043549
-3.6594949 -164.8695374 106.5915146
-6.4903846 -164.9781647 106.5328674
-7.0297661 -164.9901733 106.4977036
-7.6035528 -165.0288086 106.4552002
-8.1749382 -165.0638580 106.4069748
-8.7573357 -165.1038055 106.3394623
37.3923798 -168.7178192 82.0679703
-3.6617637 -164.2842712 106.7236252
-6.4914603 -164.4012909 106.6694260
-7.0461407 -164.4308777 106.6310043
37.3728218 -168.0582123 82.4833603
