20.3177032 -91.9298096 89.7704620
18.0010090 -91.7535706 91.4714737
15.6762600 -91.6094971 92.8904724
13.3843956 -91.4956360 94.0856476
-16.3279037 -92.0244446 94.6623688
-18.6436043 -92.2192535 93.5800476
-20.9666958 -92.4397430 92.2777481
-23.2997074 -92.6967163 90.7318115
22.7315159 -90.4221497 84.0135040
20.3754196 -90.1551208 86.3612061
18.0400925 -89.9487839 88.2734528
15.7139149 -89.7888336 89.8489227
13.4076042 -89.6607819 91.1725922
-16.4014263 -90.1770859 91.8108063
-18.7198944 -90.3797150 90.6178589
-21.0514183 -90.6174240 89.1769333
-23.4061012 -90.8956757 87.4129333
18.0958462 -88.2086945 84.4532166
15.7521687 -88.0161133 86.2882004
13.4412279 -87.8699799 87.7793503
11.1154346 -87.7601166 88.9986420
8.8222322 -87.6784363 89.9902191
-11.8377552 -88.0251770 90.4623184
-14.1583862 -88.1851578 89.5939941
-16.4808922 -88.3707809 88.4921875
-18.8171272 -88.5911179 87.1266327
15.7982254 -86.3365631 81.9020386
13.4755802 -86.1487350 83.7158432
11.1386929 -86.0097504 85.1304550
8.8337460 -85.9127274 86.2929611
-11.9121666 -86.2501068 86.8257370
-14.2397327 -86.4190521 85.8038177
-16.5774174 -86.6288147 84.5269165
8.8494139 -84.2329025 81.7640991
6.5256472 -84.1403198 82.8238220
4.2094927 -84.0853119 83.6107559
1.9003896 -84.0653534 84.1421661
-0.4108781 -84.0754547 84.4353333
-2.7164836 -84.1110077 84.4897919
-5.0288601 -84.1757126 84.3355484
-7.3463202 -84.2690735 83.9358444
-9.6677189 -84.3930969 83.2890778
-11.9952946 -84.5513916 82.3782196
1.8858938 -82.4606400 78.8340302
-0.4339453 -82.4544754 79.2268677
-2.7523093 -82.4909058 79.3113174
-50.4200211 -62.3670120 -131.0752106
-47.3293457 -59.0876312 -126.0768433
-50.2924690 -59.2753830 -128.2074890
-53.2639923 -59.4927902 -130.8064270
9.6824226 -56.1067581 -134.9085999
6.8068542 -55.9099045 -131.4580841
-41.4302940 -55.7921753 -120.9704895
-44.3221283 -55.9216347 -122.3116684
-47.2357063 -56.0628128 -123.9288025
-50.1804886 -56.2323570 -125.8725281
-53.1450653 -56.4307175 -128.2420197
9.6632214 -53.0644875 -132.4278259
6.7925091 -52.8941841 -129.2832489
3.9399319 -52.7617798 -126.6800156
-41.3690567 -52.8272629 -119.3473358
-44.2487297 -52.9429779 -120.6114807
-47.1637268 -53.0797577 -122.1512299
-50.0956917 -53.2308197 -123.9702911
-53.0467606 -53.4105415 -126.1620865
-56.0490494 -53.6175117 -128.8353882
12.5358753 -50.2615814 -134.0672913
9.6439028 -50.0699959 -130.4711304
6.7817597 -49.9229317 -127.5466766
3.9258449 -49.8032761 -125.0770416
-41.3184052 -49.8922882 -118.0182343
-44.1931534 -49.9996033 -119.2209625
-47.1013794 -50.1236496 -120.6717682
-50.0226898 -50.2646141 -122.4041824
-52.9619637 -50.4260330 -124.4655151
-55.9538879 -50.6157150 -126.9613113
12.5087557 -47.2766647 -132.2691650
9.6270390 -47.1088676 -128.9058685
6.7693491 -46.9797401 -126.1413269
3.9171882 -46.8721619 -123.7815475
1.0800152 -46.7847328 -121.7688217
-38.4117088 -46.8870430 -115.9627762
-41.2810936 -46.9749527 -116.9033356
-49.9649048 -47.3230438 -121.1226425
-52.8995972 -47.4727173 -123.1010742
-55.8804398 -47.6469002 -125.4646149
-58.8805962 -47.8459129 -128.2711487
15.3842106 -44.5168610 -134.8097687
12.4882774 -44.3283005 -130.8890381
9.6143074 -44.1808548 -127.7002487
6.7582054 -44.0596619 -125.0152435
3.9031949 -43.9629326 -122.7412567
1.0711205 -43.8855171 -120.8062897
-38.3871002 -43.9959793 -115.0980835
-41.2556915 -44.0797501 -116.0278778
-49.9290009 -44.4059944 -120.1245880
-52.8532639 -44.5428009 -122.0173645
-55.8248978 -44.7027130 -124.2669983
-58.8075523 -44.8836899 -126.9329224
15.3641481 -41.5732574 -133.5771179
1.0644597 -41.0024948 -120.0521088
-1.7598288 -40.9449997 -118.4164734
-35.5214310 -41.0518723 -113.7115021
-38.3738594 -41.1212311 -114.4376678
-41.2314911 -41.1993408 -115.3433685
-55.7705231 -41.7785263 -123.3318939
-58.7650681 -41.9503326 -125.9312286
-61.8004494 -42.1475830 -129.0519562
15.3481455 -38.6552124 -132.7080688
1.0601883 -38.1363373 -119.5112381
-1.7557418 -38.0853348 -117.9027710
-4.5807271 -38.0428619 -116.5245667
-7.3857555 -38.0159073 -115.3922424
-29.8602867 -38.0931816 -112.3752899
-32.6876030 -38.1417770 -112.7420883
-35.5162239 -38.1955261 -113.2620621
-38.3561783 -38.2582016 -113.9488831
-41.2151375 -38.3338509 -114.8387756
-55.7417030 -38.8765144 -122.6703949
-58.7254944 -39.0336685 -125.1901855
-61.7503128 -39.2165451 -128.2070007
18.2496967 -35.9368134 -136.5263977
15.3317194 -35.7579117 -132.1477814
-4.5914502 -35.1970291 -116.2110977
-7.3893070 -35.1722183 -115.0829773
-10.2034893 -35.1525955 -114.1056595
-13.0045691 -35.1452637 -113.3390656
-15.8100691 -35.1419754 -112.7250443
-18.6136475 -35.1503754 -112.3080292
-21.4199886 -35.1635094 -112.0059509
-32.6780281 -35.2949791 -112.4443817
-35.5179405 -35.3482895 -112.9667358
-61.7280045 -36.3044052 -127.6546707
21.1950607 -33.2670975 -141.8902588
18.2284489 -33.0391541 -136.1582642
15.3167400 -32.8751907 -131.8563843
-4.5938439 -32.3613815 -116.0776520
-7.4016132 -32.3374329 -114.9457245
-10.2160940 -32.3214607 -113.9855652
-13.0168142 -32.3130264 -113.2042770
-15.8200245 -32.3136673 -112.6152954
-18.6206818 -32.3196373 -112.1645737
-21.4323254 -32.3343658 -111.8717270
-32.6900139 -32.4610176 -112.3150482
-35.5242920 -32.5108719 -112.8320160
-61.7277870 -33.4092941 -127.3897476
-64.8000946 -33.5956955 -130.9183807
21.1834641 -30.3686008 -141.8247681
18.2243252 -30.1590214 -136.1537781
15.3140182 -30.0069256 -131.8649597
-4.6063881 -29.5331974 -116.1163559
-7.4093485 -29.5113850 -114.9802322
-10.2201099 -29.4971848 -114.0210876
-13.0171480 -29.4901314 -113.2355499
-15.8249779 -29.4916573 -112.6554871
-18.6401539 -29.4987640 -112.2004089
-21.4408798 -29.5116100 -111.9031982
-32.6985397 -29.6334648 -112.3502121
-35.5325012 -29.6809330 -112.8651962
-61.7274513 -30.5250454 -127.3568878
-64.7995834 -30.6990108 -130.8613892
18.2098198 -27.2902641 -136.4324951
15.3012571 -27.1483459 -132.1159058
-4.6176786 -26.7108421 -116.3060150
-7.4216070 -26.6915417 -115.1665344
-18.6451054 -26.6822395 -112.3794403
-21.4452457 -26.6958179 -112.0782547
-24.2554493 -26.7156029 -111.9649734
-27.0751724 -26.7421322 -112.0215836
-29.9013100 -26.7745419 -112.2145386
-32.7083855 -26.8120270 -112.5327454
-35.5462074 -26.8567696 -113.0441513
-61.7502747 -27.6515770 -127.5903320
18.2139606 -24.4338875 -137.0987091
15.3001251 -24.2992191 -132.6778259
12.3995628 -24.1971474 -129.1136475
9.5349312 -24.1152954 -126.1647415
6.6845422 -24.0484924 -123.6690521
3.8376999 -23.9957275 -121.4982758
1.0066210 -23.9534378 -119.6416855
-1.8091787 -23.9195290 -118.0511398
-4.6332932 -23.8947487 -116.6860504
-7.4319525 -23.8771858 -115.5364838
-18.6590805 -23.8708591 -112.7233505
-21.4694576 -23.8851719 -112.4651871
-24.2810555 -23.9039402 -112.3274307
-61.7860680 -24.7865562 -128.0686188
15.2975979 -21.4569473 -133.5111847
12.3999720 -21.3596611 -129.8793640
9.5314646 -21.2832012 -126.8609467
6.6756401 -21.2235909 -124.3030243
3.8329010 -21.1736317 -122.1312027
-7.4484053 -21.0670109 -116.0919724
-10.2654924 -21.0581779 -115.1306763
-13.0651636 -21.0554390 -114.3325043
-15.8806419 -21.0549545 -113.7018204
-18.6772366 -21.0641537 -113.2564392
-21.4873543 -21.0779133 -112.9731369
-24.3062191 -21.0961304 -112.8335114
-61.8426895 -21.9271126 -128.8269043
15.2974062 -18.6187057 -134.6746216
12.3900700 -18.5269585 -130.8852234
9.5221739 -18.4566460 -127.7870026
6.6615286 -18.4003372 -125.1803436
3.8170433 -18.3552952 -122.9411087
-7.4681101 -18.2594032 -116.8164368
-15.8967094 -18.2514420 -114.3919525
-18.7077675 -18.2580700 -113.9533386
-55.8808289 -18.8555908 -124.1750107
-58.8753433 -18.9554482 -126.7666550
-61.8953400 -19.0732937 -129.8289642
15.3014135 -15.7863979 -136.1995697
12.3885298 -15.6962271 -132.2065735
9.5214710 -15.6313066 -128.9987335
6.6551375 -15.5780716 -126.2969055
3.8055139 -15.5380592 -123.9777832
-7.4867735 -15.4492674 -117.7231369
-15.9279709 -15.4471054 -115.2589340
-18.7375717 -15.4559441 -114.7825165
-55.9499741 -16.0158577 -125.3068161
-58.9502220 -16.1100330 -127.9759903
12.3932457 -12.8677025 -133.8509064
9.5195627 -12.8078165 -130.4772644
6.6493597 -12.7568903 -127.6784286
3.7957082 -12.7206182 -125.2884216
0.9498929 -12.6940594 -123.2437592
-1.8680543 -12.6673622 -121.5268860
-4.7002053 -12.6529531 -120.0503464
-7.5077538 -12.6434240 -118.8165436
-50.1330833 -13.0290928 -122.4184952
-53.0611496 -13.0995016 -124.3718109
-56.0405159 -13.1755829 -126.7117233
-59.0437355 -13.2645922 -129.5001831
12.3937283 -10.0407200 -135.9590149
9.5166931 -9.9794836 -132.3330994
6.6373920 -9.9359684 -129.3430328
3.7867866 -9.9010143 -126.8498611
0.9405234 -9.8752213 -124.7278366
-1.8909004 -9.8565884 -122.9309769
-4.7189989 -9.8405342 -121.4136200
-7.5363765 -9.8355694 -120.1225281
-50.2119675 -10.1995869 -123.8958511
-53.1556053 -10.2624531 -125.9551392
-56.1323013 -10.3365250 -128.4001465
9.5178146 -7.1505136 -134.5749054
6.6336284 -7.1083689 -131.3667755
3.7790642 -7.0807157 -128.7014313
0.9263685 -7.0568466 -126.4695511
-1.9082645 -7.0391417 -124.5907516
-44.4661942 -7.2670774 -122.3704071
-47.3717995 -7.3137836 -123.8580627
-50.3009949 -7.3677492 -125.6630859
-53.2611465 -7.4240489 -127.8452759
-56.2581940 -7.4923182 -130.4804688
9.5169716 -4.3225889 -137.3615875
6.6336775 -4.2779355 -133.8207855
3.7691891 -4.2486296 -130.9447021
0.9141244 -4.2320862 -128.5617218
-1.9263872 -4.2188578 -126.5641174
-44.5576630 -4.4346466 -124.2650070
-47.4711571 -4.4801445 -125.8540802
-50.4155045 -4.5269623 -127.7916031
-53.3848534 -4.5800347 -130.1322937
6.6256199 -1.4458125 -136.8139191
3.7591965 -1.4163811 -133.6299286
0.8924290 -1.4034981 -131.0394287
-1.9490957 -1.3853836 -128.9193878
-4.7923784 -1.3850932 -127.1056747
-7.6286268 -1.3832982 -125.6387253
-38.8619690 -1.5356054 -123.9670792
-41.7527161 -1.5666631 -125.0833511
-44.6687317 -1.5992002 -126.5119095
-47.5970230 -1.6355557 -128.2383575
-50.5502129 -1.6819389 -130.3228760
3.7416883 1.4238672 -136.9331055
0.8711410 1.4403117 -134.0418396
-1.9848331 1.4444820 -131.6428833
-4.8200674 1.4529963 -129.7235413
-7.6609488 1.4529455 -128.1347046
-38.9726791 1.3078758 -126.4176865
-41.8725548 1.2738533 -127.6316071
-44.7888184 1.2456756 -129.1697083
-47.7314377 1.2092960 -131.0444031
-50.7107773 1.1727239 -133.3849182
-1.9992704 4.2970171 -135.0094299
-4.8440981 4.2980599 -132.8528137
-7.7046709 4.2952232 -131.0982971
-10.5333443 4.2898817 -129.6594086
-13.3770475 4.2815351 -128.5385742
-33.3070793 4.1929684 -127.4233932
-36.1946068 4.1731324 -128.2023773
-39.0873413 4.1527877 -129.2702179
-41.9933968 4.1280828 -130.6291504
-44.9306870 4.1029215 -132.3393860
-2.0412397 7.1557326 -139.2243652
-4.8898826 7.1571980 -136.6783142
-7.7470436 7.1570406 -134.6912231
-10.5826302 7.1440063 -133.0643158
-13.4366817 7.1411123 -131.8261108
-33.4310532 7.0568461 -130.6566315
-36.3154831 7.0350323 -131.5211639
-39.2241058 7.0160170 -132.7180176
-42.1489563 6.9973078 -134.2719727
-7.8033047 10.0295668 -139.2026978
-10.6481285 10.0202570 -137.2717743
-13.5128660 10.0125809 -135.8265686
-16.3544083 10.0030622 -134.7357483
-19.2154617 9.9882164 -133.9679565
-22.0698166 9.9766588 -133.5254211
-24.9314079 9.9643440 -133.3547668
-27.8001003 9.9542122 -133.4383240
-30.6787987 9.9404488 -133.8326721
-33.5640144 9.9224033 -134.5285187
-36.4721375 9.9143181 -135.5824280
-13.5957575 12.8991375 -140.9768372
-16.4497662 12.8918896 -139.6363831
-19.3202114 12.8802185 -138.7331085
-22.1834469 12.8694181 -138.1902313
-25.0623894 12.8609447 -137.9971924
-27.9343987 12.8474121 -138.1348572
-30.8268127 12.8377838 -138.6384583
5.0444784 -176.9225006 88.6465836
3.9169064 -176.8644714 89.0859222
2.8216066 -176.8248901 89.4012756
1.6812401 -176.8127441 89.5935440
0.4709626 -176.8319702 89.6612396
8.5691938 -175.1651459 90.7936249
7.4577651 -175.0300903 91.3809280
6.2683582 -174.9120789 91.9585190
5.0404959 -174.8267670 92.4685059
3.9268565 -174.7990723 92.7714615
0.4895469 -174.7947235 93.2333069
-0.7172858 -174.8673401 93.2006454
-1.7811375 -174.9121094 93.1189728
-2.8809609 -174.9835815 92.9353409
-4.0636063 -175.0858612 92.6699829
-5.3161297 -175.2405853 92.2305984
-6.4407568 -175.4086456 91.7920074
12.0490665 -173.6982117 91.6209412
10.8093519 -173.4933014 92.6098480
9.6246109 -173.3475037 93.3824234
8.5448523 -173.2522583 93.9320450
7.4558058 -173.2012787 94.3609924
6.2660170 -173.1220703 94.8455200
5.0285625 -173.0545654 95.2743225
3.9203713 -173.0437164 95.5093994
0.4894611 -173.0565338 95.9097900
-0.7154500 -173.1148071 95.8825760
-1.7588423 -173.1621246 95.8118362
-2.8429623 -173.2289429 95.6724472
-4.0452147 -173.3069763 95.4636078
-5.2999058 -173.4330902 95.1119843
-6.4066267 -173.5538330 94.7546997
-7.4619646 -173.6833954 94.3562012
-8.6131516 -173.8497314 93.8115387
-9.8683624 -174.0805664 93.0839539
15.3860550 -172.4496765 91.7656326
14.2628040 -172.2284546 92.7864151
13.1884604 -172.0665894 93.6174164
12.0341911 -171.9167175 94.4333115
10.7846746 -171.7469177 95.2823486
-8.5769081 -172.1370544 96.3405533
-9.8284836 -172.3052368 95.7557526
-11.0262680 -172.5111389 95.0666046
-12.0997820 -172.7153015 94.3927765
-13.2123671 -172.9785156 93.6323929
15.3413076 -170.6852722 94.4420013
14.2252026 -170.5236206 95.3102875
13.1688929 -170.4077301 95.9844971
12.0158148 -170.2746429 96.6944427
10.7663097 -170.1315460 97.4418488
-8.5405359 -170.5403137 98.4353638
-9.8032732 -170.7026978 97.9012527
-11.0051193 -170.8705139 97.3220596
-12.0484219 -171.0325317 96.7658157
-13.1339855 -171.2279510 96.1091690
-14.3615837 -171.4943695 95.2396317
-15.6515751 -171.8316040 94.1416321
19.9724064 -169.9565582 92.1698837
18.8821125 -169.7326202 93.3519897
17.7633400 -169.5158234 94.4601135
16.5516281 -169.2769470 95.5867920
15.3055668 -169.0594635 96.6440659
-15.6186113 -170.1342926 96.4148102
22.3856678 -168.9422302 91.5542755
21.1173058 -168.5657959 93.2350540
19.9181595 -168.2686768 94.6133575
18.8516769 -168.0842590 95.5986862
17.7372456 -167.9038696 96.5435715
16.5185699 -167.7015076 97.5557098
15.2767267 -167.5205841 98.5000610
-15.5840149 -168.5718689 98.3702545
-16.6929855 -168.7825012 97.6128235
-17.7273445 -168.9746246 96.8538437
-18.9074478 -169.2775574 95.8423309
24.6470070 -167.9259033 90.8214951
23.5291080 -167.5869446 92.3735352
22.3292389 -167.2476044 93.9462891
4.9703302 -165.4462738 104.0151825
3.9009216 -165.4487305 104.1673813
2.9062569 -165.4930725 104.2029266
1.7714207 -165.5043640 104.2919006
0.4804925 -165.5072937 104.4000702
-0.7062296 -165.5670471 104.3963776
-17.6666126 -167.4144440 98.7417831
-18.8369560 -167.6858215 97.7960892
24.5672684 -166.2290802 93.2419510
23.4836102 -165.9621582 94.5675735
22.2990055 -165.6913452 95.9132919
4.9564247 -164.0838470 105.2153549
3.8904788 -164.0892181 105.3524857
2.9007039 -164.1180725 105.3937225
1.7770313 -164.1250763 105.4879913
0.4787839 -164.1278992 105.6015015
-0.7169630 -164.1581421 105.6333618
-17.6137161 -165.9346771 100.3522644
-18.7877750 -166.1763000 99.4816589
-20.0660553 -166.4678192 98.4093170
-21.3119392 -166.7858276 97.2733307
25.6566429 -164.9393005 93.8452530
24.5369110 -164.6780853 95.2095947
4.9528027 -162.7079315 106.3400345
0.4736449 -162.8014526 106.6897964
-0.7136970 -162.8255615 106.7229767
-3.9500017 -162.9832611 106.4724426
-5.2519703 -163.0887299 106.2525482
-6.3094120 -163.1580048 106.0978165
-7.2697067 -163.2013092 105.9852295
-8.3982220 -163.2938538 105.7059174
-9.7189760 -163.4512634 105.2540741
-12.9239492 -163.7808533 104.2545166
-14.1804543 -163.9710388 103.6141968
-15.5110836 -164.2117157 102.8478470
-16.6016388 -164.3886108 102.2760468
-17.5943279 -164.5215149 101.7710953
-18.7406425 -164.7268982 100.9803467
-20.0400887 -165.0038910 99.9562912
-21.2711182 -165.2877502 98.9460526
-22.3222389 -165.5198212 98.0792313
-23.4233475 -165.7975464 97.0036163
28.1142311 -164.1622314 92.1275406
26.8704224 -163.7682800 93.9944839
25.6075115 -163.4118042 95.6845016
24.4874687 -163.1668701 96.9241486
4.9478140 -161.3944397 107.3365250
0.4860785 -161.4543915 107.6954651
-0.7121143 -161.4952698 107.7202835
-3.9351652 -161.6407471 107.4993439
-5.2428236 -161.7438965 107.2861557
-6.3060398 -161.8339081 107.1349030
-9.7160721 -162.1248779 106.3129349
-12.9022894 -162.4095001 105.3934784
-14.1480255 -162.6002655 104.7780380
-18.6900520 -163.3064270 102.3603363
-20.0061359 -163.5794373 101.3634491
-21.2347698 -163.8347626 100.4313660
-22.2855759 -164.0561981 99.6036530
-23.3897858 -164.3094482 98.6208038
-24.6241703 -164.6382294 97.3685455
29.2320290 -162.9871368 92.2737732
28.0677319 -162.6162720 94.0148621
26.8331718 -162.2714691 95.7005920
9.4793949 -160.1670227 107.3075180
8.4786854 -160.1775208 107.4329376
7.4258852 -160.1737671 107.6013947
6.2113705 -160.1374207 107.9349365
4.9418325 -160.0752716 108.2887802
3.8812490 -160.1013794 108.3900070
2.8931444 -160.1454010 108.3801117
1.7673392 -160.1521912 108.4744415
0.4859968 -160.1634827 108.5899963
-0.7072045 -160.2019958 108.6257019
-3.9326084 -160.3433228 108.4145432
-5.2350335 -160.4484100 108.2153473
-9.7021694 -160.7910004 107.2914734
-10.9120617 -160.9339905 106.8964386
-11.8783932 -160.9996643 106.7014465
-12.9183025 -161.1042633 106.3978271
-14.1332474 -161.2618408 105.8253784
-15.4601650 -161.4679413 105.1043243
-18.6643753 -161.9264984 103.5592194
-24.5568485 -163.1611938 98.9330063
-25.8522148 -163.5357056 97.5730515
29.1600304 -161.4415436 94.1436615
28.0291233 -161.1506958 95.6411743
26.7937431 -160.8336334 97.1850052
9.4750357 -158.8665771 108.1935349
8.4715776 -158.8930054 108.2871170
1.7620758 -158.8844604 109.3055267
0.4847059 -158.8677826 109.4481506
-0.7008405 -158.9076080 109.4804077
-3.9241714 -159.0500488 109.2657547
-5.2234583 -159.1506958 109.0798721
-6.2794986 -159.2037048 108.9641800
-9.6820984 -159.4880981 108.1978989
-16.5198288 -160.2812805 105.6584549
-17.5139980 -160.4049988 105.2629013
-18.6509819 -160.5826111 104.6259155
-24.5222511 -161.7475739 100.2817917
-25.7867203 -162.0629425 99.0245361
-26.9353523 -162.3663483 97.8300400
30.2275772 -160.2758179 94.2220383
29.1308727 -159.9915009 95.6915741
9.4662552 -157.5949554 108.9876404
2.8977735 -157.5911560 110.0006104
1.7671750 -157.6013184 110.1028976
-6.2757440 -157.9338074 109.7601547
-7.2338333 -157.9756165 109.6726532
-8.3710375 -158.0728149 109.4358215
-9.6748114 -158.2240601 109.0277405
-16.4966030 -158.9674683 106.6079025
-26.9013157 -160.9527893 99.2191162
-28.0146255 -161.2557831 98.0815887
-29.2258244 -161.6370239 96.6815643
31.4048443 -159.2022095 93.9480743
30.1846542 -158.8406677 95.7051849
29.0816784 -158.5753174 97.0716705
9.4754562 -156.3563538 109.7033310
2.8990660 -156.3461609 110.7279434
1.7583746 -156.3500366 110.8288345
-6.2688112 -156.6814270 110.5029984
-7.2278752 -156.7026825 110.4382629
-8.3503962 -156.7917786 110.2331161
-11.8329735 -157.1263733 109.3126297
-12.8304081 -157.1833801 109.0816803
-14.1050415 -157.3804321 108.5268402
-16.4842987 -157.6871948 107.4579849
-26.8594494 -159.5674438 100.4568787
-27.9524784 -159.8333588 99.3924332
-29.1440411 -160.1705933 98.0982056
32.6248169 -158.1718140 93.4344330
31.3639832 -157.7830505 95.3557587
9.4548140 -155.0924377 110.4239273
3.8670959 -155.0640259 111.3894653
2.8757868 -155.1212769 111.4020538
1.7493199 -155.1180420 111.5058212
-8.3549042 -155.5521851 110.9233856
-12.8562660 -155.9470215 109.7719650
-14.0799389 -156.1002502 109.2591095
-15.3804216 -156.2973633 108.6537704
-16.4604073 -156.4116669 108.2521057
-29.1047287 -158.7773285 99.3356934
-30.3808899 -159.1570282 97.8848267
33.8083382 -157.1563263 92.8674545
32.5833664 -156.7619476 94.8023071
31.3112602 -156.3924713 96.6301346
9.4641743 -153.8750305 111.0526810
4.9393058 -153.8262939 111.9267883
3.8687787 -153.8412628 112.0189972
2.8551455 -153.8697510 112.0622482
1.7346251 -153.8736420 112.1553040
-8.3628616 -154.3244324 111.5421677
-9.6285915 -154.4522400 111.1870041
-10.8177319 -154.5642548 110.8677826
-11.8111753 -154.6258392 110.6839905
-12.8447590 -154.6946411 110.4576569
-14.0748024 -154.8525391 109.9516907
-15.3573132 -155.0333405 109.3813782
-16.4415550 -155.1490173 108.9827347
-29.0613670 -157.4121399 100.4727783
-30.3330994 -157.7659302 99.0794220
34.8836784 -156.0968170 92.4559937
33.7403641 -155.7366638 94.2699814
9.4539585 -152.6578674 111.6425476
8.4241123 -152.6714783 111.7898026
7.3534250 -152.6746521 111.9537811
6.1770062 -152.6438446 112.2242279
4.9371109 -152.6092529 112.4960709
3.8643391 -152.6224823 112.6016998
-29.0234547 -156.0850830 101.4767456
-30.2866116 -156.4148560 100.1513290
-31.5294876 -156.7663574 98.7748947
36.0300446 -155.1076813 91.7966080
34.8394814 -154.7029724 93.7709732
33.7058296 -154.3771210 95.4571152
9.4542494 -151.4600983 112.1773834
8.4177856 -151.4664459 112.3377914
7.3446937 -151.4670105 112.5076981
6.1650462 -151.4434509 112.7630081
4.9458361 -151.4180298 113.0119171
3.8715544 -151.4275970 113.1160812
-29.0045052 -154.7873840 102.3666992
-30.2549591 -155.0943756 101.1186066
-31.4912376 -155.4228516 99.7975235
35.9784355 -153.7120819 93.0948639
-3.9247565 -150.4550629 113.7118683
-5.1482196 -150.5270996 113.5844421
-6.2295156 -150.5720062 113.4872971
-7.2506652 -150.6232605 113.3843002
-8.3656883 -150.6915283 113.1922302
-9.6098785 -150.8094482 112.8832703
-31.4552479 -154.1111298 100.7341919
-32.5604477 -154.3953857 99.5526199
-33.7230301 -154.7385101 98.2153320
35.9476242 -152.3657837 94.2227325
-3.9236803 -149.2708588 114.1632385
-5.1414661 -149.3536987 114.0367126
-6.2201648 -149.3930206 113.9444580
-7.2647171 -149.4486389 113.8345718
-8.3826256 -149.5200043 113.6454239
-9.5883083 -149.6154633 113.3704224
-31.4108810 -152.8157501 101.5975113
-32.5195732 -153.0891418 100.4495926
-33.6649399 -153.4020996 99.1599503
37.2053413 -151.4541473 93.1651840
35.8912659 -151.0361176 95.2274094
-3.9274554 -148.0954590 114.5826645
-8.3743553 -148.3297577 114.0796509
-9.5934296 -148.4414215 113.8069077
-33.6338959 -152.1043396 100.0308609
-34.8589668 -152.4581451 98.5707474
38.4095840 -150.5745850 91.9439087
37.1312943 -150.1365204 94.1200104
35.8577347 -149.7494202 96.1015167
-3.9290357 -146.9328308 114.9740524
-8.3928976 -147.1704559 114.4656677
-9.5833397 -147.2671661 114.2113342
-33.5943527 -150.8200073 100.8388443
-34.8282509 -151.1634216 99.4002838
-36.1421089 -151.5670471 97.7618790
38.3339119 -149.2352600 92.9558716
-3.9274340 -145.7707825 115.3301926
-5.1127548 -145.8464966 115.2191467
-6.2060513 -145.8926697 115.1159515
-7.2742329 -145.9457703 115.0009613
-8.3938084 -146.0150146 114.8223114
-9.5705156 -146.1018677 114.5840607
-33.5797501 -149.5683899 101.5316162
-34.7924423 -149.8898163 100.1703873
39.5211754 -148.3558655 91.7330780
38.2899704 -147.9443359 93.8458786
-3.9366117 -144.6257629 115.6470184
-5.1065063 -144.6829224 115.5479889
-6.2097149 -144.7339783 115.4481888
-7.2770715 -144.7955017 115.3251572
-8.3971872 -144.8585205 115.1507034
-9.5700817 -144.9519348 114.9207764
-33.5666695 -148.3339386 102.1488266
-34.7596588 -148.6325531 100.8591843
-36.0560951 -149.0007172 99.3205261
39.4744987 -147.0674744 92.5936279
38.2606010 -146.6801453 94.6159668
-36.0002098 -147.7422485 99.9872513
39.4300957 -145.7969055 93.3735657
38.2256355 -145.4341431 95.3102112
-35.9914627 -146.5087433 100.5863037
-37.1665306 -146.8242188 99.2041168
40.5918045 -144.9344177 92.0163727
39.3894005 -144.5480042 94.0742798
38.1989059 -144.2081451 95.9111328
-6.2063389 -141.3291473 116.2339096
-7.2837949 -141.3840332 116.1077805
-8.4076862 -141.4522705 115.9491043
-9.5517139 -141.5194855 115.7540741
-10.7020588 -141.6072235 115.5214005
-11.7867966 -141.6823578 115.2930756
-35.9747086 -145.2906036 101.1334381
-37.1373596 -145.5943146 99.7981339
-38.3066063 -145.9277649 98.3667145
40.5574112 -143.6904755 92.6819839
39.3715439 -143.3248138 94.6537552
38.1665916 -142.9946289 96.4504166
-6.1933718 -140.1985474 116.4471054
-7.2909813 -140.2579041 116.3168411
-8.4136124 -140.3271637 116.1593933
-9.5491858 -140.3917847 115.9679718
-10.7023640 -140.4796753 115.7386322
-11.7888412 -140.5525513 115.5136566
-35.9577026 -144.0904388 101.6002197
-37.1390114 -144.3899536 100.2793274
-38.2682800 -144.6951904 98.9211273
41.8006516 -142.8983917 90.9953918
40.5276184 -142.4660339 93.2668304
7.2253146 -138.7893066 116.1754837
6.1015739 -138.7872314 116.3543015
4.9534788 -138.7846680 116.5125885
3.8531435 -138.7937317 116.6350327
-1.7145103 -138.9032593 116.8934937
-2.8249295 -138.9359131 116.8708725
-3.9462695 -138.9792480 116.8190231
-5.0944319 -139.0311127 116.7380524
-6.1932402 -139.0856781 116.6313629
-7.2985973 -139.1428223 116.4954758
-10.6890831 -139.3524780 115.9383926
-11.7834587 -139.4287415 115.7069016
-38.2661972 -143.4897766 99.3865509
-39.4856186 -143.8436584 97.8388519
41.7638168 -141.6740417 91.5616989
40.5002289 -141.2601013 93.7668304
7.2217607 -137.6826172 116.3176117
3.8495877 -137.6824188 116.7942886
-1.7214484 -137.7911987 117.0462646
-2.8282588 -137.8283081 117.0196381
-7.3001881 -138.0318146 116.6458740
-10.6884041 -138.2374420 116.0997162
-11.7869596 -138.3174744 115.8684311
-38.2575226 -142.2965546 99.8026199
-39.4675522 -142.6367035 98.2982407
41.7120018 -140.4532623 92.0840607
40.4873772 -140.0740814 94.1795578
18.4244270 -136.9185181 113.1233749
17.3149261 -136.8679504 113.5848618
16.1826248 -136.8132172 114.0234146
15.0271683 -136.7564850 114.4441528
9.4286366 -136.5980377 116.0189819
8.3280439 -136.5890503 116.2365723
7.2135172 -136.5827026 116.4395828
3.8431094 -136.5794067 116.9185333
2.7420151 -136.5945129 117.0075226
1.6295140 -136.6097717 117.0787811
0.5004936 -136.6304626 117.1339874
-0.6278156 -136.6595154 117.1676788
-1.7192132 -136.6867218 117.1696014
-2.8336999 -136.7247009 117.1386261
-3.9530869 -136.7677612 117.0902939
-7.3020935 -136.9222870 116.7793655
-8.4209757 -136.9849243 116.6231384
-9.5590343 -137.0559998 116.4418945
-10.6890430 -137.1288605 116.2383347
-11.7867947 -137.2034302 116.0125427
-12.8982773 -137.2876740 115.7499237
-14.0250893 -137.3777161 115.4498215
-15.1866598 -137.4764404 115.1289597
-16.2999001 -137.5738831 114.7914429
-38.2457504 -141.1101685 100.1787643
-39.4408607 -141.4333954 98.7204971
41.7046089 -139.2737427 92.4637833
40.4662628 -138.8956909 94.5521622
18.4247551 -135.8185425 113.2343140
17.2949562 -135.7534485 113.7032318
16.1688061 -135.7026825 114.1362000
15.0204821 -135.6514587 114.5515976
9.4258261 -135.5012360 116.1167831
8.3243008 -135.4902954 116.3364334
7.2036924 -135.4827881 116.5397339
6.0889173 -135.4715271 116.7267380
4.9503250 -135.4741211 116.8851471
3.8456950 -135.4864502 117.0020905
2.7335691 -135.4946289 117.1005402
1.6201844 -135.5155945 117.1763763
0.4980030 -135.5334320 117.2345276
-0.6215107 -135.5546570 117.2679749
-1.7191720 -135.5890503 117.2665939
-2.8411245 -135.6246643 117.2368469
-3.9558361 -135.6664734 117.1868896
-5.0850263 -135.7141113 117.1118774
-6.1985536 -135.7662048 117.0173264
-9.5553207 -135.9534302 116.5733032
-10.6752691 -136.0130463 116.3762894
-11.7871075 -136.1011658 116.1521454
-15.1807718 -136.3647308 115.2724075
-16.2914104 -136.4651642 114.9168549
-38.2348938 -139.9348755 100.5069580
-39.4324074 -140.2543335 99.0621567
42.9759903 -138.5258789 90.4856415
41.6842422 -138.0957947 92.8178253
40.4454498 -137.7285614 94.8661957
18.4194603 -134.7239685 113.3180542
15.0221071 -134.5560303 114.6352692
13.9102793 -134.5178375 114.9946213
12.7955284 -134.4858704 115.3257370
11.6782837 -134.4553375 115.6378479
10.5477667 -134.4276886 115.9317627
9.4204798 -134.4073486 116.1928711
8.3213816 -134.3996582 116.4043274
-2.8430417 -134.5322418 117.3222809
-15.1895704 -135.2665405 115.3531952
-16.2970352 -135.3618469 115.0059052
-17.4099140 -135.4637756 114.6435089
-18.5431976 -135.5756073 114.2456360
-19.6743393 -135.6897125 113.8109131
-20.8248291 -135.8180542 113.3345642
-21.9451962 -135.9463196 112.8420181
-23.0693245 -136.0777893 112.3188782
-38.2183266 -138.7692261 100.7880859
-39.4296837 -139.0861511 99.3525848
42.9445763 -137.3460388 90.8393555
41.6694717 -136.9332123 93.1105270
40.4428101 -136.5808716 95.0972824
18.4121704 -133.6306000 113.3790131
15.0239286 -133.4700012 114.6851807
13.9175625 -133.4319000 115.0422211
12.7864170 -133.3914642 115.3838120
11.6683340 -133.3633575 115.6959534
-14.0374432 -134.0727539 115.7435760
-15.1784916 -134.1642761 115.4215622
-16.3081055 -134.2673035 115.0760422
-17.4194641 -134.3658142 114.7114334
-18.5434933 -134.4747620 114.3182602
-19.6759586 -134.5884399 113.8947449
-20.8270493 -134.7128296 113.4287872
-21.9441376 -134.8395233 112.9359055
-23.0768833 -134.9751892 112.4039001
-38.2116699 -137.6167908 101.0127411
-39.4134979 -137.9232330 99.6150894
-40.6673889 -138.2691956 98.0360107
42.9093513 -136.1755066 91.1423950
16.1574841 -132.4323120 114.3067017
-17.4258270 -133.2727356 114.7588654
-18.5521126 -133.3805847 114.3687363
-21.9451103 -133.7379608 112.9990082
-23.0731583 -133.8710632 112.4677429
-38.2081299 -136.4716187 101.1991882
-39.4027596 -136.7695160 99.8259583
-40.6539726 -137.1078186 98.2698517
42.8907814 -135.0259247 91.3470459
16.1504288 -131.3493347 114.3129272
-17.4112148 -132.1772156 114.7928848
-18.5521393 -132.2872009 114.3977280
-21.9478817 -132.6443481 113.0306396
-23.0821457 -132.7751923 112.5046844
-38.2059860 -135.3356323 101.3443604
-39.4016113 -135.6282043 99.9912567
42.8793030 -133.8911285 91.4904022
20.6539745 -130.5104370 112.4038239
19.5076885 -130.4415131 112.9328461
18.3976707 -130.3795776 113.4149704
17.2597294 -130.3234711 113.8735657
16.1484051 -130.2758789 114.2822876
-16.3061581 -130.9969788 115.1527710
-17.4219761 -131.0943909 114.7962036
-18.5466061 -131.1983643 114.4068985
-19.6810379 -131.3099823 113.9866257
-20.8236237 -131.4293213 113.5231705
-21.9504395 -131.5541687 113.0357742
-23.0832100 -131.6817322 112.5189209
-38.1958046 -134.2047882 101.4574356
-39.4091454 -134.4967651 100.1067581
42.8709221 -132.7658386 91.5815735
20.6471310 -129.4367065 112.3640671
19.5070305 -129.3700867 112.8855591
16.1476460 -129.2055969 114.2339554
-18.5742321 -130.1407776 114.4112549
-19.6958714 -130.2287903 113.9713821
-20.8334503 -130.3469391 113.4984894
-21.9586277 -130.4698181 113.0159836
-23.0985718 -130.5988312 112.4983368
-38.1964645 -133.0851898 101.5184479
-39.3974419 -133.3686371 100.1944275
42.8561096 -131.6459656 91.6396103
20.6358566 -128.3655853 112.3020325
19.5062752 -128.2998657 112.8202820
-19.6994534 -129.1507111 113.9251251
-20.8409386 -129.2684174 113.4540482
-38.2099304 -131.9754639 101.5325089
-39.4000320 -132.2510376 100.2319183
-40.6123543 -132.5547791 98.7854767
-41.8507195 -132.8902130 97.1698151
-43.0692749 -133.2444763 95.4723511
42.8513374 -130.5405579 91.6280441
20.6355095 -127.3002777 112.2170792
19.4995346 -127.2332764 112.7361984
18.3811913 -127.1603241 113.2037354
-19.6881294 -128.0740204 113.8570251
-20.8474026 -128.1936340 113.3855133
-38.2156754 -130.8686066 101.5271912
-39.4019852 -131.1404572 100.2348785
-40.6249161 -131.4426422 98.7885132
-41.8566208 -131.7706604 97.2007294
-43.0719681 -132.1174927 95.5220337
42.8511162 -129.4466400 91.5555420
18.3821793 -126.1128235 113.1104813
-19.7091789 -127.0086670 113.7528763
-20.8522167 -127.1232681 113.2916946
-43.0830383 -131.0031433 95.5060730
42.8498993 -128.3590088 91.4441299
18.3837242 -125.0559006 112.9785309
17.2414894 -125.0015564 113.4399796
-19.7023773 -125.9409180 113.6390457
-20.8530388 -126.0566254 113.1767044
-43.0858650 -129.8943024 95.4568939
42.8421326 -127.2755890 91.3065796
20.6207867 -124.1252899 111.8260574
19.4995804 -124.0600739 112.3483047
18.3773861 -124.0020447 112.8287888
-19.7187824 -124.8822327 113.4857483
-20.8564911 -124.9945831 113.0343246
-43.0851402 -128.7933044 95.3618393
42.8485909 -126.2071762 91.0855026
20.6353912 -123.0774841 111.6331940
-17.4640808 -123.6225281 114.1159592
-18.5931740 -123.7217102 113.7298660
-19.7255306 -123.8263855 113.3131866
-20.8678799 -123.9369049 112.8660812
-43.0766640 -127.6991501 95.2284622
44.1274261 -125.5309372 88.4828339
42.8521767 -125.1476440 90.8114395
20.6345387 -122.0334625 111.4159698
17.2368946 -121.8570786 112.8926086
-17.4728889 -122.5717163 113.9212952
-18.6048737 -122.6701965 113.5341263
-40.6490364 -125.9743347 98.2678833
-41.8870773 -126.2912064 96.6794891
-43.0740356 -126.6255875 95.0084229
44.1558685 -124.4852219 88.0988846
42.8549004 -124.0945282 90.4965515
20.6282845 -120.9938354 111.1747284
19.4901886 -120.9300385 111.6969910
18.3734779 -120.8711014 112.1899109
17.2298431 -120.8161392 112.6637802
-17.4824066 -121.5235901 113.7079773
-18.6106415 -121.6211853 113.3224716
-40.6617203 -124.9034271 98.0323410
-41.9066353 -125.2287521 96.3775787
44.1482582 -123.4299011 87.7712555
42.8714256 -123.0518570 90.1152496
-17.4949608 -120.4799271 113.4657745
-18.6263580 -120.5770493 113.0801315
-40.6699791 -123.8380661 97.7651901
-41.8930969 -124.1480560 96.1814728
42.8922768 -122.0182877 89.6726227
-17.5068340 -119.4392776 113.2003479
-18.6306686 -119.5352402 112.8211670
-40.6965942 -122.7788696 97.4530945
-41.9303207 -123.0832520 95.8879242
-43.1864967 -123.4052200 94.2026749
42.9108810 -120.9935608 89.1765137
18.3662853 -117.7676926 111.3642654
17.2355709 -117.7162552 111.8257446
16.1303749 -117.6696701 112.2449799
-18.6438808 -118.4954758 112.5420685
-40.6979561 -121.7273178 97.1092300
42.9241180 -119.9727402 88.6445465
18.3759689 -116.7411041 111.0249634
-18.6469650 -117.4597092 112.2382660
-40.7278481 -120.6823120 96.7025223
42.9425201 -118.9581833 88.0672302
41.6841087 -118.6142120 90.2751694
40.4606018 -118.3083572 92.2434616
18.3742504 -115.7189941 110.6679688
-16.3975010 -116.2460022 112.6484146
-17.5316963 -116.3334808 112.2874146
-18.6679802 -116.4306259 111.8915024
-38.3557968 -119.1047058 99.0549545
-39.5436440 -119.3569717 97.7524796
-40.7629814 -119.6356201 96.2952576
-41.9878044 -119.9421387 94.6872559
42.9763794 -117.9575272 87.3808975
41.6983337 -117.6098328 89.6551666
40.4838409 -117.3010559 91.6456451
18.3712177 -114.7005463 110.2860718
17.2365494 -114.6462555 110.7592316
16.1189861 -114.5984192 111.1956100
14.9755325 -114.5556564 111.6221924
10.4938765 -114.4409180 112.9550934
-14.1571751 -115.0618896 112.8884430
-15.2806864 -115.1398392 112.5972900
-16.4104729 -115.2198944 112.2766571
-17.5382843 -115.3091125 111.9190216
-18.6905518 -115.4013977 111.5185394
-38.3746986 -118.0675430 98.6163330
-39.5937080 -118.3249588 97.2636337
41.7262039 -116.6128693 88.9731064
40.4923058 -116.2978058 91.0304413
10.4805470 -113.4250946 112.5654526
9.3549824 -113.4104080 112.8247681
1.5201148 -113.4129715 113.9706039
-2.9630039 -113.5005569 114.0701294
-15.2992630 -114.1167526 112.2163086
-16.4254036 -114.1963882 111.8889999
-38.3902893 -117.0365067 98.1429520
-39.6149368 -117.2950439 96.7642670
41.7506256 -115.6212997 88.2465973
40.5204239 -115.3035431 90.3293915
13.8591118 -112.5007477 111.1375122
12.7214527 -112.4477310 111.4996490
4.8758335 -112.3686523 113.2262802
-1.8338680 -112.4568481 113.6841125
-2.9686112 -112.4873581 113.6646042
-4.0707364 -112.5188522 113.6231842
-5.1947584 -112.5570984 113.5575485
-15.3144770 -113.0925369 111.8114929
-16.4340057 -113.1772995 111.4810562
-38.4310226 -116.0147858 97.6008453
-39.6516266 -116.2737885 96.2102203
-40.8585205 -116.5502930 94.7192841
41.7952614 -114.6443329 87.3949432
40.5322075 -114.3171844 89.5920486
13.8657379 -111.4816589 110.7149582
12.7252865 -111.4504700 111.0873718
4.8751316 -111.3585052 112.7916718
3.7632999 -111.3608856 112.9279022
2.6287751 -111.3704300 113.0339279
1.5135157 -111.3816223 113.1229401
-1.8337288 -111.4459534 113.2582397
-2.9719925 -111.4725113 113.2347717
-4.0799341 -111.5099792 113.1930008
-5.2039127 -111.5440750 113.1312103
-8.5845289 -111.6846695 112.7696152
-9.6887989 -111.7399826 112.6102753
-10.8242674 -111.7960663 112.4254303
-15.3162870 -112.0780716 111.3813934
-16.4501171 -112.1577225 111.0407944
-38.4599876 -114.9960022 97.0251846
-39.6662827 -115.2545242 95.6313019
41.8380585 -113.6692429 86.5142975
40.5587311 -113.3397064 88.7669907
13.8620358 -110.4710312 110.2578354
12.7252340 -110.4398651 110.6178207
11.6017885 -110.4120789 110.9412613
7.1036334 -110.3516388 111.9834976
5.9892716 -110.3488159 112.1755676
4.8659639 -110.3486938 112.3421097
3.7536845 -110.3540497 112.4789886
2.6281610 -110.3618851 112.5863800
1.5111212 -110.3732605 112.6732483
0.4024330 -110.3912964 112.7393723
-0.7295735 -110.4068298 112.7822113
-1.8443706 -110.4370575 112.8000183
-2.9750814 -110.4630127 112.7799377
-4.0908971 -110.4951324 112.7426910
-5.2135019 -110.5323486 112.6854324
-8.5851879 -110.6741867 112.3233948
-9.7003059 -110.7254181 112.1539459
-10.8284073 -110.7858429 111.9651718
-11.9506283 -110.8461761 111.7465973
-13.0841656 -110.9140015 111.5051727
-14.2082119 -110.9839935 111.2263794
-15.3326492 -111.0646133 110.9150620
-16.4607239 -111.1456070 110.5763245
-38.4927444 -113.9832153 96.4016876
-39.7002563 -114.2448273 94.9822311
-40.9126892 -114.5262375 93.4313812
40.6013260 -112.3716888 87.8619461
11.6059856 -109.4085007 110.4434509
7.1085086 -109.3444519 111.5021515
5.9905672 -109.3392792 111.6943207
-4.0979643 -109.4903717 112.2730713
-5.2250175 -109.5289154 112.2083130
-6.3449464 -109.5676422 112.1102142
-7.4695673 -109.6125641 111.9892044
-8.5941181 -109.6623993 111.8446350
-9.7107506 -109.7187653 111.6818848
-38.5271797 -112.9765091 95.7419739
-39.7295532 -113.2381210 94.3049164
40.6370163 -111.4095459 86.9011383
11.5988979 -108.4093323 109.9355545
10.4872417 -108.3841400 110.2387009
9.3538303 -108.3655930 110.5182190
8.2334137 -108.3526993 110.7704315
7.1032972 -108.3465042 110.9976578
5.9856772 -108.3414001 111.1866608
-4.1037617 -108.4782028 111.7662430
-5.2299271 -108.5159607 111.7007217
-6.3541293 -108.5619431 111.6082764
-7.4833035 -108.6086655 111.4880142
-8.6058712 -108.6535797 111.3444748
-9.7180614 -108.7095642 111.1850128
-38.5520935 -111.9738922 95.0464020
-39.7651024 -112.2426910 93.5659637
40.6933250 -110.4619980 85.8058395
39.4367218 -110.1547470 87.9881592
38.1977005 -109.8701324 89.9587860
-38.5938110 -110.9817886 94.2658005
-39.8190689 -111.2529068 92.7337494
39.4691849 -109.2065964 86.9312439
38.2383575 -108.9146423 88.9428253
-38.6462517 -109.9964447 93.4176254
-39.8642921 -110.2684326 91.8637924
39.5235100 -108.2696915 85.7553482
38.2673302 -107.9720764 87.8825226
-36.2714806 -108.5223923 95.3383331
-37.4698906 -108.7577286 94.0111542
-38.6773758 -109.0133514 92.5554047
39.5959473 -107.3391113 84.4594345
38.3160248 -107.0401688 86.6918793
-36.3126945 -107.5409622 94.4745865
-37.4957962 -107.7800522 93.1300278
38.3664474 -106.1106796 85.4324493
37.1330109 -105.8283081 87.4829025
35.8944664 -105.5753937 89.3525620
-33.9624710 -106.1330948 96.0291901
-35.1342812 -106.3414154 94.8638535
-36.3513260 -106.5663910 93.5453033
-37.5495872 -106.8112488 92.1391449
37.1799088 -104.9010773 86.2257843
35.9365997 -104.6469879 88.1343613
-34.0124969 -105.1582336 95.0956192
-35.1862640 -105.3694229 93.8923798
-36.3958244 -105.6014099 92.5436478
-37.6075439 -105.8479767 91.0812683
35.9880447 -103.7184982 86.8484573
-34.0475616 -104.1900635 94.1258240
-35.2259140 -104.4055328 92.8803253
36.0489578 -102.7869568 85.5051651
-34.0835419 -103.2285080 93.0939102
-35.2721405 -103.4544144 91.7851563
34.8703918 -101.6585922 85.8679428
33.6383095 -101.4162750 87.7130585
-34.1374283 -102.2768250 91.9585037
-35.3242416 -102.5087967 90.5992432
34.9156990 -100.7614441 84.3291168
33.6801987 -100.5144730 86.2635956
-34.1823959 -101.3364410 90.7503433
-35.3951302 -101.5694199 89.3080063
34.9855995 -99.8712463 82.6291122
33.7312469 -99.6244583 84.6772156
32.5183868 -99.3852615 86.4934082
31.3095112 -99.1758270 88.1302872
-31.8458748 -99.9732666 92.0435257
-33.0324173 -100.1792297 90.8092651
-34.2487755 -100.4040527 89.4257050
33.8150406 -98.7271576 82.9363861
32.5485573 -98.5007324 84.9187622
31.3552246 -98.2748032 86.6183548
-31.8983898 -99.0377197 90.7702789
-33.0986824 -99.2509232 89.4577637
-34.3076286 -99.4790649 88.0183563
32.6132355 -97.6280670 83.1330338
31.3842030 -97.3967590 85.0037537
-29.5674496 -97.7223129 91.7910538
-30.7483444 -97.9088287 90.6584473
-31.9551048 -98.1146011 89.3837433
32.6972198 -96.7590408 81.1214294
31.4415207 -96.5249481 83.1624146
-29.6149540 -96.7944412 90.4330902
-30.8004436 -96.9945068 89.2239380
31.5041885 -95.6753616 81.1563034
30.2808266 -95.4518890 83.0692749
29.0931282 -95.2305603 84.7699203
-27.2931671 -95.5215149 91.1713638
-28.4813919 -95.6939926 90.1126556
-29.6882973 -95.8775024 88.9241333
-30.8528557 -96.0959778 87.6602554
30.3526115 -94.6074219 80.9508057
29.1425705 -94.3859253 82.8309021
-27.3491058 -94.6030426 89.6986847
-28.5454006 -94.7822571 88.5739899
-29.7328091 -94.9824371 87.3476791
-30.9287987 -95.1937637 85.9519806
29.2111244 -93.5476990 80.6345291
27.9631348 -93.3273621 82.5646744
26.7790260 -93.1215210 84.1765900
25.5844173 -92.9495087 85.6304932
24.4242172 -92.7995300 86.8919144
-25.0198650 -93.3707123 90.2077255
-26.2256374 -93.5242996 89.1839142
-27.4029789 -93.6987076 88.1155014
-28.6082916 -93.8862000 86.9033737
28.0516376 -92.4754257 80.2864227
26.8173294 -92.2769470 82.1321793
25.6117783 -92.0930939 83.6896820
24.4534302 -91.9219360 85.0465546
-25.0738888 -92.4643021 88.6100616
-26.2844353 -92.6292725 87.5208740
-27.4628658 -92.8109131 86.3695831
-28.6741734 -93.0048370 85.0549469
25.6711102 -91.2700806 81.5035706
24.4843102 -91.0829697 83.0479813
-25.1484261 -91.5718460 86.8277512
-26.3533382 -91.7473450 85.6554031
25.7317581 -90.4529266 79.0146027
24.5374966 -90.2634964 80.7331390
-25.2023907 -90.7055817 84.9107513
-26.4113693 -90.9006119 83.6371918
24.6349373 -89.4444351 78.0512543
23.3896980 -89.2752075 79.8593750
22.1908646 -89.0956345 81.4044952
21.0071888 -88.9389267 82.7441864
19.8374691 -88.8035889 83.9407043
-20.5399151 -89.2163239 86.9349060
-21.7234497 -89.3551559 86.0469818
-22.8904152 -89.5076447 85.0815735
-24.0983372 -89.6753845 83.9645691
-25.2750530 -89.8497620 82.7705002
21.0521660 -88.1233368 80.3116608
19.8662930 -87.9844131 81.6690445
-20.5960388 -88.3486023 84.9403381
-21.7931747 -88.4914246 83.9442215
-22.9705048 -88.6532593 82.8798065
-24.1774025 -88.8235931 81.6653366
21.1189365 -87.3361053 77.4729309
19.9083557 -87.1976013 79.0281067
18.7377319 -87.0469742 80.3826599
17.5413017 -86.9070740 81.6179352
-18.3078156 -87.2306671 84.5188141
-19.4837570 -87.3640594 83.6765289
-20.6659603 -87.5096664 82.7043533
18.7938194 -86.2562637 77.4970398
17.5798302 -86.1316376 78.9232101
-18.3678532 -86.3919449 82.1974564
-19.5420284 -86.5375748 81.2467346
-20.7251511 -86.7066422 80.1543503
17.6519413 -85.3541336 75.6648788
16.4493542 -85.2177124 77.1419144
15.2505751 -85.1034241 78.4192047
14.0924568 -84.9899750 79.5204697
12.9189930 -84.8844147 80.4906387
11.7470436 -84.7960968 81.3248520
10.5754709 -84.7225266 82.0711517
-13.7358942 -85.0968857 82.7830200
-14.8927822 -85.2030640 82.1325989
-16.0730095 -85.3237228 81.3792267
-17.2394466 -85.4629059 80.5357361
-18.4248619 -85.6031494 79.5541687
15.3222504 -84.3441391 75.0029678
14.1262321 -84.2475357 76.3466415
12.9439697 -84.1353302 77.5202026
11.7574368 -84.0313416 78.5023346
10.5913868 -83.9399261 79.3677063
-13.7742796 -84.2972412 80.1893082
-14.9423580 -84.4122009 79.4361038
-16.1424351 -84.5320129 78.5417709
11.8008022 -83.2762527 75.0661469
10.6178465 -83.2042007 76.1299973
9.4512701 -83.1176987 77.0541382
8.2819233 -83.0489883 77.8376923
7.1071773 -82.9853668 78.4863663
5.9484978 -82.9342651 79.0690384
4.7821455 -82.8911514 79.5685883
3.6423926 -82.8566666 79.9491196
-4.4870005 -82.9190674 80.6921158
-5.6548324 -82.9623566 80.5145416
-6.8068728 -83.0108948 80.2709503
-7.9764633 -83.0747223 79.9752197
-9.1460724 -83.1488953 79.5885849
-10.3033705 -83.2293015 79.1026764
-11.4820213 -83.3234253 78.5380707
-12.6540241 -83.4214706 77.8850632
-13.8550615 -83.5086365 77.0813751
8.3123894 -82.3003616 74.1754608
7.1192369 -82.2356339 75.0182419
5.9561272 -82.2026443 75.7004929
4.7891006 -82.1752853 76.3021088
3.6392407 -82.1274796 76.7754822
-4.5135641 -82.1661377 77.6485214
-5.6839285 -82.2127533 77.4405594
-6.8333039 -82.2715149 77.1816788
-8.0127745 -82.3331604 76.7889404
-9.1913376 -82.4064865 76.3202972
-10.3626499 -82.4762115 75.7435150
-11.5467472 -82.5628204 75.0329437
4.7989874 -81.4943771 72.0315170
3.6427612 -81.4672623 72.6942749
2.4683988 -81.4673309 73.2039795
1.3017088 -81.4325485 73.5667267
0.1283141 -81.4147186 73.8275757
-1.0441853 -81.4134903 74.0068817
-2.2004738 -81.4017181 74.0905609
-3.3783894 -81.4004974 74.0267181
-4.5381374 -81.4363098 73.8691177
-5.7231879 -81.4891052 73.5838623
-48.3691750 -66.1305542 -133.4671173
-49.8743896 -66.2547302 -134.9173889
-51.4085464 -66.4207535 -136.5711823
-46.8007736 -64.4293594 -130.4518890
-48.3014679 -64.5549698 -131.6427917
-49.7947235 -64.6669159 -132.9642639
-51.2869759 -64.7900238 -134.4372711
-52.8050919 -64.9519348 -136.0992889
-45.2351761 -62.7823715 -127.9430695
-46.7331581 -62.8743782 -128.8654785
-48.2219315 -62.9838371 -129.9707947
-52.6825523 -63.3254395 -134.0944214
8.9983015 -61.4952278 -139.7864838
7.5540886 -61.3698883 -137.5904236
-43.7398224 -61.1423225 -125.6932678
-45.1912613 -61.2445717 -126.5066147
-46.6696434 -61.3337097 -127.4426651
-48.1569214 -61.4333076 -128.4890442
-52.6108704 -61.7558136 -132.3338318
-54.1378746 -61.8951797 -133.9523315
-55.6741257 -62.0550232 -135.7451019
10.4230452 -60.0579948 -140.1008453
9.0016584 -59.9228783 -137.8351440
7.5384822 -59.8001823 -135.7972717
6.1179519 -59.6910248 -134.0265961
4.6794224 -59.6039124 -132.4240875
-42.2353821 -59.5764694 -123.7707520
-43.7009048 -59.6432304 -124.4875336
-45.1369858 -59.7181473 -125.2694626
-55.5760880 -60.4648094 -133.9518127
10.4261799 -58.4928055 -138.2291107
8.9911976 -58.3585548 -136.1256104
7.5288982 -58.2410049 -134.2161865
6.1065230 -58.1368027 -132.5424957
4.6530695 -58.0444679 -131.0169525
3.2476966 -57.9814606 -129.6880798
-40.7569542 -58.0018921 -122.0456161
-42.1882629 -58.0612259 -122.6746674
-43.6523743 -58.1274414 -123.3805618
-45.0946045 -58.2080460 -124.1577454
-55.4905739 -58.8981171 -132.3652496
11.8888044 -57.0878029 -138.8603973
4.6580048 -56.5482178 -129.8358459
3.2327528 -56.4688911 -128.5246277
1.8107791 -56.3958168 -127.3231964
-39.2695122 -56.4586143 -120.5388336
-55.4181023 -57.3554230 -130.9599915
-56.9602814 -57.4954910 -132.6402588
13.2990208 -55.6642494 -139.6695404
11.8473091 -55.5108833 -137.2547607
4.6305194 -55.0158501 -128.6898346
3.2400723 -54.9662361 -127.4754486
1.8156431 -54.9116592 -126.3380508
0.3860141 -54.8551636 -125.2642441
-39.2398453 -54.9629974 -119.6907043
-55.3622017 -55.8269234 -129.7019806
-56.8883286 -55.9539795 -131.3001251
-58.4090996 -56.0962791 -132.9969788
14.7541161 -54.2711945 -140.8243103
13.2840061 -54.1111336 -138.1518555
11.8427906 -53.9874535 -135.8862915
1.8076212 -53.4150162 -125.4082642
0.3897833 -53.3773651 -124.3841476
-37.7842712 -53.4404945 -118.4623260
-39.2004776 -53.4791565 -118.8979797
-58.3396149 -54.5550270 -131.7608795
-59.8842697 -54.6937180 -133.6240540
16.2153835 -52.8999557 -142.2105103
14.7246313 -52.7210312 -139.2708893
13.2718353 -52.5816956 -136.7832336
11.8220577 -52.4593582 -134.6346130
1.7905216 -51.9263954 -124.5527954
0.3761961 -51.8809280 -123.5608978
-37.7587471 -51.9644318 -117.7452698
-39.1841431 -52.0088768 -118.1800308
-58.2875175 -53.0360718 -130.6198425
-59.8090096 -53.1619186 -132.3797760
16.1784363 -51.3409157 -140.6419067
14.7178965 -51.1947784 -137.9203186
1.7934823 -50.4566231 -123.8040466
0.3847058 -50.4203796 -122.8488541
-1.0326878 -50.3842278 -121.9709702
-37.7460251 -50.5027466 -117.1134644
-39.1595192 -50.5403709 -117.5439606
-58.2250710 -51.5247650 -129.5772552
-59.7421455 -51.6386795 -131.2638550
-61.3051186 -51.7885056 -133.1893616
16.1727028 -49.8164253 -139.3046570
14.6886806 -49.6712799 -136.6980286
1.7887654 -48.9893303 -123.1164322
0.3665242 -48.9486923 -122.1675186
-1.0367596 -48.9162903 -121.3083649
-36.3022156 -49.0096054 -116.1577530
-37.7367325 -49.0541077 -116.5478592
-39.1515007 -49.0918961 -116.9722519
-58.1688652 -50.0244370 -128.6571198
-59.6930084 -50.1387329 -130.2959442
-61.2309456 -50.2630119 -132.1145630
-62.8369102 -50.4305000 -134.1404724
17.6210442 -48.4566536 -140.8983459
16.1532001 -48.3010521 -138.1386414
14.6836338 -48.1727562 -135.7026062
-1.0334258 -47.4576759 -120.7269287
