-2.7977543 -123.4940262 124.5295563
-3.9216962 -123.5435638 124.4169235
-5.0664039 -123.6015854 124.2724762
-6.1623387 -123.6657181 124.1062775
-34.4797668 -127.3433456 108.0933456
-35.7529144 -127.6780243 106.4535217
43.6375351 -125.7537689 99.5653458
42.3953171 -125.3773499 101.8001785
41.1467133 -125.0426178 103.8209076
10.4296827 -122.1573257 124.1109543
9.3117256 -122.1518402 124.3244476
4.8725877 -122.1817627 124.8502960
1.6149035 -122.2359695 124.9578476
0.4818399 -122.2722778 124.9412079
-0.6395574 -122.3057327 124.9004517
-1.7168546 -122.3501511 124.8361816
-2.8097901 -122.3912048 124.7546844
-3.9277270 -122.4388809 124.6499786
-34.4794044 -126.1564713 108.5954285
43.5888100 -124.5282135 100.2642975
42.3669777 -124.1769867 102.3982086
41.1251221 -123.8601608 104.3398743
10.4237843 -121.0532990 124.3116760
9.3014278 -121.0519485 124.5137939
4.8610125 -121.0628586 125.0558701
1.6083686 -121.1302567 125.1587219
0.4780542 -121.1611557 125.1499863
-0.6460494 -121.1972046 125.1120911
-1.7202387 -121.2403488 125.0453873
-2.8143866 -121.2797012 124.9655304
-3.9224708 -121.3287888 124.8615570
-34.4608154 -124.9708481 109.0791092
-35.7080727 -125.2761841 107.5808029
-36.8733101 -125.5767517 106.0739136
43.5631409 -123.3319855 100.8471985
12.6565180 -119.9828186 124.0218124
11.5492172 -119.9666595 124.2670441
10.4209929 -119.9608307 124.4806061
9.3041935 -119.9545822 124.6754837
8.2225895 -119.9509125 124.8426208
7.1246128 -119.9512024 124.9861755
6.0107694 -119.9542694 125.1221390
4.8745470 -119.9749756 125.2064819
3.7865334 -119.9907532 125.2671051
2.7045262 -120.0091705 125.3135300
1.5994129 -120.0355377 125.3325348
-2.8163304 -120.1832581 125.1522675
-3.9244566 -120.2253265 125.0445099
-5.0670166 -120.2834167 124.9026184
-6.1652594 -120.3427429 124.7432556
-34.4474030 -123.8011322 109.5023651
-35.6786880 -124.0961838 108.0161209
44.7511482 -122.5078964 99.1515427
43.5323792 -122.1414871 101.3866196
12.6523342 -118.8893890 124.1726837
11.5380993 -118.8748474 124.4175797
10.4157915 -118.8650665 124.6356049
9.2992458 -118.8595734 124.8302536
8.2160645 -118.8538284 125.0012360
7.1104560 -118.8583679 125.1525269
6.0067158 -118.8666763 125.2711182
4.8717127 -118.8822479 125.3530121
3.7870162 -118.8948898 125.4178696
2.6999807 -118.9147949 125.4630203
1.5903641 -118.9430466 125.4824219
-2.8254511 -119.0849686 125.3036575
-3.9342070 -119.1347351 125.1950073
-5.0631976 -119.1858292 125.0615540
-6.1594772 -119.2438126 124.9094620
-34.4367256 -122.6394958 109.8648911
-35.6566505 -122.9217072 108.4463882
44.7111664 -121.3138580 99.6925430
43.5081024 -120.9702911 101.8374023
14.8345032 -117.8476944 123.7302322
13.7427816 -117.8259735 124.0250702
12.6359968 -117.8020782 124.2951431
11.5291033 -117.7882690 124.5519409
9.2979937 -117.7741241 124.9681854
8.2129297 -117.7668304 125.1286240
3.7805364 -117.8124390 125.5439835
2.6950474 -117.8280487 125.5941391
1.5884148 -117.8511658 125.6189957
0.4735599 -117.8831253 125.6094360
-0.6392033 -117.9144745 125.5829544
-5.0706339 -118.0994568 125.2051697
-6.1526089 -118.1476059 125.0576477
-7.2495170 -118.2111740 124.8661194
-8.3626938 -118.2786102 124.6438522
-9.4859695 -118.3480148 124.4078064
-10.6092052 -118.4221344 124.1487274
-11.6954365 -118.4969482 123.8717270
-12.8092852 -118.5819702 123.5512161
-34.4318924 -121.4879303 110.1882629
-35.6631622 -121.7625732 108.8137665
-36.8450851 -122.0423584 107.3921204
45.9370155 -120.5384369 97.7344360
44.6902161 -120.1445313 100.1232529
43.4821701 -119.8111115 102.2186584
14.8350334 -116.7641678 123.8362732
13.7309017 -116.7431030 124.1239853
3.7766953 -116.7222824 125.6532288
-0.6451544 -116.8271942 125.6980972
-8.3830700 -117.2208481 124.7752609
-9.4962378 -117.2622833 124.5367126
-10.6056862 -117.3300552 124.2734985
-11.6993303 -117.4109955 123.9893112
-12.8142643 -117.4938889 123.6706696
-34.4152985 -120.3440094 110.4807281
-35.6489487 -120.6127243 109.1216583
-36.8273544 -120.8859329 107.7211304
-37.9953461 -121.1761932 106.2437439
44.6748352 -118.9897919 100.4769363
43.4763641 -118.6699524 102.5148773
19.2747326 -115.8220215 122.4449005
18.1871319 -115.7855148 122.8410492
17.0574951 -115.7670593 123.2180252
15.9561110 -115.7070770 123.5849380
14.8282490 -115.6816254 123.9213867
-0.6437218 -115.7523651 125.7630768
-12.8010988 -116.3992538 123.7760544
-36.8063545 -119.7341309 108.0196152
-37.9763756 -120.0163956 106.5624313
45.8728180 -118.2031174 98.5081024
44.6569786 -117.8437195 100.7775726
43.4355659 -117.5232544 102.8119965
19.2581081 -114.7445984 122.5173035
15.9499941 -114.6313019 123.6606293
-12.8106623 -115.3203659 123.8400116
-36.8011894 -118.5973434 108.2574768
-37.9652824 -118.8723907 106.8155289
-39.1785660 -119.1826324 105.2125244
45.8478889 -117.0567627 98.7938614
23.7514267 -113.8979111 120.5802612
22.6407375 -113.8336029 121.1190567
21.5152645 -113.7735596 121.6285934
20.3893566 -113.7199936 122.1052246
19.2666359 -113.6725769 122.5520401
-12.8271399 -114.2443466 123.8859253
-22.9012947 -115.1986847 119.7400360
-24.0335388 -115.3357468 119.0990906
-25.1978550 -115.4832306 118.4041901
-26.3193588 -115.6317444 117.6931305
-27.4392471 -115.7882843 116.9370575
-28.5827389 -115.9545517 116.1213226
-36.7924232 -117.4638062 108.4601288
-37.9458427 -117.7313690 107.0481949
-39.1534042 -118.0311356 105.4811401
45.8330154 -115.9231949 99.0115891
23.7449722 -112.8250504 120.5980225
22.6367149 -112.7628326 121.1360321
19.2693024 -112.6071320 122.5579681
18.1686459 -112.5616226 122.9788818
-22.9107094 -114.1152954 119.7797012
-24.0338345 -114.2477875 119.1522217
-27.4433079 -114.6934509 117.0086365
-28.5901966 -114.8595886 116.1903992
-36.7878189 -116.3402328 108.6170807
-37.9541779 -116.6065063 107.2075348
45.8332748 -114.8042603 99.1531982
23.7487411 -111.7599640 120.5827713
22.6259918 -111.6947021 121.1318817
19.2576294 -111.5389252 122.5505981
18.1598816 -111.5018082 122.9333801
-13.9391251 -112.1800537 123.5842896
-15.0610924 -112.2661514 123.2200165
-22.9124107 -113.0313873 119.8030319
-24.0299873 -113.1616440 119.1824493
-27.4540939 -113.6046219 117.0438232
-28.6024342 -113.7705154 116.2256241
-36.7866364 -115.2237854 108.7321091
-37.9451141 -115.4836502 107.3436661
-39.1534081 -115.7771988 105.7676620
-40.3960266 -116.1000519 104.0447006
45.8359146 -113.6937180 99.2514496
23.7453728 -110.6957550 120.5533447
22.6169014 -110.6296082 121.1065979
21.4992561 -110.5718307 121.6245346
-15.0694389 -111.1982956 123.2035599
-22.9097576 -111.9527283 119.8035812
-24.0382233 -112.0847778 119.1744843
-25.1959305 -112.2245636 118.4994202
-26.3327141 -112.3700256 117.7965851
-27.4522343 -112.5193253 117.0549011
-28.5949059 -112.6802826 116.2515182
-36.7805328 -114.1140442 108.8094177
-37.9474030 -114.3718414 107.4232025
-39.1478615 -114.6579742 105.8703918
45.8333588 -112.5917206 99.2929840
21.5037956 -109.5160751 121.5555725
-15.0675564 -110.1319427 123.1690369
-16.1779156 -110.2231216 122.7769470
-17.2845688 -110.3171692 122.3626099
-39.1543503 -113.5485535 105.9269714
45.8316498 -111.4979858 99.2777023
21.4960098 -108.4610214 121.4727325
20.3717937 -108.4094849 121.9526443
-16.1959972 -109.1637878 122.7062225
-17.2919693 -109.2554932 122.2929230
-39.1554184 -112.4430542 105.9490509
45.8307953 -110.4126740 99.2097549
21.4913845 -107.4103165 121.3683929
-16.1858025 -108.1026154 122.6210861
-17.3052063 -108.1967850 122.2045364
-39.1513786 -111.3449097 105.9304886
45.8236160 -109.3359375 99.0894318
21.4847431 -106.3609772 121.2486343
-15.0811329 -106.9607086 122.8903198
-16.1951809 -107.0482483 122.5079117
-17.3063202 -107.1403961 122.0948029
-39.1589661 -110.2564240 105.8532715
45.8012657 -108.2650452 98.9287796
23.7240410 -105.4288635 120.0608063
22.6027527 -105.3700562 120.5974045
21.4795647 -105.3176651 121.0936737
20.3637638 -105.2673035 121.5740051
-15.0869284 -105.9093475 122.7593613
-16.2051163 -105.9978561 122.3666611
-17.3225498 -106.0900879 121.9498444
-39.1719017 -109.1743851 105.7333679
-40.3974075 -109.4606094 104.1114731
47.1175156 -107.5756989 96.1438293
45.8121719 -107.2068405 98.6845474
23.7280045 -104.3880539 119.8791199
22.5950108 -104.3439026 120.3973312
21.4661674 -104.2923660 120.8813629
20.3565788 -104.2303085 121.3816376
-16.2103882 -104.9498596 122.2064667
-17.3268890 -105.0410156 121.7913895
-39.1790581 -108.0958710 105.5887985
-40.4096146 -108.3820038 103.9487000
45.8126945 -106.1506348 98.4271088
23.7252235 -103.3513031 119.6695786
-15.1060648 -103.8188934 122.4124756
-16.2185268 -103.9039841 122.0291443
-17.3339119 -103.9954224 121.6088181
-39.1857643 -107.0231018 105.4056625
-40.4036942 -107.3059692 103.7660522
45.8418007 -105.1074600 98.0716095
23.7253933 -102.3144608 119.4505386
-13.9838715 -102.6952820 122.5742340
-17.3471088 -102.9526367 121.4010849
-39.1877060 -105.9574890 105.1752930
45.8524666 -104.0634918 97.7179031
23.7245083 -101.2831116 119.1990738
22.6038342 -101.2243423 119.7392960
21.4776459 -101.1729736 120.2510834
20.3642197 -101.1263351 120.7158966
19.2438431 -101.0844727 121.1581345
-17.3456707 -101.9133072 121.1748962
-39.2192993 -104.9014130 104.8753967
45.8850365 -103.0324402 97.2629929
23.7297211 -100.2540283 118.9204483
22.5975571 -100.1961670 119.4714661
21.4767284 -100.1452332 119.9832535
20.3616486 -100.0994263 120.4485168
19.2451248 -100.0571442 120.8871155
-16.2380791 -100.7894440 121.3319855
-17.3589211 -100.8770828 120.9167938
-39.2423935 -103.8459320 104.5627594
45.8844948 -102.0100784 96.7732544
32.8189240 -99.9009781 112.7761154
31.6721916 -99.7918472 113.6755829
30.5347404 -99.6915054 114.5132294
29.3853149 -99.5986099 115.3075562
28.2551041 -99.5128326 116.0448761
27.0993862 -99.4327011 116.7609634
19.2506542 -99.0323792 120.5912399
-15.1383581 -99.6742554 121.4378281
-16.2538033 -99.7568665 121.0513992
-17.3718243 -99.8440857 120.6367111
-39.2616844 -102.7976227 104.2058258
-40.4852600 -103.0701370 102.5487366
45.9043655 -101.0007095 96.1586761
32.8313408 -98.8765793 112.4074326
31.6802483 -98.7685699 113.3173828
30.5336914 -98.6669006 114.1656647
29.3921757 -98.5745239 114.9585495
28.2622509 -98.4896393 115.7006836
27.1166935 -98.4088745 116.4170151
19.2349510 -98.0121613 120.2815094
18.1185150 -97.9664917 120.6866379
-15.1431923 -98.6443787 121.1406097
-16.2560997 -98.7261658 120.7569885
-17.3788452 -98.8130722 120.3393097
-39.2837753 -101.7545090 103.8013535
45.9256401 -99.9907227 95.5387802
44.6900864 -99.6781616 97.8572693
43.4578247 -99.3959122 99.9535217
32.8337212 -97.8565674 112.0161285
31.6882668 -97.7469788 112.9258194
28.2683544 -97.4674606 115.3365784
27.1162472 -97.3875809 116.0602875
19.2465878 -96.9873810 119.9438324
18.1332092 -96.9521484 120.3647690
17.0112362 -96.9161072 120.7600784
-15.1552095 -97.6181183 120.8134384
-36.9024811 -100.2221298 106.3558350
-38.1031761 -100.4602661 104.9156418
-39.3082581 -100.7149658 103.3605423
45.9504433 -98.9900360 94.8465042
44.7130966 -98.6752701 97.2114105
43.4841499 -98.3886414 99.3490982
32.8510094 -96.8390427 111.5758057
31.6983757 -96.7306137 112.5015106
28.2796135 -96.4486694 114.9410172
27.1229954 -96.3701019 115.6699142
19.2493935 -95.9719009 119.5832214
18.1294899 -95.9349670 120.0075073
12.5597496 -95.8114471 121.6988983
11.4556217 -95.7968140 121.9478149
-11.8134785 -96.3765869 121.4638901
-12.9372549 -96.4457397 121.1473083
-14.0439873 -96.5169144 120.8153076
-15.1706848 -96.5922699 120.4602661
-36.9430923 -99.1919937 105.8792343
-38.1347504 -99.4282990 104.4364624
44.7313118 -97.6763535 96.5181961
43.5097275 -97.3876648 98.6912994
32.8496246 -95.8263779 111.1185608
31.7029591 -95.7180176 112.0489120
30.5617008 -95.6155319 112.9239273
29.4126930 -95.5214386 113.7483749
19.2490788 -94.9560547 119.1952744
18.1376553 -94.9188614 119.6170959
13.6858406 -94.8106537 121.0299072
12.5616693 -94.7975922 121.3219070
11.4523201 -94.7806320 121.5701752
3.6977565 -94.7977295 122.6334991
-8.4882755 -95.1717834 121.8525848
-11.8175411 -95.3568802 121.0939484
-12.9446945 -95.4252777 120.7742615
-36.9483719 -98.1605988 105.4075165
-38.1494446 -98.3993683 103.9335175
-39.3801575 -98.6499252 102.3357315
44.7634430 -96.6864471 95.7392120
43.5258064 -96.3938904 97.9823990
32.8659515 -94.8171692 110.6150894
31.7123451 -94.7075348 111.5641479
30.5724163 -94.6043472 112.4363785
29.4278927 -94.5100479 113.2650909
19.2504635 -93.9468842 118.7798309
18.1463718 -93.9090729 119.2017212
17.0177307 -93.8727798 119.6071243
15.9096680 -93.8465958 119.9694748
14.7794285 -93.8219910 120.3101807
13.6799889 -93.8012085 120.6275635
12.5630064 -93.7832489 120.9141541
11.4506483 -93.7707138 121.1668015
10.3417196 -93.7609100 121.3952103
9.2308817 -93.7572250 121.5934067
8.1261253 -93.7566223 121.7724762
7.0173078 -93.7542191 121.9367218
3.6956055 -93.7850342 122.2366714
2.5802834 -93.7984924 122.2941589
-7.3886023 -94.1074524 121.6605835
-8.4999580 -94.1594009 121.4527435
-11.8438034 -94.3360519 120.6940765
-12.9514589 -94.4083862 120.3854904
-36.9815559 -97.1384201 104.8528748
-38.1774063 -97.3755035 103.3686676
44.8172798 -95.7034378 94.8620758
43.5532837 -95.4064636 97.1901550
8.1255178 -92.7444611 121.3515472
7.0102944 -92.7475128 121.5117035
5.9171114 -92.7512665 121.6375885
4.7908225 -92.7618713 121.7422562
3.6892884 -92.7748642 121.8186493
2.5754614 -92.7915039 121.8718948
1.4768564 -92.8095398 121.9096375
-6.2801728 -93.0447083 121.4132080
-7.3981848 -93.0914764 121.2353821
-8.5124016 -93.1415787 121.0244064
-9.6110764 -93.2012024 120.8059235
-10.7355127 -93.2618408 120.5567703
-37.0108185 -96.1217194 104.2579498
43.5840149 -94.4288940 96.3339539
8.1325912 -91.7394028 120.9117966
7.0109134 -91.7395859 121.0679626
5.9085298 -91.7443237 121.1992188
4.7945576 -91.7516251 121.3071518
3.6923306 -91.7659531 121.3841782
2.5658579 -91.7764435 121.4305420
1.4626837 -91.8025513 121.4631805
0.3622887 -91.8235703 121.4700089
-0.7443423 -91.8495941 121.4659424
-5.1888561 -91.9900208 121.1082230
-6.2868028 -92.0343018 120.9681015
-7.4007487 -92.0852966 120.7957230
-8.5172672 -92.1344910 120.5885696
-9.6286535 -92.1884613 120.3614120
-10.7462254 -92.2475967 120.1050797
-37.0344543 -95.1078949 103.6322250
-38.2650337 -95.3425293 102.0822601
44.9208298 -93.7707748 92.8326874
43.6138153 -93.4599533 95.3923264
42.3846207 -93.1793213 97.5783539
41.1778793 -92.9379578 99.4917450
5.9036922 -90.7391739 120.7447968
4.7872653 -90.7468643 120.8520813
0.3682774 -90.8142776 121.0086288
-0.7491462 -90.8415375 120.9903946
-1.8603611 -90.8706360 120.9452820
-2.9862447 -90.9012222 120.8668823
-4.0813141 -90.9413910 120.7646484
-5.1921749 -90.9825439 120.6417313
-6.2914624 -91.0251541 120.5004120
-34.6876450 -93.6668930 105.6976700
-35.8769913 -93.8736649 104.3786926
-37.0650787 -94.0978470 102.9522705
43.6688919 -92.4924011 94.3533478
42.4138947 -92.2108459 96.6350861
41.1992264 -91.9625702 98.6237564
5.9006486 -89.7334900 120.2504425
4.7795792 -89.7402115 120.3529205
0.3510538 -89.8100891 120.5198898
-0.7610602 -89.8400803 120.4968414
-1.8616884 -89.8665771 120.4478226
-2.9855673 -89.9048920 120.3769226
-4.0852394 -89.9380951 120.2745819
-5.1971312 -89.9763947 120.1512070
-6.3043456 -90.0176315 120.0068207
-34.7199516 -92.6604767 105.0206833
-35.9131775 -92.8706360 103.6711273
-37.1088409 -93.0965881 102.2059631
42.4622879 -91.2471008 95.6089630
41.2329903 -90.9933548 97.6734619
5.8946247 -88.7323227 119.7240143
4.7767348 -88.7425537 119.8289871
3.6801596 -88.7515640 119.9035110
2.5617721 -88.7670898 119.9672241
1.4532424 -88.7851334 120.0012054
0.3491248 -88.8083267 120.0017242
-34.7518425 -91.6590805 104.2921295
-35.9533539 -91.8712997 102.8951340
41.2615967 -90.0339584 96.6671829
5.8981342 -87.7314148 119.1791077
4.7778268 -87.7402649 119.2846832
3.6734171 -87.7520599 119.3648911
2.5531273 -87.7685394 119.4271393
1.4505750 -87.7873001 119.4586945
0.3462411 -87.8117676 119.4624634
-34.7807846 -90.6616287 103.5125656
-35.9940643 -90.8794708 102.0633392
-37.1994553 -91.1044464 100.5324478
42.5948029 -89.3414841 93.2255859
41.3085518 -89.0806885 95.5294800
40.0900955 -88.8389206 97.5231247
38.8958969 -88.6265106 99.2874069
-34.8163605 -89.6716461 102.6740646
-36.0282440 -89.8935318 101.1845093
41.3677483 -88.1286850 94.3178253
40.1247978 -87.8904266 96.4032745
38.9332352 -87.6699829 98.2382965
-34.8753242 -88.6865540 101.7421875
40.1809883 -86.9435806 95.1754608
38.9721146 -86.7227783 97.0851288
-32.5325928 -87.3083420 103.4960480
-33.7289429 -87.5003510 102.1821976
-34.9035721 -87.7079391 100.7881775
40.2526360 -85.9976578 93.8224106
39.0156403 -85.7823334 95.8210678
-32.5790100 -86.3302078 102.5338440
-33.7723312 -86.5272369 101.1811752
-34.9666252 -86.7361984 99.7214813
39.0652618 -84.8480377 94.4961319
37.8260307 -84.6275864 96.4542389
36.6301613 -84.4315491 98.1682129
-32.6134796 -85.3562851 101.5216827
-33.8257904 -85.5575409 100.0949554
37.8670502 -83.7001190 95.1019440
36.6903992 -83.4911728 96.8619461
-32.6592484 -84.3891373 100.4227371
-33.8797264 -84.5932617 98.9410858
37.9313354 -82.7742081 93.6056747
36.7131615 -82.5646667 95.5229874
-30.3464642 -83.0581284 101.8612900
-31.5481319 -83.2373734 100.5705795
-32.7103462 -83.4327545 99.2243576
-33.9311562 -83.6352081 97.6910477
36.7636185 -81.6459808 94.0194168
-30.3992271 -82.0971451 100.6862106
-31.5889835 -82.2815247 99.3084488
36.8601608 -80.7151642 92.3383255
35.5975113 -80.5254517 94.3137131
34.4169121 -80.3423538 96.0074539
-30.4334717 -81.1469574 99.4463654
35.6718941 -79.6037750 92.6358185
34.4682999 -79.4290390 94.4187698
-30.4873199 -80.2041397 98.0879364
34.5159683 -78.5327988 92.6875458
33.3079300 -78.3432770 94.4830627
32.1072655 -78.1694565 96.1104965
-28.1978569 -78.9014664 99.2700653
-29.3685780 -79.0759430 98.0157471
-30.5594959 -79.2595596 96.6142502
34.6129913 -77.6232986 90.7333527
33.3641624 -77.4427185 92.6913147
32.1556778 -77.2616196 94.4452362
-28.2449551 -77.9650192 97.8329773
-29.4324150 -78.1419449 96.4878845
33.4468918 -76.5378036 90.7209473
32.2024765 -76.3724747 92.6267090
-25.9482155 -76.7045593 98.7393875
-27.1111965 -76.8641052 97.5724564
-28.3106289 -77.0312042 96.2441864
32.2753601 -75.4756165 90.5925903
-25.9949989 -75.7766953 97.2003403
-27.1655960 -75.9414368 95.9501801
31.1400661 -74.4227905 90.2548752
29.9212971 -74.2673492 92.0180740
28.7495632 -74.1123886 93.5594711
27.5595207 -73.9676208 94.9672241
-23.7146645 -74.5525894 97.8158417
-24.8749161 -74.6985397 96.7247620
-26.0411415 -74.8690948 95.4886627
30.0076523 -73.3745728 89.7984772
28.8062820 -73.2366791 91.4833679
27.6027069 -73.0783920 93.0390015
-23.7667809 -73.6304398 96.1286621
-24.9161797 -73.7915878 94.9720230
28.8759727 -72.3725128 89.1414185
27.6534367 -72.2166901 90.9025192
26.4758224 -72.0663223 92.4236298
25.3002014 -71.9304352 93.7681808
-21.4764042 -72.4420624 96.5041580
-22.6304016 -72.5803452 95.4668579
-23.8224373 -72.7254410 94.2663727
27.7368584 -71.3327179 88.4575195
26.5325050 -71.1936417 90.1445694
25.3434601 -71.0631943 91.6320114
-21.5273056 -71.5335693 94.6148911
-22.6985130 -71.6763763 93.4788971
25.3938274 -70.2045212 89.2432404
24.2314014 -70.0751495 90.6814041
23.0439301 -69.9473114 92.0196609
21.8785477 -69.8349304 93.1883469
20.7234230 -69.7395935 94.2210236
19.5553169 -69.6576157 95.1933136
18.4141903 -69.5871429 96.0410233
-16.9145508 -70.1527252 96.4225311
-18.0828896 -70.2569733 95.5843353
-19.2404175 -70.3745575 94.6750565
-20.4020348 -70.5054703 93.6657791
-21.5915756 -70.6422272 92.5252609
24.2969608 -69.2233276 88.0722504
23.0876293 -69.1082153 89.5944061
21.9052982 -68.9845047 90.9098511
20.7452888 -68.8788300 92.0718231
19.5863495 -68.7830658 93.1517105
18.4425240 -68.6906891 94.0553055
-16.9680386 -69.2448730 94.4484177
-18.1294098 -69.3640594 93.5605011
-19.2988243 -69.4869308 92.5533905
-20.4697590 -69.6140900 91.4555283
23.1643429 -68.2546387 86.7550507
19.6217823 -67.9099426 90.8101959
18.4753475 -67.8176880 91.8410950
-14.6894598 -68.1471176 93.9695435
-15.8660593 -68.2491226 93.1488037
-17.0191555 -68.3636017 92.2671280
-18.1823368 -68.4845886 91.2906265
19.6706657 -67.0834045 88.0835724
18.5126076 -66.9802933 89.2932739
-14.7378330 -67.2719879 91.6936951
-15.9068127 -67.3827896 90.7857742
-17.0762901 -67.4994354 89.7988434
19.7344360 -66.2699051 84.8159637
18.5463104 -66.1913834 86.2790833
17.3498211 -66.0827789 87.5521393
16.1911888 -65.9842072 88.6134796
15.0306587 -65.8900757 89.5882874
13.8991032 -65.8161926 90.4152222
-10.1626396 -66.0416260 92.0506821
-11.3220673 -66.1225739 91.4415283
-12.4717016 -66.2132187 90.7516708
-13.6427546 -66.3145447 89.9606934
-14.7920513 -66.4207840 89.0773849
15.0710564 -65.0837097 86.5479965
13.9242191 -65.0105743 87.5668869
-10.2065229 -65.1878433 89.4396210
-11.3625927 -65.2804794 88.7350845
-12.5168447 -65.3691406 87.9397125
13.9714222 -64.2222443 84.0145493
12.7904329 -64.1533661 85.0846863
11.6373730 -64.0423737 85.9622345
10.4733200 -64.0183563 86.7697678
9.3251410 -63.9698105 87.4274597
8.1813946 -63.9309616 87.9820404
7.0061545 -63.8961487 88.4344940
5.8601775 -63.8749657 88.8126068
4.7083364 -63.8579178 89.1087265
-1.0269583 -63.9105988 89.5563278
-2.1670606 -63.9350891 89.4089661
-3.3210907 -63.9778061 89.2194061
-4.4666891 -64.0256882 88.9564667
-5.6308646 -64.0778122 88.6008606
-6.7638831 -64.1429901 88.2038727
-7.9262466 -64.2017212 87.6829453
-9.0877018 -64.2755814 87.0640106
-10.2569437 -64.3609161 86.3400955
10.5161047 -63.2233810 82.9247742
9.3486471 -63.1916046 83.8193817
8.1865749 -63.1686401 84.5143433
7.0288692 -63.1205521 85.0753326
5.8728790 -63.0974731 85.5160217
4.7153244 -63.0780983 85.8727264
-1.0377146 -63.1130447 86.4327774
-2.1830764 -63.1445541 86.2795639
-3.3476939 -63.1843109 86.0243988
-4.4940457 -63.2320213 85.6980438
-5.6580381 -63.2878418 85.2687683
5.9033971 -62.3320732 81.1498260
4.7371206 -62.3118858 81.6411819
3.5868149 -62.2884216 82.0736542
2.4190378 -62.2768555 82.3406830
1.2526429 -62.2845993 82.4264221
0.1049486 -62.2991295 82.4607773
-1.0556408 -62.3249626 82.3885498
-2.2045221 -62.3592415 82.2013474
-48.1094589 -46.9080467 -126.7781906
-49.6401672 -47.0498695 -128.4100647
-45.0686569 -45.1943703 -122.3387451
-46.5450668 -45.2651215 -123.5074081
-48.0197830 -45.3564911 -124.8517761
-49.5165024 -45.4606323 -126.3719711
-51.0628510 -45.6081200 -128.0598450
-43.5501709 -43.6016121 -119.7857056
-45.0020370 -43.6746864 -120.7928314
-46.4833755 -43.7514648 -121.9146423
-47.9517937 -43.8296547 -123.1476440
-49.4335747 -43.9202042 -124.5495911
-50.9249687 -44.0188293 -126.0955505
-52.4516716 -44.1458931 -127.8448029
11.7449837 -42.2088776 -131.3297424
-42.0273438 -42.0393257 -117.5693893
-43.4948578 -42.1073799 -118.4633636
-50.8576965 -42.4964638 -124.3939362
-52.3574409 -42.5923843 -126.0169067
14.6443243 -40.9218750 -134.4629822
13.1722927 -40.7758636 -131.7239380
11.7218113 -40.6658516 -129.4220581
10.2905178 -40.5832291 -127.4221878
-40.5525551 -40.4974823 -115.6536789
-41.9812851 -40.5501785 -116.3970490
-43.4441910 -40.6108437 -117.2490311
-50.7827148 -40.9800148 -122.8531189
-52.2937012 -41.0853424 -124.3754425
14.6053085 -39.3601303 -132.3583984
13.1598587 -39.2548485 -129.9002075
11.7332687 -39.1603584 -127.8036194
10.2786283 -39.0771065 -125.9128494
8.8781147 -39.0153961 -124.2943573
7.4415545 -38.9553299 -122.7758179
-39.0721130 -38.9760132 -113.9737167
-40.5128098 -39.0246964 -114.6063843
-50.7345390 -39.4823875 -121.5058289
-52.1931839 -39.5582008 -122.8806000
16.0349541 -37.9441299 -133.1647186
14.5753918 -37.8245621 -130.5030823
13.1460819 -37.7419662 -128.2845154
11.7145452 -37.6574669 -126.3175888
10.2721272 -37.5785522 -124.5456314
8.8537617 -37.5173798 -122.9945679
7.4131422 -37.4682236 -121.5720901
6.0020933 -37.4107132 -120.2780914
4.5824323 -37.3721733 -119.0744324
-37.6186981 -37.4732208 -112.4802856
-39.0380287 -37.5087738 -113.0177612
-40.4706917 -37.5508423 -113.6285095
-50.6655579 -37.9892120 -120.2612076
-52.1300621 -38.0606155 -121.5953293
-53.6496658 -38.1595268 -123.1288681
-55.1396103 -38.2510033 -124.7866440
17.4923363 -36.5639496 -134.2528992
16.0210419 -36.4271584 -131.4067078
6.0002146 -35.9455643 -119.2519913
4.5763845 -35.9037247 -118.0943451
3.1827912 -35.8799744 -117.0560226
-37.5889587 -36.0138206 -111.6090546
-53.5841141 -36.6624451 -121.8796234
-55.0803261 -36.7516403 -123.4827423
-56.6134415 -36.8581123 -125.2766190
17.4792862 -35.0535851 -132.4730530
16.0013371 -34.9232483 -129.8554382
5.9977908 -34.4807396 -118.2976303
4.5671406 -34.4407310 -117.1672440
3.1703224 -34.4126701 -116.1488113
-36.1342583 -34.5207405 -110.3420105
-37.5491028 -34.5551605 -110.8045425
-53.5340347 -35.1786232 -120.7529678
-55.0100288 -35.2595711 -122.2656860
-56.5445251 -35.3573914 -124.0131073
-58.0709496 -35.4680862 -125.8905487
17.4496536 -33.5457344 -130.9463196
15.9948816 -33.4382858 -128.5508575
3.1728044 -32.9628525 -115.3496094
1.7550657 -32.9336700 -114.4024353
-34.6978302 -33.0517578 -109.2366333
-36.1051445 -33.0734100 -109.6333618
-37.5314598 -33.1138077 -110.0966644
-56.4814758 -33.8665771 -122.8534851
-57.9848366 -33.9608536 -124.6598129
17.4004669 -32.0368614 -129.6222076
15.9707470 -31.9528351 -127.3647308
3.1560531 -31.5128117 -114.6118774
1.7493644 -31.4927158 -113.7163849
-34.6796608 -31.6094971 -108.5978317
-36.0986137 -31.6444016 -109.0009308
-37.5103378 -31.6737366 -109.4420471
-56.4422112 -32.3957825 -121.8473663
-57.9388847 -32.4775467 -123.5670547
-59.5031281 -32.5872536 -125.5290604
17.3978157 -30.5627594 -128.4942322
15.9525166 -30.4814644 -126.3153534
3.1641541 -30.0777054 -113.9637146
1.7347146 -30.0498371 -113.0745773
0.3377492 -30.0366745 -112.2652740
-33.2415352 -30.1448002 -107.6344910
-34.6622581 -30.1802921 -108.0122910
-59.4351387 -31.1002350 -124.4584656
20.2952671 -29.2787304 -132.6851501
18.8518105 -29.1803894 -129.9147491
17.3731670 -29.0884056 -127.4795532
15.9505825 -29.0180511 -125.4082947
3.1599269 -28.6424427 -113.3648529
1.7329679 -28.6135292 -112.4894562
0.3389386 -28.6078739 -111.6945496
-33.2275314 -28.7169800 -107.1082764
-34.6323509 -28.7440987 -107.4627991
-59.3620605 -29.6204681 -123.5103455
-60.9330673 -29.7291489 -125.5180206
20.2641411 -27.7928009 -131.5969086
18.8455448 -27.7131710 -128.9672089
0.3407056 -27.1697311 -111.1720657
-33.2112312 -27.2879677 -106.6323929
-34.6124535 -27.3136024 -106.9772034
-59.3299408 -28.1534500 -122.6904907
-60.8483353 -28.2419167 -124.5740204
20.2406769 -26.3226624 -130.5856934
18.8215714 -26.2478409 -128.0908203
0.3394488 -25.7485943 -110.7140503
-1.0502733 -25.7389832 -110.0031128
-31.7903957 -25.8445740 -105.9225311
-33.2207184 -25.8720531 -106.2169571
-34.6179390 -25.8977165 -106.5590820
-59.2959328 -26.6927242 -121.9551392
-60.8181725 -26.7772293 -123.8151398
21.7262020 -24.9619331 -132.6979065
20.2376060 -24.8652916 -129.7624817
18.8028526 -24.7930527 -127.3456268
0.3255562 -24.3211269 -110.2937164
-1.0775453 -24.3084068 -109.5898285
-2.4632156 -24.3035069 -108.9450073
-30.3991756 -24.4080467 -105.3138504
-31.7839298 -24.4272594 -105.5511169
-59.2595444 -25.2363377 -121.3078690
-60.7807083 -25.3140316 -123.1332703
-62.3628540 -25.4147034 -125.1712570
23.1815338 -23.6030045 -135.1048584
21.7038002 -23.4967213 -131.8610535
20.2375107 -23.4139385 -129.0719147
18.8089600 -23.3478165 -126.7311020
0.3501999 -22.9131432 -109.9553604
-1.0628463 -22.8970566 -109.2486343
-2.4752357 -22.8852425 -108.5940933
-28.9840775 -22.9716187 -104.7794037
-30.3876934 -22.9905853 -104.9867554
-31.7782402 -23.0160446 -105.2266235
-59.2345352 -23.7866611 -120.7510071
-60.7379646 -23.8575935 -122.5214996
-62.2896461 -23.9434357 -124.5328064
-63.8987427 -24.0493717 -126.7866058
21.6745796 -22.0381985 -131.1213837
-2.4855127 -21.4666405 -108.2779846
-3.8744426 -21.4611168 -107.6963272
-5.2695951 -21.4531918 -107.1676559
-6.6414337 -21.4512749 -106.6703949
-27.5886688 -21.5451660 -104.3329773
-28.9669743 -21.5579433 -104.5017014
-62.2635612 -22.4872093 -123.9906082
23.1498184 -20.6777573 -133.6109924
21.6978321 -20.5935516 -130.5991821
-2.4819522 -20.0577774 -108.0293274
-3.8653066 -20.0527992 -107.4556427
-5.2618952 -20.0488052 -106.9225998
-6.6538386 -20.0401726 -106.4183197
-8.0599461 -20.0349731 -105.9471664
-9.4328556 -20.0385361 -105.5427933
-23.3810654 -20.0922089 -103.8469391
-24.7667542 -20.1038857 -103.8885117
-26.1592560 -20.1152611 -103.9658051
-27.5731239 -20.1321316 -104.0974350
-28.9716072 -20.1555004 -104.2649155
-62.2438850 -21.0365314 -123.5110931
23.1454544 -19.2273731 -133.0512390
21.6638393 -19.1454506 -130.0950928
-8.0667324 -18.6290283 -105.7650299
-9.4408646 -18.6318359 -105.3752899
-10.8532419 -18.6315231 -105.0067902
-12.2369633 -18.6304588 -104.6947250
-13.6186886 -18.6395588 -104.4613037
-15.0200310 -18.6389408 -104.2364578
-20.5930862 -18.6659660 -103.6776123
-21.9810257 -18.6778793 -103.6654358
-23.3845673 -18.6883926 -103.6789780
-24.7825356 -18.6968994 -103.7084503
-26.1787872 -18.7142715 -103.7835159
-62.2192955 -19.5876064 -123.0986633
-63.7957649 -19.6690788 -125.2172546
23.1272717 -17.7805367 -132.6116028
21.6603374 -17.7066956 -129.7509155
-8.0643711 -17.2289963 -105.6165237
-9.4526787 -17.2227173 -105.2221146
-10.8478518 -17.2253876 -104.8561859
-12.2449961 -17.2220516 -104.5356445
-13.6150637 -17.2298641 -104.3020325
-15.0223703 -17.2361488 -104.0639572
-16.4022388 -17.2373810 -103.8438873
-17.8188362 -17.2522888 -103.7137909
-19.1795406 -17.2510452 -103.6077194
-20.5890598 -17.2589169 -103.5292053
-26.1844406 -17.3069344 -103.6321487
-62.1969376 -18.1427517 -122.7596817
-63.7664719 -18.2170429 -124.8752594
23.0976582 -16.3368473 -132.2885132
21.6710110 -16.2707253 -129.4856262
-16.4095955 -15.8384886 -103.7683105
-17.8178272 -15.8406734 -103.6177521
-19.1854649 -15.8541451 -103.5065308
-20.5926590 -15.8603468 -103.4149780
-26.1710529 -15.9032059 -103.5148697
-62.1995239 -16.7039375 -122.5421143
-63.7483444 -16.7734852 -124.6099243
24.6364326 -14.9819107 -135.5323639
23.0725307 -14.8952646 -132.0256500
21.6491337 -14.8344030 -129.2412109
-16.4124489 -14.4341440 -103.6757965
-17.8188305 -14.4447155 -103.5372467
-19.1887341 -14.4463606 -103.4123001
-20.5991974 -14.4582148 -103.3389511
-24.8046341 -14.4910765 -103.2904816
-26.1797829 -14.5026264 -103.4297485
-62.1791077 -15.2637615 -122.3658218
-63.7598114 -15.3312244 -124.4214325
24.6353989 -13.5391579 -135.3519592
23.0875206 -13.4620638 -131.9338837
21.6370163 -13.4023132 -129.1208191
-16.4122715 -13.0373449 -103.6371765
-21.9585419 -13.0674381 -103.2122803
-26.1775417 -13.1005478 -103.3890152
-27.5868587 -13.1138840 -103.5118484
-28.9720421 -13.1271763 -103.6675949
23.0897255 -12.0297737 -131.9229889
21.6269341 -11.9734669 -129.1013794
-16.4193287 -11.6390553 -103.6416550
-21.9655170 -11.6589813 -103.2161331
-26.1713581 -11.7001781 -103.3720856
-27.5761089 -11.7121239 -103.4871140
-28.9675560 -11.7265320 -103.6565323
24.6062202 -10.6623592 -135.3439331
23.0750237 -10.5993805 -131.9853973
21.6285286 -10.5467548 -129.1791687
-16.4274197 -10.2411604 -103.6856232
-17.8323231 -10.2474356 -103.5327911
-19.2035980 -10.2548037 -103.4162979
-20.6134834 -10.2621622 -103.3394775
-22.0021000 -10.2705622 -103.2985764
-23.4118118 -10.2810955 -103.3171310
-28.9859352 -10.3270426 -103.6984634
-65.3290329 -11.0774336 -126.5936813
24.6020012 -9.2307968 -135.5790253
23.0702705 -9.1719637 -132.1741028
21.6317425 -9.1218748 -129.3451538
-16.4291534 -8.8435907 -103.7542801
-17.8434410 -8.8510904 -103.6098022
-19.2038803 -8.8601198 -103.5034943
-20.6104050 -8.8652401 -103.4276733
-21.9932842 -8.8744526 -103.3863220
-23.3936081 -8.8837242 -103.3826294
-24.8026848 -8.8931732 -103.4324722
-26.1892242 -8.9027348 -103.4924469
-27.5751400 -8.9169483 -103.5873413
-28.9968967 -8.9271259 -103.7835159
-65.3327866 -9.6402149 -126.7284393
24.5744152 -7.8012629 -135.9462891
-19.2117901 -7.4609475 -103.6398010
-20.6233578 -7.4682937 -103.5569763
-22.0047836 -7.4796782 -103.4904633
-23.4201984 -7.4868507 -103.4948578
-24.8176613 -7.4952974 -103.5475540
-26.1914711 -7.5049877 -103.6023560
-62.2113152 -8.1025009 -122.5968094
-63.7808990 -8.1504364 -124.6687546
-19.2240906 -6.0682850 -103.7853317
-20.6436348 -6.0706105 -103.7098389
-22.0237846 -6.0802083 -103.6609192
-23.4253197 -6.0887723 -103.6641235
-24.8158340 -6.0993290 -103.6963959
-26.1945686 -6.1110401 -103.7690430
-62.2439117 -6.6740437 -122.8748093
-63.8050003 -6.7178373 -124.9367218
23.1013756 -4.8902063 -133.2613831
21.6294861 -4.8532362 -130.3320923
-19.2394695 -4.6720610 -103.9658813
-20.6387100 -4.6780810 -103.9005890
-26.2168159 -4.7121692 -103.9898224
-62.2580299 -5.2453938 -123.2032013
-63.8235703 -5.2871046 -125.3005676
23.1033134 -3.4649043 -133.8498993
21.6212406 -3.4314017 -130.8133850
-19.2468376 -3.2790837 -104.2032928
-20.6599712 -3.2774208 -104.1471252
-26.2213936 -3.3156228 -104.2324677
-62.2954330 -3.8174119 -123.6340027
21.6556568 -2.0037014 -131.4315796
-19.2587814 -1.8800689 -104.4997635
-20.6646347 -1.8867192 -104.4177399
-22.0547485 -1.8910728 -104.3755035
-23.4452610 -1.9054267 -104.3813934
-24.8566475 -1.9081163 -104.4279175
-26.2348709 -1.9184771 -104.5007858
-62.3227959 -2.3892314 -124.1149292
21.6622906 -0.5778790 -132.1306763
-19.2708359 -0.4886608 -104.8091888
-20.6800003 -0.4928919 -104.7205124
-22.0609798 -0.4976723 -104.6916580
-23.4745522 -0.5015654 -104.7018204
-24.8650932 -0.5088075 -104.7396851
-26.2465668 -0.5253353 -104.8082886
-62.3659172 -0.9589088 -124.6762848
21.6802750 0.8505796 -132.9758301
20.1377468 0.8571836 -130.1192017
18.7208252 0.8826701 -127.7259674
-5.3593469 0.9554430 -108.2205353
-6.7482009 0.9543194 -107.7233124
-8.1525497 0.9513797 -107.2519302
-9.5386543 0.9461606 -106.8242111
-59.3473091 0.5258490 -121.5218964
-60.8734589 0.4991279 -123.3399734
-62.4314651 0.4790265 -125.3371277
20.1620235 2.2793822 -131.0198212
18.7063274 2.2974596 -128.4877625
-5.3603115 2.3590391 -108.6513138
-6.7582994 2.3520775 -108.1367950
-8.1654510 2.3465393 -107.6625366
-9.5463839 2.3443785 -107.2540131
-59.3784485 1.9506011 -122.1783218
20.1777306 3.7097576 -131.9797668
18.7000771 3.7132685 -129.3629761
-2.5775912 3.7649364 -110.2981186
-3.9612262 3.7565749 -109.6870117
-5.3695388 3.7575190 -109.1118546
-9.5355473 3.7491868 -107.7395935
-56.4263535 3.4194496 -119.7016220
-57.9008904 3.3959861 -121.2022781
-59.4381561 3.3789253 -122.9295197
18.7293854 5.1435270 -130.3989868
-2.5889008 5.1593027 -110.8282623
-3.9780948 5.1582737 -110.2058182
-9.5506983 5.1469941 -108.2452621
-56.4631653 4.8402348 -120.4299240
-57.9485550 4.8212552 -121.9881592
18.7459393 6.5693817 -131.5138397
17.2524395 6.5666070 -129.0218201
15.8381519 6.5763111 -126.8852386
-2.6031647 6.5584660 -111.4119720
-3.9755878 6.5635576 -110.7970886
-5.3950176 6.5565028 -110.2051926
-6.7739205 6.5538459 -109.6912689
-8.1785698 6.5517211 -109.2221527
-9.5614023 6.5396061 -108.7922516
-56.5303917 6.2700038 -121.2821503
-58.0003357 6.2516842 -122.8658295
18.7711601 8.0087662 -132.8189087
17.2582664 7.9871960 -130.1900635
15.8496847 8.0016050 -127.9650803
-2.6095347 7.9650035 -112.0702820
-4.0016112 7.9635010 -111.4422379
-5.4104910 7.9613943 -110.8570633
-6.8019748 7.9566813 -110.3292236
-8.1974907 7.9531178 -109.8351288
-9.5816622 7.9382076 -109.3846664
-56.5626717 7.6925402 -122.1793823
-58.0716896 7.6835513 -123.8486252
17.2713737 9.4179430 -131.5183716
15.8397493 9.4189043 -129.1456604
-56.6449280 9.1243601 -123.2326660
-58.1340370 9.1144705 -124.9348755
17.2978191 10.8584423 -133.0236206
15.8405876 10.8411551 -130.4987335
-56.6964035 10.5560360 -124.3569336
-58.2114563 10.5555840 -126.1595154
15.8558893 12.2797480 -132.0534058
14.3966265 12.2674990 -129.6519012
12.9675436 12.2650471 -127.5720215
-53.7549133 12.0014076 -122.3282089
-55.2450256 11.9944715 -123.8686371
-56.7703476 11.9899740 -125.6226196
14.4113426 13.7001305 -131.2138824
12.9651337 13.6970387 -129.0034790
-53.8261337 13.4367628 -123.5609589
-55.3165817 13.4289999 -125.1774445
14.4315014 15.1421356 -133.0388031
12.9504585 15.1176329 -130.5808105
-50.9169998 14.8757591 -122.0189743
-52.3768463 14.8701191 -123.3580017
-53.8937378 14.8746634 -124.9208069
-55.3917809 14.8739538 -126.6380692
12.9686852 16.5594959 -132.4172211
-50.9801102 16.3126106 -123.3516235
-52.4521675 16.3101501 -124.7842712
-53.9650154 16.3073235 -126.4447784
13.0129251 18.0284882 -134.5764771
11.5332184 17.9892159 -132.0806732
10.1108952 17.9840832 -129.9754639
-51.0516663 17.7539120 -124.8366013
-52.5337982 17.7514305 -126.3858795
11.5809975 19.4743519 -134.2385101
10.1067467 19.4144249 -131.9219360
-51.1404343 19.2042427 -126.5198135
-52.6171112 19.1992722 -128.1582031
10.1086788 20.8726807 -134.2084503
8.6907005 20.8461914 -132.0448303
7.2369347 20.8304291 -130.0340271
-48.2348061 20.6313305 -125.3659210
-49.7286110 20.6417923 -126.8004608
-51.2403908 20.6551304 -128.4255981
8.7041855 22.3078499 -134.4752197
7.2206874 22.2666740 -132.2005768
-48.3330231 22.0940037 -127.2641449
-49.8309479 22.1002045 -128.8164520
-51.3554115 22.1240120 -130.6019287
7.2457485 23.7624817 -134.7226715
5.7967467 23.7228508 -132.6391907
4.3608203 23.6940231 -130.8164978
2.9714386 23.6821346 -129.2259827
1.5386186 23.6614666 -127.7900848
-42.5038834 23.5055504 -124.3051376
-43.9874306 23.5151310 -125.3721466
-45.4425621 23.5224800 -126.5299988
-46.9487953 23.5387402 -127.8926544
-48.4134865 23.5403767 -129.3674316
4.3568764 25.1525993 -133.2896271
2.9586790 25.1313000 -131.5163879
1.5273503 25.1157589 -129.9188690
-42.5979462 24.9615326 -126.2399445
-44.0906448 24.9810524 -127.4122620
-45.5396156 24.9828339 -128.6604156
-47.0562515 25.0059700 -130.1794434
4.3630733 26.6479168 -136.2078552
2.9408031 26.5948620 -134.1992188
1.5067748 26.5652084 -132.3772888
0.0733263 26.5565128 -130.8276215
-1.3386891 26.5526218 -129.5239868
-39.7464104 26.4089832 -126.3197937
-41.2317390 26.4254341 -127.3240433
-42.6822357 26.4312725 -128.4142914
-44.1724510 26.4517708 -129.6958771
2.9600706 28.1182137 -137.4196167
1.5069196 28.0547943 -135.3484192
0.0428677 28.0027962 -133.5074768
-1.3778281 27.9932117 -131.9722290
-39.8419304 27.8759270 -128.5659485
-41.3190384 27.8944550 -129.6691589
-42.7837944 27.9104691 -130.9117432
-44.2994003 27.9446926 -132.3930359
0.0490893 29.5239143 -136.8266907
-1.3832017 29.4731312 -135.0232697
-2.8045158 29.4447441 -133.4302979
-4.2107196 29.4309311 -132.0961304
-5.6502528 29.4107380 -130.9274902
-7.0526352 29.3923569 -129.9323730
-8.4866781 29.3742371 -129.0193787
-9.8773766 29.3700333 -128.2704010
-34.1277504 29.3172531 -127.6742249
-35.5541573 29.3136902 -128.3418274
-37.0164337 29.3302498 -129.1620636
-38.4853477 29.3435173 -130.0896912
-39.9487991 29.3564339 -131.1687927
-2.8273437 30.9495964 -136.8621216
-4.2344065 30.8951950 -135.2503052
-5.6810026 30.8770218 -133.8564758
-7.1058192 30.8629551 -132.7159882
-8.5227413 30.8595181 -131.7225494
-9.9177723 30.8419437 -130.8338470
-34.2098236 30.7954350 -130.2370605
-35.6664696 30.8091049 -131.0420837
-37.1324463 30.8310566 -131.9734955
-38.6014862 30.8486500 -133.0584259
-40.0625801 30.8687801 -134.3488770
-8.5712585 32.3457069 -134.9308319
-9.9546041 32.3223686 -133.8856812
-11.3825912 32.3116875 -133.0007324
-12.8168344 32.3115692 -132.3072510
-14.2353172 32.2887344 -131.6713715
-15.6559610 32.2836723 -131.1573181
-28.5099831 32.2516670 -130.8185883
-29.9376297 32.2561035 -131.2510986
-31.4018898 32.2701797 -131.8327179
-32.8313141 32.2698708 -132.4780273
-34.3142166 32.2880936 -133.3137817
-8.6166992 33.8426399 -138.9770508
-10.0182714 33.8219681 -137.7007294
-11.4365339 33.8039093 -136.5791473
-12.8708467 33.8045807 -135.7617035
-14.2877808 33.7602692 -134.9756165
-15.7183456 33.7714386 -134.3912354
-28.6080513 33.7419739 -134.0650635
-30.0416908 33.7574081 -134.6107483
-31.5085640 33.7742462 -135.3029633
-32.9493790 33.7895508 -136.0972900
-14.3519745 35.3651428 -139.3027649
-15.7849360 35.3153229 -138.5150146
-17.2051582 35.2680931 -137.9522400
-18.6551170 35.2669144 -137.4826355
-20.0738544 35.2623253 -137.1874695
-21.5161457 35.2591095 -137.0004730
-22.9268875 35.2593346 -136.9457397
-24.3696194 35.2447281 -137.0287476
-25.8249092 35.2836685 -137.3083496
-27.2655067 35.3267326 -137.6957245
-28.7176170 35.3365326 -138.2106476
7.1261554 -158.9487915 95.0913391
9.2758255 -158.0739746 96.2394028
8.7386265 -158.0007935 96.5661087
8.2056313 -157.9560699 96.7981033
7.6407981 -157.8928833 97.0317993
7.0600858 -157.8343506 97.2666626
-0.4579277 -158.0048981 97.7488937
-1.0085229 -158.0764313 97.6095200
-1.5541116 -158.1386261 97.4471283
-2.0998697 -158.2013245 97.2493515
-4.4282260 -158.5485382 95.9553146
13.8906775 -156.6630249 96.9583130
13.3472328 -156.5594177 97.3726425
12.7810936 -156.4522705 97.7926254
-6.1143303 -156.8308716 98.8457565
-6.6187768 -156.9678955 98.3768921
-7.1925607 -157.0154266 98.2405624
-8.3225422 -156.2819366 99.2680740
16.7431965 -155.2689514 97.8088608
16.1249199 -155.1057892 98.4549942
-8.2840776 -155.3317108 100.8084717
-8.8909044 -155.4669495 100.3903275
-9.5122185 -155.5980835 99.9215851
-10.1535692 -155.7645569 99.3511429
-10.7127409 -154.9420624 100.3707809
19.5319328 -154.0229034 98.0801468
18.9951572 -153.8987427 98.6416321
18.4401779 -153.7573853 99.2249680
-10.7016830 -154.0620728 101.7299652
20.6551037 -153.3706970 98.3050385
-10.6957359 -153.2502899 102.9934998
-13.4000492 -153.8319702 100.9766693
21.2533131 -152.6274414 99.0037155
20.6162395 -152.4496460 99.7806625
-10.6970148 -152.4632416 104.1387863
-11.2401285 -152.5488739 103.8067703
-11.7446594 -152.6480408 103.4606857
-12.2388306 -152.7217407 103.1258240
-12.7670727 -152.8158875 102.7388611
-13.3657122 -152.9658356 102.2504349
-13.9877872 -153.1293335 101.7214737
-14.6338387 -153.3011017 101.1436081
23.0847092 -152.2824860 97.9901657
23.0337086 -151.3880310 99.4047699
-15.2314205 -151.8267670 102.8555832
-15.8425884 -151.9786987 102.3162155
25.2017117 -151.1141510 97.8875656
26.4262505 -150.6711121 97.3048019
25.7523632 -150.4076843 98.4076080
25.1508312 -150.2167206 99.2899933
-17.3736000 -150.7266998 103.0688629
-17.9445515 -150.8929291 102.5162277
26.3807735 -149.7724152 98.7349701
26.9941044 -149.1535797 99.0381470
26.3501205 -148.9425812 99.9946365
-19.7133541 -149.7937012 102.7085953
3.1125550 -146.3312225 112.9443741
2.6020901 -146.3415527 112.9286499
0.7424448 -146.4296722 112.8963242
0.1212148 -146.4185791 112.8913803
-20.9672127 -149.3684082 102.2678223
28.7116489 -148.0432892 98.8106918
28.1516533 -147.8894043 99.6167679
27.5355968 -147.7037659 100.5123367
0.7203112 -145.7012634 113.5144882
0.0989699 -145.7746582 113.4585266
-20.8970985 -148.5945129 103.2169037
-21.4354877 -148.7746124 102.5182648
29.7868309 -147.5959778 98.2485352
10.8618717 -145.0265808 112.9477158
10.2117119 -145.0023651 113.2073517
9.6345501 -145.0017090 113.3435669
9.1077423 -144.9707947 113.4406052
5.1417255 -144.9299927 114.0685043
4.5506263 -144.9308319 114.1601028
1.3754344 -145.0178986 114.0664978
-21.9641418 -148.0848999 103.0964127
-22.5176067 -148.2679291 102.5144501
30.3037205 -146.9423523 98.5676575
29.7229309 -146.7471313 99.4622192
9.0977011 -144.3155060 113.9927139
5.1380877 -144.3017578 114.5912323
2.0554769 -144.3860168 114.5828934
1.4254788 -144.4095459 114.5910568
-21.9493122 -147.3324585 104.0097046
12.0933962 -143.7751770 113.5410461
7.6418514 -143.7100220 114.5904465
7.0843487 -143.6940765 114.6878662
-10.6124859 -144.6830139 112.5498810
-13.1191940 -144.9562073 111.6258087
30.8260212 -145.5427856 99.8320465
7.6390724 -143.0325928 115.0940247
7.0890779 -143.0765381 115.1488113
4.0501056 -143.0608215 115.6574936
3.5749798 -143.0798187 115.6460266
3.1010633 -143.0967255 115.6278152
2.6005132 -143.1046143 115.6164017
-10.6181641 -144.0213623 113.0863266
10.1762524 -142.3870850 115.3174438
8.6095819 -142.3767853 115.5166855
8.1773548 -142.4696808 115.4606247
7.7280846 -142.5158081 115.1708679
5.7497573 -142.4174805 115.9354706
-10.6199665 -143.3701019 113.6029434
-22.9571915 -145.4283752 105.4668427
12.0723648 -141.8456116 115.0147018
11.4746914 -141.8298798 115.2381973
10.8175611 -141.7810516 115.5193787
10.1724434 -141.7307892 115.7729111
8.6575699 -141.7568970 115.9458618
5.7267823 -141.7507324 116.4207306
-10.6090221 -142.7311554 114.0984802
-11.1032915 -142.7504120 113.9236755
-22.9254780 -144.7026825 106.2105789
-23.5197010 -144.8573151 105.6043091
-24.1436138 -145.0317230 104.9147186
-24.7771034 -145.2211609 104.1850204
32.1277466 -143.5552216 101.0630646
8.6635036 -141.1137848 116.3979874
5.7948980 -141.1312866 116.8607788
-3.5935049 -141.4604645 116.5987625
-4.2523026 -141.4918365 116.4367294
-11.5658569 -142.1359253 114.3268890
-25.4021015 -144.6738739 104.1787415
33.8515358 -143.5550842 98.6149673
33.2565956 -143.2617188 99.7551193
32.6625748 -143.1365814 100.6778030
32.0303001 -142.9796295 101.6450500
8.5966139 -140.4989929 116.8504868
5.7998252 -140.4947052 117.2971497
-1.3094326 -140.5678558 117.6345978
-4.2535067 -140.8653107 116.8629379
-11.5482016 -141.5004272 114.8020172
-12.0439873 -141.5475311 114.7055664
-12.5114670 -141.5598907 114.6280136
-13.1331625 -141.6204376 114.3522949
-25.3698444 -143.9655609 104.8969650
-25.9904041 -144.1623535 104.1408997
34.3666534 -142.9705200 98.6241302
9.5890779 -139.8316193 117.2166443
9.0785360 -139.8511505 117.2633591
8.5965853 -139.8869171 117.2820282
5.7909789 -139.8980255 117.6876221
-1.3561183 -140.0138397 117.8931046
-1.6304669 -139.9744110 118.2833328
-4.2523270 -140.2372131 117.2881165
-8.0061607 -140.4899902 116.5939789
-8.6251240 -140.5529938 116.3744888
-13.0919657 -141.0279388 114.7731628
-25.3352222 -143.2277374 105.6567230
-25.9570885 -143.4113464 104.9498520
-26.5102596 -143.5847473 104.2488327
34.8745346 -142.3788452 98.6510315
34.3046036 -142.1873169 99.6167679
9.5937471 -139.2339172 117.6161499
5.7867365 -139.2782288 118.0796738
-1.4365370 -139.4782715 118.1300659
-1.8802123 -139.4356384 118.1138840
-2.4169722 -139.4366913 118.0766068
-2.9865291 -139.5452271 117.9529572
-3.5811901 -139.5532074 117.8567352
-4.2397370 -139.6116180 117.7035065
-8.0099583 -139.8717651 117.0042496
-13.0746775 -140.3802185 115.2344818
-25.3133621 -142.5420532 106.3574982
34.2813301 -141.4603424 100.4897842
10.8041096 -138.6571808 117.5898895
10.1702127 -138.6291199 117.8190460
5.7867813 -138.6610107 118.4603043
-4.8991671 -139.0667114 117.9447021
-7.4574490 -139.2154999 117.5785065
-8.0021219 -139.2384491 117.4213715
-13.0564671 -139.7364349 115.6843567
-25.2767029 -141.8377533 107.0514069
-27.5594177 -142.3930054 104.4612122
34.8025780 -140.9026489 100.4767151
34.2308617 -140.7318726 101.3567352
10.8081875 -138.0544128 117.9467087
5.7893186 -138.0389404 118.8318253
-4.8785686 -138.4306641 118.3395386
-13.0379257 -139.0957642 116.1085510
-25.2566204 -141.1680298 107.6673660
-25.8621960 -141.3090515 107.0351486
-26.4209156 -141.4502716 106.4239578
-26.9751205 -141.5872650 105.7965317
-27.5492172 -141.7538910 105.1367035
-28.1341419 -141.9329529 104.4710617
35.3628769 -140.3712769 100.3551636
10.7909393 -137.4465485 118.2982483
5.7824373 -137.4241180 119.1788864
-27.5217400 -141.0660553 105.8198242
35.9476280 -139.8565674 100.1438904
35.2993317 -139.6380310 101.1933746
10.7828007 -136.8352661 118.6459961
6.4291663 -136.8612061 119.3789139
5.7741251 -136.8235931 119.5010529
-5.9988408 -137.2844696 118.7919540
-27.4798813 -140.3714142 106.4875412
-28.0756950 -140.5432892 105.8425293
36.5839233 -139.3284454 99.8463974
-5.9674487 -136.6717529 119.1419830
-28.6572819 -140.0387573 105.7648315
36.5274544 -138.6400757 100.5950546
9.5615797 -135.6036224 119.7316132
-6.0110893 -136.1192017 119.4487152
-7.9137311 -135.9311676 120.4731903
-28.6097355 -139.3515320 106.3664093
-29.2318211 -139.5329590 105.6757813
9.5700788 -134.9826813 120.0257874
-6.9313946 -135.5089111 119.7437286
-7.4526777 -135.5095215 119.6693268
-8.0266352 -135.5381317 119.5251007
-8.6456585 -135.5984955 119.3541031
-28.5946503 -138.6786804 106.9213715
37.7928963 -137.7099304 99.7680130
9.5714331 -134.3991394 120.2851639
9.0428801 -134.4113617 120.3626556
8.5489130 -134.4223633 120.3877029
8.0724373 -134.4657593 120.3891373
7.5482140 -134.4490051 120.4299240
6.9958735 -134.4518890 120.4936371
-6.9365821 -134.9124298 120.0044327
-7.4629478 -134.9619598 119.9071960
-8.0256758 -135.0051880 119.7825012
-8.5978613 -135.0345306 119.6239853
-28.5614624 -138.0100555 107.4705276
