48.1567612 -90.6019516 107.4914780
46.9250870 -90.3332367 109.6412201
25.0991249 -88.1150818 129.1615906
-15.5143566 -88.7937622 130.3632507
48.1534958 -89.5383606 107.3494949
46.9315491 -89.2739258 109.4874573
25.0965652 -87.0780716 129.0250244
-15.5162239 -87.7497101 130.2359619
48.1665611 -88.4856110 107.1212311
46.9416924 -88.2227325 109.2703705
25.0976925 -86.0453033 128.8520966
-13.3097744 -86.5545197 130.9005432
-14.4082918 -86.6290741 130.5113983
-15.5183830 -86.7082977 130.0888062
-37.1199722 -89.3489456 113.6639404
-38.3453217 -89.5995102 111.9751511
48.1754150 -87.4387817 106.8443146
46.9458542 -87.1774902 109.0063324
25.0989456 -85.0150681 128.6615143
23.9900074 -84.9705353 129.1628723
22.9007092 -84.9336243 129.5993958
-13.3068619 -85.5170212 130.7326508
-14.4160175 -85.5912476 130.3395081
-15.5258636 -85.6693039 129.9202576
-37.1319275 -88.2851028 113.4761047
-38.3487625 -88.5326157 111.7874451
48.1978340 -86.3985901 106.5035858
46.9511147 -86.1370316 108.6944580
25.0974941 -83.9859619 128.4509125
23.9836102 -83.9418793 128.9561157
-13.3217373 -84.4828644 130.5364838
-37.1481628 -87.2253571 113.2493286
48.2152519 -85.3604355 106.1376801
46.9557114 -85.1011581 108.3464966
25.1042919 -82.9594727 128.2200470
23.9848461 -82.9151611 128.7344055
-12.2286768 -83.3792648 130.6993713
-13.3234463 -83.4498901 130.3278198
-37.1667290 -86.1719360 112.9738998
48.2214050 -84.3287354 105.7242203
46.9763641 -84.0719604 107.9287491
25.0964699 -81.9351730 127.9723969
23.9840622 -81.8921280 128.4804382
22.9019699 -81.8439102 128.9525604
-12.2303267 -82.3504333 130.4657440
-13.3417416 -82.4197159 130.0891113
-37.1837997 -85.1236191 112.6548309
48.2330322 -83.3029480 105.2515488
46.9985733 -83.0463181 107.4769287
25.1062622 -80.9139404 127.6840286
23.9928589 -80.8705139 128.1949768
22.8894806 -80.8302536 128.6790009
-11.1303215 -81.2575989 130.5521698
-12.2471724 -81.3244247 130.1955719
-13.3508720 -81.3926468 129.8294525
-37.1975021 -84.0770721 112.3113098
47.0113831 -82.0258331 106.9927368
22.8879623 -79.8132172 128.3738403
21.7798519 -79.7769012 128.8229523
20.6808968 -79.7453003 129.2353516
19.5557766 -79.7177963 129.6438293
-11.1484356 -80.2339325 130.2543793
-34.8511734 -82.6140213 114.9170227
-36.0548973 -82.8217926 113.4445038
-37.2315674 -83.0342407 111.9158096
47.0366173 -81.0108261 106.4205551
22.8886337 -78.7951202 128.0548096
21.7739964 -78.7607346 128.5103302
20.6806164 -78.7288971 128.9260864
19.5682602 -78.6994858 129.3285522
-10.0657139 -79.1516037 130.2706757
-11.1495132 -79.2126312 129.9547424
-34.8703003 -81.5790100 114.5056915
47.0630112 -80.0014877 105.8012772
45.8192215 -79.7656479 107.9280014
44.6169815 -79.5575562 109.8077850
20.6755199 -77.7146683 128.5909576
19.5562935 -77.6894226 128.9923706
-8.9514618 -78.0743790 130.2420044
-34.8989410 -80.5466690 114.0554047
47.0962486 -78.9972839 105.1055298
45.8416481 -78.7618103 107.2882767
44.6419144 -78.5488892 109.2009048
20.6798344 -76.7012863 128.2148590
19.5694332 -76.6715240 128.6181488
6.3766165 -76.6086426 131.2533569
5.2889595 -76.6136551 131.3366547
-6.7618589 -76.9566498 130.3779449
-7.8743486 -77.0071335 130.1372223
-8.9680271 -77.0611877 129.8796844
-34.9205360 -79.5177002 113.5674057
-36.1209831 -79.7249603 112.0457764
-37.2932701 -79.9431686 110.4214020
45.8611832 -77.7611923 106.6006851
44.6606750 -77.5456238 108.5575943
20.6797676 -75.6932297 127.8168030
19.5652142 -75.6659851 128.2258301
15.1566505 -75.5923462 129.5379944
14.0469055 -75.5820160 129.7887421
6.3800335 -75.5935287 130.9006653
5.2871943 -75.6052246 130.9667816
1.9854163 -75.6577530 130.9979858
-5.6810179 -75.8984451 130.2070313
-6.7703743 -75.9450836 129.9979706
-16.7166595 -76.5065765 126.8409805
-17.8365211 -76.5883484 126.3326721
-18.9474239 -76.6718750 125.7932739
-20.0781689 -76.7616119 125.2072983
-34.9571609 -78.4970474 113.0044022
-36.1540222 -78.7002792 111.4781952
45.9052887 -76.7683868 105.8120270
44.6823349 -76.5494156 107.8451843
20.6872101 -74.6829834 127.3938751
19.5621834 -74.6589203 127.8078156
18.4688072 -74.6344147 128.1659088
16.2566605 -74.5965576 128.8401794
15.1668339 -74.5806503 129.1312103
14.0545959 -74.5743866 129.3881378
12.9582920 -74.5661316 129.6177521
11.8564320 -74.5601196 129.8414764
7.4762278 -74.5713806 130.4326324
6.3716140 -74.5790100 130.5056000
5.2818298 -74.5960846 130.5661469
4.1721859 -74.6091156 130.6075897
3.0892425 -74.6307678 130.6210632
1.9891789 -74.6533203 130.6011047
0.9066082 -74.6733704 130.5585175
-0.1978454 -74.7050171 130.5010376
-1.2924347 -74.7320633 130.4147186
-2.3977172 -74.7667999 130.2983704
-3.4942012 -74.8028412 130.1651764
-4.5890622 -74.8425598 129.9947052
-5.6961565 -74.8862991 129.8042297
-6.7816887 -74.9317169 129.6015320
-16.7351456 -75.4889603 126.4213867
-17.8559952 -75.5697861 125.9045868
-18.9563046 -75.6566086 125.3617630
-20.0943756 -75.7448654 124.7676849
-34.9689407 -77.4757309 112.4422379
45.9508514 -75.7772980 104.9566345
44.7103043 -75.5590286 107.0582962
18.4671345 -73.6288910 127.7431793
17.3598366 -73.6072235 128.0960083
16.2630157 -73.5879822 128.4175873
15.1592712 -73.5724030 128.7048645
11.8493710 -73.5521545 129.4124603
10.7603798 -73.5508652 129.6031494
7.4627738 -73.5625076 130.0156403
6.3687220 -73.5719833 130.0870819
-14.5251827 -74.3275528 126.8899841
-18.9733009 -74.6420822 124.9077454
-20.1094742 -74.7295837 124.3087921
-32.6539650 -76.0956421 114.5652847
-33.8246460 -76.2714005 113.2401581
-35.0009460 -76.4605713 111.8020706
45.9990768 -74.7904968 104.0655060
44.7502861 -74.5740509 106.1917953
18.4791985 -72.6199417 127.2650757
17.3679390 -72.6004181 127.6295395
16.2617092 -72.5861359 127.9601746
15.1653118 -72.5663757 128.2443237
11.8567886 -72.5426178 128.9563293
10.7595968 -72.5490189 129.1565704
9.6569004 -72.5423965 129.3227539
8.5689230 -72.5510788 129.4627075
7.4668007 -72.5570908 129.5670776
6.3711576 -72.5664291 129.6476746
-14.5401564 -73.3172607 126.4206924
-15.6662493 -73.3881683 125.9699097
-16.7658863 -73.4625854 125.4914627
-17.8908443 -73.5416336 124.9659729
-18.9871387 -73.6292572 124.4226379
-20.1256752 -73.7158661 123.8158112
-32.6873360 -75.0818787 113.9260406
-33.8654022 -75.2578506 112.5690384
-35.0234680 -75.4498291 111.1152191
44.7798767 -73.5952759 105.2642288
43.5765076 -73.3892212 107.2546768
42.3679314 -73.2028809 109.0596085
-32.7033615 -74.0717926 113.2655029
-33.8950043 -74.2505875 111.8749313
44.8329391 -72.6201401 104.2340317
43.6105270 -72.4118500 106.3175049
42.4052505 -72.2213593 108.1832428
-32.7481155 -73.0653992 112.5214386
-33.9325294 -73.2447968 111.1086273
43.6504745 -71.4396362 105.2940598
42.4340515 -71.2437286 107.2402496
-32.7764740 -72.0649796 111.7404251
-33.9820023 -72.2429047 110.2691116
43.6995659 -70.4748459 104.1621704
42.4666252 -70.2741089 106.2108994
-32.8171196 -71.0681458 110.8901138
43.7727089 -69.5070953 102.9177399
42.5140305 -69.3094482 105.0761719
-30.5119362 -69.7393417 112.6883087
-31.6825733 -69.9011993 111.3898621
-32.8616104 -70.0703049 109.9881744
42.5495682 -68.3550262 103.8829041
-30.5493717 -68.7481232 111.8020782
-31.7210960 -68.9104309 110.4655838
42.6390228 -67.3888702 102.5153503
41.3978004 -67.2061920 104.5920715
40.1883926 -67.0286560 106.4612732
-28.2596664 -67.4637833 113.2777481
-29.4177322 -67.6044998 112.1188965
-30.5910873 -67.7583771 110.8465118
-31.7632751 -67.9227753 109.4721985
41.4516106 -66.2592545 103.2391052
40.2267189 -66.0736160 105.2268829
-28.3065453 -66.4729462 112.3196945
-29.4518414 -66.6182709 111.1459732
-30.6385212 -66.7733078 109.8158722
41.5288315 -65.3143005 101.7409210
40.2886543 -65.1286011 103.8437195
39.1042938 -64.9597168 105.6368103
37.9106064 -64.8069992 107.2808838
-28.3441448 -65.4900360 111.3177032
-29.4966698 -65.6345062 110.0908508
40.3489914 -64.1788177 102.3738174
39.1490822 -64.0144272 104.2645798
37.9464874 -63.8543854 106.0186310
-28.3924503 -64.5104370 110.2306213
-29.5419579 -64.6609039 108.9522018
39.2084007 -63.0725555 102.7529831
37.9930267 -62.9118385 104.6272736
-28.4404907 -63.5332069 109.0561218
-29.5955448 -63.6864548 107.7207642
39.3003502 -62.1195259 101.0708237
38.0615768 -61.9653893 103.0591888
-28.4806919 -62.5643616 107.8074875
-29.6369247 -62.7170296 106.4249954
38.1504211 -61.0145416 101.3686676
36.9009628 -60.8778954 103.2937927
35.7154121 -60.7363167 104.9714661
-26.1899052 -61.3101006 109.0666885
-27.3472042 -61.4506149 107.8327484
-28.5344868 -61.5980988 106.4467316
36.9797134 -59.9343681 101.5696411
35.7638245 -59.7991714 103.3606567
-26.2387733 -60.3476105 107.7243500
-27.3985939 -60.4945030 106.4237137
-28.5898151 -60.6394691 104.9676208
35.8316574 -58.8630562 101.5893860
34.6328087 -58.7318153 103.3173523
33.4682503 -58.6031113 104.8475723
-23.9601154 -59.1233978 108.6991425
-25.1150551 -59.2504845 107.5419769
-26.2763977 -59.3898582 106.2345276
34.6946259 -57.7976532 101.5113220
33.5116348 -57.6755524 103.1490860
-24.0178108 -58.1650658 107.2515106
-25.1561470 -58.3022041 106.0491028
33.5769577 -56.7468567 101.2605972
32.3692894 -56.6249733 102.9097214
31.2069588 -56.5046120 104.3587799
-24.0592766 -57.2122231 105.6966400
-25.2075214 -57.3541374 104.3976135
33.6804962 -55.8116646 99.0990143
32.4250069 -55.7073975 100.9550171
31.2568817 -55.5789032 102.5242538
-24.1179352 -56.2642670 103.9841003
32.5248146 -54.7780685 98.7380447
31.3079529 -54.6739578 100.4909363
-19.5172501 -54.8497429 106.8696747
-20.6853867 -54.9552116 105.8236847
-21.8295231 -55.0769844 104.7156830
-22.9992390 -55.1949806 103.4758682
31.3934994 -53.7535858 98.1597443
-19.5585423 -53.9065819 105.1776962
-20.7288933 -54.0105972 104.0216980
30.2833538 -52.7230568 97.3856659
29.0867653 -52.6328316 99.0908813
27.8972244 -52.5200691 100.6407700
26.7297745 -52.4100266 101.9963913
-17.3087101 -52.7603722 105.3285751
-18.4705505 -52.8606148 104.3460312
-19.6186886 -52.9661636 103.2627869
-20.7925606 -53.0764542 102.0471954
27.9711914 -51.6300011 98.1889877
26.7801437 -51.5165405 99.7365189
-17.3592892 -51.8241119 103.3924332
-18.5196571 -51.9263382 102.3223419
26.8560925 -50.6121597 97.1153870
25.6741867 -50.5235863 98.6316376
24.5032024 -50.4291153 99.9806290
23.3548641 -50.3410339 101.1674881
22.1930618 -50.2653389 102.2282257
-12.8169756 -50.5392570 104.8681641
-13.9628658 -50.6164017 104.0989761
-15.1029100 -50.7064781 103.2605591
-16.2569752 -50.7961731 102.2924805
-17.4160099 -50.8908920 101.2413559
25.7615414 -49.6181526 95.7700577
24.5644188 -49.5368843 97.3363724
23.4045410 -49.4551315 98.6977310
22.2355385 -49.3688698 99.8927917
-12.8742800 -49.6041489 102.7952805
-14.0095196 -49.6902771 101.9681931
-15.1521482 -49.7817459 101.0450745
23.4898148 -48.5458984 95.7705765
22.2908230 -48.4915771 97.1787109
21.1351089 -48.4059830 98.3849411
19.9689198 -48.3343735 99.4944534
18.8354282 -48.2699318 100.4546661
17.6848297 -48.2149963 101.3036728
-8.3348351 -48.4052124 103.3535156
-9.4682980 -48.4616814 102.7571182
-10.6129351 -48.5312119 102.0942764
-11.7419786 -48.6155624 101.3830261
-12.9038343 -48.6957283 100.5206070
-14.0578089 -48.7762451 99.5798416
21.1942749 -47.5032654 95.3824539
20.0139141 -47.4605064 96.6718826
18.8742962 -47.3850479 97.7824249
17.7169628 -47.3280716 98.7694244
-8.3775854 -47.4836731 101.0700302
-9.5005674 -47.5536995 100.4282913
-10.6502762 -47.6269493 99.6641006
-11.8016624 -47.7064705 98.8211441
17.7606258 -46.4529114 95.7581024
16.5915089 -46.3991737 96.7456207
15.4424152 -46.3489075 97.6375580
14.3086443 -46.2988586 98.4219589
13.1781588 -46.2569885 99.0767288
12.0145969 -46.2259750 99.6494370
10.8834858 -46.1942329 100.0930023
-3.8505630 -46.3529816 100.5406265
-4.9781361 -46.4075623 100.1578217
-6.1238403 -46.4579277 99.6671982
-7.2528324 -46.5160217 99.1085129
-8.4107151 -46.5837212 98.4331894
-9.5432110 -46.6598587 97.6867294
15.5081272 -45.4460182 94.2847443
14.3520241 -45.4104805 95.2350540
13.2105618 -45.3964462 96.0427399
12.0426474 -45.3604813 96.7099838
10.9048786 -45.3252411 97.2774048
-3.8671541 -45.4712524 97.8111877
-5.0027161 -45.5261536 97.3379974
-6.1394944 -45.5858459 96.7782898
12.0917740 -44.4792099 93.0475311
10.9398699 -44.4790115 93.7925720
9.7812777 -44.4653854 94.3988647
8.6519032 -44.4450951 94.9183655
7.5061860 -44.4182701 95.2956390
6.3651371 -44.4113617 95.5753403
5.2305694 -44.4195709 95.7985382
4.0864811 -44.4142456 95.9384689
0.6785614 -44.4646950 95.8307419
-0.4765809 -44.4899750 95.6046677
-1.6044083 -44.5287704 95.3460693
-2.7450886 -44.5645638 94.9571762
-3.8984008 -44.5953445 94.4595642
-5.0401907 -44.6316414 93.8689728
8.6921177 -43.5995979 90.5468292
4.0948477 -43.5450859 91.9897461
0.6729275 -43.5951843 91.7940063
-0.4784464 -43.6270828 91.5592346
-47.2313080 -29.4615231 -121.8240509
-47.1040802 -27.9097004 -119.5525513
-48.6178284 -28.0227146 -121.2746048
-45.5389481 -26.3504982 -116.1712875
-47.0186996 -26.4117889 -117.6119080
-48.5019188 -26.4857483 -119.2105255
-50.0596848 -26.6045532 -121.0406647
-44.0304260 -24.8233414 -113.3719330
-45.4695091 -24.8727379 -114.5507507
-46.9600296 -24.9382191 -115.9092102
-48.4167099 -24.9917698 -117.3646469
-49.9371872 -25.0689392 -119.0693130
-51.4347496 -25.1572666 -120.9061279
15.1836252 -23.2871857 -124.7857132
13.7608719 -23.2457142 -122.4306183
-39.6169472 -23.2104435 -109.1891861
-41.0501099 -23.2482357 -110.0273056
-42.5166245 -23.3065701 -110.9728088
-43.9649773 -23.3521767 -111.9784164
-51.3233681 -23.6459599 -118.9852982
16.5906601 -21.8753376 -125.2693329
15.1727858 -21.8132343 -122.7717209
13.7299156 -21.7498989 -120.5777054
-39.5943794 -21.7701931 -108.0692062
-40.9958687 -21.7901192 -108.8256683
-42.4704666 -21.8500538 -109.7417908
-43.9139366 -21.8931274 -110.7083817
-51.2471619 -22.1645184 -117.3277512
-52.8012085 -22.2678261 -119.1686249
18.0345879 -20.4676266 -126.0243454
16.5851707 -20.3945065 -123.3078461
15.1463995 -20.3290176 -120.9937897
13.7181635 -20.2848625 -119.0107269
12.3031826 -20.2349205 -117.2322388
10.8777723 -20.2058468 -115.6273880
-39.5410538 -20.3209896 -106.9948578
-40.9747086 -20.3652630 -107.7682953
-51.1773758 -20.6906796 -115.8338776
-52.6844597 -20.7646255 -117.5481415
18.0100670 -18.9864693 -124.0630188
16.5672016 -18.9263363 -121.6067047
15.1297178 -18.8720989 -119.4792633
13.6959515 -18.8291931 -117.6033020
12.2888546 -18.7836800 -115.9410400
10.8554010 -18.7479763 -114.4031830
9.4662867 -18.7223301 -113.0426712
-36.6807518 -18.8202209 -104.7521820
-38.0699615 -18.8437939 -105.3336182
-39.5092583 -18.8873672 -106.0190506
-40.9291649 -18.9212322 -106.7719193
-51.1167145 -19.2322750 -114.4929733
-52.6010056 -19.2874413 -116.1166687
17.9873867 -17.5151005 -122.3869095
10.8349514 -17.3017235 -113.2674179
9.4462872 -17.2805481 -111.9676895
8.0357494 -17.2609062 -110.7500610
6.6250086 -17.2338295 -109.6195831
-35.2215881 -17.3677044 -103.3434830
-36.6509171 -17.3874664 -103.8688965
-38.0519524 -17.4187489 -104.4531479
-51.0646133 -17.7775631 -113.2895203
-52.5678787 -17.8378620 -114.8645248
-54.0441589 -17.8923473 -116.5325165
19.4137230 -16.1149902 -123.3975983
17.9757462 -16.0614185 -120.9658966
10.8305597 -15.8686256 -112.2505188
9.4175749 -15.8334541 -110.9585571
8.0179663 -15.8191738 -109.8051987
6.6126366 -15.8032751 -108.7318039
-33.7848282 -15.9147387 -102.0882568
-35.2019348 -15.9489918 -102.5630035
-36.6321487 -15.9704895 -103.0836334
-38.0319138 -16.0007076 -103.6684189
-51.0054893 -16.3259411 -112.1934052
-52.4944305 -16.3790588 -113.6752396
-53.9813690 -16.4323692 -115.3038864
-55.5212021 -16.5056572 -117.1353760
20.8770504 -14.7322111 -124.7291794
19.3850346 -14.6572027 -121.9843903
17.9509907 -14.6087112 -119.6735840
8.0205612 -14.4018507 -108.9694977
6.6093106 -14.3815422 -107.9129562
5.2096868 -14.3614464 -106.9305267
-32.3475876 -14.4818859 -100.9719849
-33.7771606 -14.5061340 -101.3909836
-35.1729774 -14.5211992 -101.8372421
-53.9343987 -14.9840946 -114.2066727
-55.4478989 -15.0409660 -115.9706268
-56.9921608 -15.1180267 -117.9136581
20.8173637 -13.2595472 -123.2813950
19.3601208 -13.2021503 -120.7024460
17.9384613 -13.1677799 -118.5473633
8.0013924 -12.9710112 -108.1753998
6.6045570 -12.9629946 -107.1652985
5.2024617 -12.9440022 -106.2188263
3.8033566 -12.9382172 -105.3372574
-32.3380775 -13.0664568 -100.3273163
-33.7497940 -13.0850105 -100.7310944
-35.1659088 -13.1140079 -101.1848755
-53.8788071 -13.5404606 -113.2024994
-55.3889999 -13.5917997 -114.8988953
-56.9021149 -13.6492109 -116.7585220
22.2685337 -11.8704357 -124.8359451
20.8049355 -11.8121624 -122.0493011
5.2006974 -11.5369492 -105.5688400
3.7912405 -11.5193672 -104.7004395
-32.3264999 -11.6609297 -99.7360458
-56.8457069 -12.1988611 -115.7489624
-58.3815765 -12.2662621 -117.7362747
22.2382622 -10.4142141 -123.6093369
20.7816105 -10.3685150 -120.9432297
5.2001686 -10.1255302 -104.9597626
3.7839408 -10.1130581 -104.1016998
-30.9246349 -10.2357817 -98.8657379
-32.3089600 -10.2496872 -99.2007141
-56.8242836 -10.7612257 -114.8777695
-58.3269310 -10.8121080 -116.7755508
22.2280083 -8.9737196 -122.5560074
20.7745953 -8.9339561 -120.0127563
5.1755528 -8.7079477 -104.3826828
3.7929881 -8.7077045 -103.5650787
2.4013841 -8.7001657 -102.7807693
-30.9024296 -8.8264637 -98.3814392
-32.2965469 -8.8455400 -98.7153091
-56.7683220 -9.3228912 -114.0424423
-58.2708054 -9.3683481 -115.8881607
-59.8683319 -9.4406128 -117.9922333
23.6817741 -7.5922704 -124.4131622
22.2101994 -7.5389209 -121.6296463
20.7521935 -7.5032830 -119.1715851
5.1870847 -7.3111715 -103.9099426
3.7812557 -7.3011079 -103.0799255
2.3997769 -7.2957354 -102.3106308
0.9936822 -7.2949500 -101.5865021
-29.5022850 -7.4160943 -97.6554260
-30.8976822 -7.4315729 -97.9536057
-32.2855492 -7.4416833 -98.2821503
-56.7311096 -7.8855858 -113.3090515
-58.2201538 -7.9265566 -115.1006393
23.6468182 -6.1487312 -123.5039520
2.3984072 -5.8952103 -101.8862457
0.9856221 -5.8945990 -101.1819458
-0.3758061 -5.8956943 -100.5715256
-28.1069851 -6.0031629 -97.0218201
-29.4940605 -6.0128665 -97.2707520
-56.7144470 -6.4580803 -112.6956711
-58.2130280 -6.4986405 -114.4522934
23.6221161 -4.7117486 -122.7143402
2.3810093 -4.4951229 -101.5074310
0.9778817 -4.4906974 -100.8159180
-0.3681753 -4.5003347 -100.2282104
-1.7714672 -4.4967713 -99.6280289
-26.7050362 -4.5980277 -96.4710770
-28.0859203 -4.6014400 -96.6774292
-29.4905930 -4.6180873 -96.9255219
-56.6775894 -5.0302100 -112.1409607
-58.1676598 -5.0671310 -113.8238449
25.1186371 -3.3289261 -125.0521698
23.5878448 -3.2826080 -121.9980774
-0.3965957 -3.0978532 -99.8952942
-1.7767495 -3.1009083 -99.3145599
-3.1343668 -3.0945873 -98.7611694
-25.2907143 -3.1877670 -96.0012283
-26.6866264 -3.1990976 -96.1816940
-56.6578979 -3.6050699 -111.6645966
-58.1415558 -3.6379013 -113.3161774
25.0813084 -1.8888435 -124.3322906
23.5879936 -1.8603908 -121.4553909
-0.3962461 -1.7042680 -99.6306076
-1.7826798 -1.7079835 -99.0628357
-3.1675487 -1.7072434 -98.5240784
-4.5610251 -1.7045634 -98.0375748
-5.9398499 -1.7107724 -97.6076508
-23.9195747 -1.7847440 -95.6281433
-25.3067932 -1.7988619 -95.7748871
-26.6983490 -1.8089361 -95.9408264
-56.6414185 -2.1824563 -111.2544174
-58.1214142 -2.2121406 -112.8996735
25.0493240 -0.4636430 -123.8262939
23.5746021 -0.4381710 -121.0070343
-5.9380245 -0.3242096 -97.4046936
-7.3100066 -0.3261602 -97.0163956
-8.7161674 -0.3220505 -96.6571960
-19.7397518 -0.3692193 -95.3156433
-21.1494827 -0.3828880 -95.3125916
-22.5198784 -0.3895378 -95.3561401
-23.9207249 -0.3960505 -95.4329987
-56.6266937 -0.7630404 -110.9173584
-58.1061172 -0.7900428 -112.5449677
25.0433807 0.9598339 -123.4534149
23.5673962 0.9807428 -120.6383286
-5.9602237 1.0701327 -97.2102661
-7.3116164 1.0632302 -96.8166199
-8.7176476 1.0637643 -96.4613190
-10.0849895 1.0593678 -96.1973114
-11.4704151 1.0474621 -95.9106750
-12.8418884 1.0466436 -95.6643677
-14.2429495 1.0425062 -95.4845123
-15.6162701 1.0364627 -95.3523254
-17.0013657 1.0309148 -95.2604828
-18.3903046 1.0159317 -95.1851501
-19.7369576 1.0132940 -95.1016846
-21.1617146 1.0056394 -95.1394196
-22.5193653 0.9969897 -95.1839828
-23.9119225 0.9930678 -95.2593842
-56.6186295 0.6553195 -110.6436691
-58.1102600 0.6308484 -112.2443161
25.0187683 2.3837645 -123.0828171
23.5447006 2.4005866 -120.3175354
-5.9454670 2.4565151 -97.0651550
-7.3373957 2.4560802 -96.6466675
-14.2467442 2.4283807 -95.3723297
-15.6291542 2.4236953 -95.2162247
-16.9949646 2.4156351 -95.1050568
-18.3838062 2.4135525 -94.9782715
-19.7369633 2.4047897 -94.9340057
-21.1500816 2.3958580 -94.9986191
-56.6121254 2.0727000 -110.4296570
-58.0887451 2.0511742 -111.9887543
25.0157433 3.8029304 -122.8630676
23.5561676 3.8150253 -120.1710205
-5.9593158 3.8435893 -96.9728699
-7.3317003 3.8397217 -96.5911560
-14.2379665 3.8125851 -95.2971954
-18.3742104 3.7960546 -94.9058533
-19.7621861 3.7884884 -94.8882751
-21.1472397 3.7816730 -94.9118576
-56.6001434 3.4891052 -110.2769241
-58.0867081 3.4694862 -111.8570633
25.0188332 5.2215843 -122.7599411
23.5274067 5.2313113 -120.0160599
-14.2391739 5.2006397 -95.2537842
-18.3880386 5.1821337 -94.8875427
-22.5212936 5.1618981 -94.9130630
-23.9255829 5.1558104 -94.9978561
-56.6022415 4.9041276 -110.1982269
-58.0732956 4.8875608 -111.7735214
-59.6041946 4.8689222 -113.5589752
-61.0979118 4.8503361 -115.4784698
-62.7233620 4.8275232 -117.7789459
25.0176315 6.6397734 -122.7170715
23.5274544 6.6461229 -119.9727554
-14.2405291 6.5855055 -95.2469482
-15.6215143 6.5799303 -95.0746460
-17.0144768 6.5747762 -94.9612122
-18.3830795 6.5675507 -94.8863144
-22.5423889 6.5488229 -94.8920288
-23.9170856 6.5412540 -94.9424210
-56.6038513 6.3186321 -110.1622238
-58.0850449 6.3043017 -111.7417145
-59.6102943 6.2889371 -113.5217972
-61.1128082 6.2727871 -115.4705429
-62.7075882 6.2551832 -117.7310944
25.0013657 8.0571289 -122.7492371
23.5307255 8.0599737 -120.0249176
-59.6140900 7.7086082 -113.5449219
-61.1153717 7.6951375 -115.5090485
-62.6841965 7.6813002 -117.7470245
25.0017014 9.4751701 -122.9061127
23.5307636 9.4740963 -120.1557465
-59.6188736 9.1281290 -113.6498795
-61.1398849 9.1179266 -115.6424179
-62.6914673 9.1072950 -117.8810577
24.9923248 10.8920593 -123.1254578
23.5401287 10.8892345 -120.3874207
-5.9710970 10.7757092 -97.0980148
-7.3543468 10.7673035 -96.6964569
-8.7407417 10.7628689 -96.3502731
-10.1131496 10.7572365 -96.0683594
-36.5049820 10.6481791 -97.7137451
-37.8939018 10.6427364 -98.2024078
-39.3171539 10.6368895 -98.7601929
-40.7185669 10.6299753 -99.3562241
-42.1491013 10.6248827 -100.0179443
-43.5688324 10.6188335 -100.7201233
-59.6416740 10.5479221 -113.8402710
-61.1592636 10.5412273 -115.8096008
25.0081882 12.3113613 -123.4882507
23.5249081 12.3027411 -120.6520691
-5.9630709 12.1663074 -97.2592468
-10.1318407 12.1426296 -96.1888123
-36.5155106 12.0401573 -97.8569641
-37.8948517 12.0361853 -98.3447189
-42.1582146 12.0213566 -100.1602783
-43.5797539 12.0164232 -100.8687820
-59.6469498 11.9670315 -114.0655441
-61.1843414 11.9659786 -116.0583801
25.0252056 13.7349768 -123.8907928
23.5142059 13.7180109 -120.9962540
-5.9839106 13.5492601 -97.4374542
-10.1296024 13.5322075 -96.3845291
-36.5268974 13.4352169 -98.0497131
-37.9084930 13.4315910 -98.5382004
-42.1796417 13.4205294 -100.3502655
-43.6026688 13.4173059 -101.0740662
-59.6764984 13.3884726 -114.3893661
-61.1949997 13.3887234 -116.3942566
23.5403366 15.1376638 -121.4855804
-5.9973717 14.9361744 -97.6616974
-7.3736548 14.9256611 -97.2764893
-8.7512579 14.9270954 -96.9291229
-10.1362619 14.9168367 -96.6057968
-36.5369034 14.8267403 -98.2844543
-37.9230042 14.8252764 -98.7801743
-39.3486862 14.8244457 -99.3219910
-40.7545357 14.8192177 -99.9177551
-42.1765442 14.8154507 -100.5988464
-43.6148491 14.8162127 -101.3329697
-59.7028236 14.8106441 -114.7822495
-61.2170944 14.8133831 -116.8365631
23.5261250 16.5522003 -122.0480728
-59.7469368 16.2369347 -115.2634735
-61.2302132 16.2375107 -117.3100204
23.5071354 17.9711056 -122.6947937
-59.7636032 17.6616154 -115.7719574
23.5494041 19.4042358 -123.4922485
22.0994930 19.3726063 -120.8544388
20.6441593 19.3480816 -118.4844818
-56.7914085 19.0687904 -112.7111511
-58.2613640 19.0751171 -114.4238434
-59.8207779 19.0911884 -116.4184799
22.1190262 20.7972221 -121.6924667
20.6508312 20.7677231 -119.2265701
-56.8393555 20.4957867 -113.3630829
-58.2965660 20.4989166 -115.0962830
22.1335182 22.2281971 -122.6552200
20.6654835 22.1923981 -120.1004333
-56.8657837 21.9177055 -114.0575562
-58.3631973 21.9308300 -115.8882751
22.1422329 23.6607094 -123.7012329
20.6528969 23.6129494 -121.0478821
-56.9187813 23.3478928 -114.8697433
-58.4210052 23.3676701 -116.7592163
22.1721077 25.1026173 -124.9527359
20.6726017 25.0476723 -122.1578369
19.2203026 25.0133381 -119.7367401
17.7895775 24.9841461 -117.6290436
-53.9493217 24.7357235 -112.3500137
-55.4476166 24.7546196 -113.9601288
-56.9693108 24.7806606 -115.7731247
20.7023773 26.4914761 -123.3328705
19.2235489 26.4415665 -120.8269196
17.7913322 26.4061565 -118.6348343
-54.0180969 26.1738014 -113.2582932
-55.5096626 26.1916084 -114.9156952
-57.0242996 26.2181854 -116.7674408
19.2291641 27.8747978 -122.0647736
17.7930679 27.8395615 -119.7739868
-54.0680161 27.6032410 -114.2299576
-55.5687256 27.6295528 -115.9611969
19.2711964 29.3346748 -123.4923706
17.7858849 29.2667446 -121.0175781
-54.1249886 29.0390816 -115.3245239
-55.6290627 29.0690765 -117.1221695
17.8146000 30.7171345 -122.4949493
-51.2182770 30.4283600 -113.3406067
-52.7119217 30.4570732 -114.8759613
-54.1969376 30.4927521 -116.5878372
17.8115616 32.1574211 -124.1040421
-51.2609787 31.8675175 -114.5077362
17.8721161 33.6579971 -126.0664444
16.3930454 33.5665665 -123.4149857
14.9846687 33.5206146 -121.1724701
-51.3439178 33.3201981 -115.8411713
-52.8611336 33.3636627 -117.5578079
16.4363174 35.0481758 -125.4148254
14.9831324 34.9704399 -122.9120331
-51.4094391 34.7717743 -117.3054276
15.0283508 36.4598122 -124.9937134
13.5282936 36.3785706 -122.5145111
12.1170750 36.3404541 -120.4857559
-11.7337036 35.9242401 -105.1973877
-13.0960264 35.9158630 -104.9343338
-14.5043669 35.9131355 -104.7158356
-15.8924446 35.9043312 -104.5394440
-17.2882004 35.8923569 -104.3908997
-18.6810646 35.8874397 -104.3034973
-48.5296783 36.1646500 -115.7433243
-50.0269547 36.2021828 -117.2801971
-51.4916725 36.2370682 -118.9687958
13.5440893 37.8587418 -124.6025696
12.1017866 37.7863503 -122.3293076
-11.7512722 37.3532753 -106.2801132
-13.1178331 37.3471184 -105.9993286
-17.3193550 37.3288383 -105.4471283
-18.7167759 37.3325272 -105.3843079
-48.6002846 37.6230698 -117.3465195
-50.1067924 37.6668892 -119.0084991
13.5935650 39.3763733 -127.0395126
12.1236353 39.2760849 -124.5368423
10.6951084 39.2143707 -122.3927536
9.2882786 39.1645088 -120.5160065
-11.7682829 38.7839699 -107.4476700
-13.1428967 38.7847061 -107.1606598
-17.3424320 38.7571716 -106.5861359
-18.7468605 38.7702026 -106.5317917
-45.7235069 39.0100899 -116.1894379
-47.2282906 39.0626678 -117.6292572
-48.6895256 39.0944595 -119.1814041
-50.2095718 39.1447296 -121.0151978
12.1778622 40.8158646 -127.0664291
10.6905117 40.6968384 -124.6270676
9.2978325 40.6437073 -122.6454315
-11.7850666 40.2329941 -108.7282562
-13.1711140 40.2121696 -108.4151077
-14.5861835 40.2218781 -108.1661453
-15.9671803 40.2081146 -107.9683609
-17.3812237 40.2043266 -107.8393784
-18.7639523 40.1855621 -107.7383270
-45.8148499 40.4914093 -118.0078430
-47.3176193 40.5355530 -119.5631790
-48.7969055 40.6077766 -121.3873596
9.3148365 42.1395302 -125.0628586
7.8564625 42.0536919 -122.9942627
6.4359765 42.0193253 -121.2493439
5.0157471 41.9759254 -119.6943207
3.6130872 41.9358025 -118.3065643
-42.9741631 41.8886108 -117.3024063
-44.4475784 41.9360886 -118.6112213
-45.9135666 41.9750748 -120.0652771
-47.4135933 42.0225754 -121.7634964
7.8794613 43.5797119 -125.5476685
6.4250784 43.5091629 -123.5907822
5.0104032 43.4558220 -121.8836212
3.5960417 43.4074821 -120.3261108
-43.0695381 43.3818626 -119.3804703
-44.5379219 43.4230614 -120.8041916
-46.0236473 43.4843750 -122.4326172
5.0151544 44.9594574 -124.4078064
3.5920315 44.8957100 -122.6931076
2.2080438 44.8612633 -121.2379837
0.7534236 44.8158417 -119.8930817
-37.3423195 44.7318230 -117.0408325
-38.7741318 44.7592773 -117.9967804
-40.2329407 44.7979355 -119.1011658
-41.6803322 44.8281097 -120.3121109
-43.1780319 44.8873215 -121.7658463
5.0315213 46.5344772 -127.4770279
3.5888290 46.4210129 -125.5008011
2.1886315 46.3662796 -123.8277206
0.7581379 46.3204689 -122.3490372
-37.4225578 46.2292709 -119.2241211
-38.8468094 46.2584076 -120.2703171
-40.3236580 46.3085899 -121.5149231
2.1892600 47.8941650 -126.9757996
0.7362044 47.8216019 -125.2345428
-0.6802129 47.7738571 -123.7411041
-2.0876672 47.7430267 -122.4414825
-31.7297020 47.6097488 -118.2743073
-33.1619987 47.6386299 -118.9722748
-34.6218948 47.6809006 -119.7988739
-36.0375290 47.6829071 -120.6453400
-37.5213242 47.7418709 -121.7558441
-38.9654007 47.7722321 -122.9723969
0.7375115 49.4240685 -128.7528229
-0.6919481 49.3148308 -126.9795609
-2.1126933 49.2567291 -125.4490204
-31.8161106 49.1276588 -120.7502136
-33.2375183 49.1504631 -121.5203857
-34.6909637 49.1818275 -122.4631882
-2.1080172 50.8795013 -129.1635132
-3.5180032 50.7905083 -127.5966187
-4.9501033 50.7130394 -126.2828140
-6.3678188 50.6700516 -125.1322861
-7.7876968 50.6522598 -124.1647873
-9.1901054 50.6315117 -123.3344498
-10.5813293 50.6031227 -122.6096954
-12.0068216 50.5869293 -122.0168457
-13.4011984 50.5748596 -121.5568390
-14.8289547 50.5578117 -121.1637802
-16.2277584 50.5374069 -120.8499603
-26.1496983 50.5616608 -121.2665176
-27.5914040 50.5909386 -121.7260056
-29.0088387 50.6088638 -122.2510452
-30.4514523 50.6290894 -122.8850098
-31.9175835 50.6677742 -123.6948547
-33.3419800 50.6898613 -124.6023865
-6.3891644 52.2865715 -128.9197845
-7.8260245 52.2087708 -127.7441254
-9.2394724 52.1532593 -126.7153015
-10.6151171 52.1300812 -125.8866196
-12.0550299 52.1119995 -125.1838760
-13.4582548 52.1029282 -124.6485443
-14.8880796 52.0848694 -124.1788177
-16.2853432 52.0902138 -123.8709488
-26.2309437 52.1091232 -124.3898926
-27.6708889 52.1170540 -124.8874512
-29.1033077 52.1479645 -125.5722504
-10.6636782 53.7882233 -130.0957642
-12.1149521 53.7342873 -129.2199249
-14.9537592 53.6459618 -127.9336777
-16.3447037 53.6266785 -127.5338898
-17.7792053 53.6291275 -127.3042755
-19.2006416 53.6197166 -127.1155243
-20.6254768 53.6172180 -127.1117630
-22.0575027 53.6249847 -127.2134705
-23.4718742 53.6501732 -127.4465637
-24.9217949 53.6738167 -127.8058929
-26.3481464 53.7347603 -128.3043518
-27.7946587 53.7681084 -128.9934845
6.4327803 -140.9454651 101.9104538
5.7962203 -140.9536133 101.8927841
9.7032528 -140.0021210 103.4265518
9.1537800 -139.9759979 103.6279526
8.6086655 -139.9336548 103.8616257
8.0792866 -139.9158020 104.0043488
7.5363231 -139.8911743 104.1193085
6.9799056 -139.8390961 104.2397003
6.3971314 -139.8055725 104.3380661
5.8036828 -139.8186188 104.4205170
5.2043977 -139.8672638 104.4853439
4.6104527 -139.9213409 104.4763718
4.0550146 -139.9560394 104.4491501
3.5184703 -139.9838104 104.3950882
2.9867587 -140.0139923 104.3230972
2.4549494 -140.0406342 104.2505646
1.8840237 -140.0872345 104.1112671
1.2913066 -140.1372070 103.9468689
0.6987172 -140.1936493 103.7519836
0.0972006 -140.2602234 103.4980927
13.7330408 -139.3926849 103.1441803
10.8750257 -139.1036377 104.9899368
14.7990980 -138.5205536 104.5019379
14.2458010 -138.4143066 104.9091568
13.7046976 -138.3208008 105.2990112
12.6677313 -138.2993011 105.9633636
12.0941448 -138.2498932 106.2352295
11.4779205 -138.1884766 106.6044922
10.8682232 -138.1306152 106.8170929
-2.0817022 -138.5712128 106.5703354
-2.6240313 -138.6516724 106.3216095
-3.2023864 -138.7562256 105.9907990
16.5908680 -137.8699646 104.8625641
17.7362823 -137.1457520 105.5473022
17.1426849 -137.0234070 106.0798111
16.5500317 -136.9259644 106.5723801
-8.8579235 -137.1028137 106.8067398
21.0625839 -135.9533691 105.4206696
-8.8262701 -136.2042542 108.3425369
-9.4497690 -136.3647766 107.8563461
22.2773075 -135.3706665 105.5730209
-10.0656395 -135.6747894 108.6908264
22.8140278 -134.6379089 106.4098282
22.2249565 -134.4878235 107.0963287
-10.0357132 -134.8379669 109.9495544
-10.6480083 -134.9777985 109.4459839
-11.1900072 -135.0916443 108.9962463
-11.1512737 -134.2516022 110.2087402
25.5182476 -133.5611420 105.9888992
24.9132156 -133.3837128 106.8120575
24.3602905 -133.2536469 107.4851913
-11.1359053 -133.4747314 111.3355637
-14.4686365 -133.3894958 109.5216827
-14.4597197 -132.6261139 110.6536942
-15.1167927 -132.8098450 109.9944382
-15.7205086 -132.9605560 109.3882751
-15.6929951 -132.1625824 110.5049133
29.4868259 -131.3470001 105.5507431
28.9475536 -131.1891937 106.3397675
-15.6741095 -131.4310760 111.4912720
-16.2147827 -131.5498810 111.0049820
-16.7362938 -131.6761322 110.5224533
30.0277863 -130.6955566 105.9905624
29.9463272 -129.8509979 107.3480148
31.1860619 -129.4743805 106.5661240
-18.9181976 -129.9812927 111.1460114
31.1373520 -128.6863556 107.7156448
-18.8541145 -129.2077789 112.0784454
-19.4908733 -129.3724976 111.3364563
-20.1394386 -129.5856018 110.4710693
-20.7529125 -129.7717285 109.6224594
32.3780098 -128.3038940 106.8041458
8.9839268 -126.0032578 122.3283310
-5.5502152 -126.6562042 120.9319458
-6.0398598 -126.6930847 120.8106003
-6.4875898 -126.7193909 120.7382965
-6.9253135 -126.7520981 120.6483154
-7.4368844 -126.7993698 120.4861984
-7.9594483 -126.8204727 120.2845306
32.9221573 -127.6885147 106.9902344
32.3109436 -127.5197906 107.9341507
-5.5254855 -126.0140686 121.4942398
-7.9849992 -126.2084808 120.8125610
-21.2085266 -128.3169098 111.0455933
15.7130680 -124.8747177 121.6544495
15.0687819 -124.8181686 121.9811020
14.4818764 -124.7913589 122.1942444
13.9660130 -124.7921982 122.2981186
13.4994516 -124.8070831 122.3557739
13.0355492 -124.8215408 122.4117584
10.7187271 -124.7769165 123.0285034
10.0683279 -124.7512512 123.1886749
1.4175979 -124.9042053 123.4731598
0.7507561 -124.9497986 123.3893890
0.0867660 -125.0036774 123.2846756
-0.5112098 -125.0587082 123.1980362
-1.0151072 -125.0948410 123.1630783
-3.5809281 -125.2043533 122.7007523
-5.5191841 -125.3675079 122.0191803
-7.9648757 -125.5522766 121.3718185
-8.5862169 -125.6053619 121.0808563
-9.2625237 -125.7191696 120.7396469
34.5313683 -126.6654892 106.4575806
15.7080927 -124.2213974 122.1788406
3.9776945 -124.1846161 124.0848541
1.4031600 -124.2975082 123.9500961
-3.5732770 -124.5504990 123.2215881
-5.5216503 -124.7396011 122.5197525
-9.2934847 -125.1237640 121.3080673
15.6755619 -123.5821609 122.6770401
1.3909916 -123.6756363 124.4221573
-3.5663426 -123.9522247 123.6960754
-4.2373929 -124.0142365 123.4546051
-4.8909745 -124.0510406 123.2427673
-5.4976277 -124.1078262 123.0297394
-9.3032646 -124.4492569 121.8349609
1.4106486 -123.0520859 124.8743744
0.7443845 -123.1129837 124.7999191
-4.2451591 -123.3969955 123.9427719
-8.6285572 -123.7230759 122.6886673
-9.2433586 -123.8207245 122.3237915
-21.1624985 -125.5879364 114.3153381
-21.7027435 -125.7063141 113.7615509
-22.2183456 -125.8180695 113.2325439
-22.8034821 -125.9806671 112.6078415
35.5855751 -124.7839432 107.6146240
16.9468632 -122.4830551 122.9453583
13.9392614 -122.3093948 124.1882706
13.4780092 -122.2998199 124.1954803
5.0661550 -122.3339920 125.4318085
-1.3001730 -122.5273895 125.1247787
-1.6471579 -122.4638290 125.5324326
-4.2475915 -122.7961502 124.4298401
-9.8945503 -123.2590866 122.4310074
-10.4926929 -123.3382797 122.1467819
-23.3624821 -125.4311752 112.7145538
36.2218056 -124.2754364 107.4139252
35.5466461 -124.0635071 108.5303345
16.9408932 -121.8650818 123.3738174
13.9185190 -121.7112656 124.6745834
13.4516001 -121.7045822 124.6803970
8.0160217 -121.6900864 125.5674896
7.5083413 -121.7030029 125.5696106
5.0665741 -121.7013245 125.8744431
-1.0014201 -121.9619446 125.4222488
-1.4238888 -121.9869232 125.3996582
-1.8984711 -121.9429779 125.3789673
-2.4023020 -121.9561539 125.3254776
-2.9490869 -122.0732574 125.1773453
-3.5715883 -122.1018906 125.0280151
-4.2455621 -122.1822586 124.8252716
-10.5110054 -122.7370148 122.5860214
-23.3396893 -124.7402802 113.4129105
-23.9542999 -124.9025345 112.7309723
36.8378487 -123.7561188 107.2265854
16.9139118 -121.2273636 123.8221588
16.2778244 -121.1650314 124.0412979
13.4626303 -121.1147079 125.0844879
8.0110292 -121.0933914 125.9236755
5.0536251 -121.1083450 126.2573624
-4.2157421 -121.5361633 125.2450180
-10.5116701 -122.1244812 123.0266800
-24.5578442 -124.3744354 112.6932068
36.7810326 -123.0260391 108.1517181
16.9058495 -120.6347198 124.2302475
13.9176044 -120.4690018 125.4340439
13.4641485 -120.5092392 125.4647369
12.9919348 -120.5481033 125.4996033
7.5137887 -120.5181122 126.2997131
6.9640512 -120.5365677 126.3732605
6.3479013 -120.5178223 126.4769897
5.7086759 -120.5112915 126.5630341
5.0612340 -120.5013580 126.6213074
-4.2185512 -120.9413910 125.6183624
-4.9071240 -121.0169601 125.3935471
-10.4904423 -121.4851685 123.4820175
-24.4920559 -123.6717834 113.4068298
-25.1441250 -123.8400497 112.6201935
-25.7745323 -124.0238647 111.8197250
-26.3561726 -124.1800232 111.0771942
36.7488174 -122.3293381 108.9743271
13.9111462 -119.8977509 125.7886810
13.4406300 -119.9062119 125.8473358
7.5191212 -119.9106903 126.6702271
6.9591632 -119.9061203 126.7567062
6.3384957 -119.8981628 126.8472366
-5.4914522 -120.4506836 125.5788422
-10.4898548 -120.8802719 123.9017944
-25.7295933 -123.3166885 112.5397263
37.3314247 -121.8175735 108.7566681
36.7130165 -121.6497726 109.7448273
15.6395416 -119.3512268 125.5765305
15.0218697 -119.3343353 125.8473053
14.4517822 -119.3239670 126.0500107
13.9216146 -119.3240128 126.1394272
13.4441795 -119.3141327 126.2192383
7.4878020 -119.2983017 127.0409927
6.3020892 -119.3687973 127.1535187
-5.4775286 -119.8478470 125.9559326
-10.4838533 -120.2789612 124.3165970
-25.7265129 -122.7024841 113.1344376
39.0845642 -121.6502075 106.5421066
13.4342804 -118.7282333 126.5768967
6.2636991 -118.7217407 127.5225449
-6.8926873 -119.3333435 126.1641006
39.0258102 -120.9235992 107.4110718
13.4479561 -118.1555862 126.9102173
6.3235087 -118.1226883 127.8681259
-4.2268214 -118.5708771 127.1108017
-6.8814025 -118.7184601 126.5063705
-25.6493073 -121.3421936 114.4708328
13.4310179 -117.5586395 127.2498169
6.3293715 -117.5511475 128.1870728
-4.2157202 -117.9675293 127.4328461
-6.8904285 -118.1365280 126.8200912
-26.7215519 -120.8995514 113.8221130
40.1335411 -119.9097595 106.9868927
13.4308872 -116.9595184 127.5732269
10.6445923 -116.9123306 128.1035004
10.0265274 -116.8889236 128.2622070
9.4636564 -116.9125748 128.3568726
8.9458647 -116.9304047 128.3970184
8.4702644 -116.9403610 128.4059753
7.9943285 -116.9682312 128.3969269
7.4804287 -116.9627075 128.4102478
6.9201765 -116.9545975 128.4468231
6.3232179 -116.9579391 128.4994965
-4.2077093 -117.3678436 127.7425156
-4.8435569 -117.4214249 127.5625153
-5.4270811 -117.4608459 127.4051895
-5.9471631 -117.4913406 127.2841492
-6.4174628 -117.5071793 127.2124405
-6.8770294 -117.5259399 127.1447067
-26.7142506 -120.2715988 114.4352646
-27.2585945 -120.4025574 113.8175354
13.4161444 -116.3802338 127.8720703
40.0445480 -118.5336609 108.5156097
13.4137239 -115.7789993 128.1604462
12.9314423 -115.7965012 128.2095947
12.4189796 -115.8235397 128.2559662
11.8758459 -115.8184052 128.3466797
-29.0070324 -119.5736160 112.7983093
41.2873917 -117.6067352 107.6474838
-28.9640198 -118.2765503 113.8802643
41.2504883 -116.9486847 108.3247910
41.2181816 -116.2724686 108.9994812
42.4556465 -115.9859772 107.2658539
-30.1770210 -116.7017517 113.8046722
43.0521622 -115.5473404 106.6764221
42.3810005 -115.3265228 107.9258194
-30.1151905 -115.4297943 114.7077484
-30.6972179 -115.5636673 113.9511566
43.5711632 -114.4165878 106.7899323
-30.0634785 -114.7934189 115.1532898
43.5142517 -113.7495880 107.4245987
-30.0447063 -114.1766891 115.5534897
44.1047325 -113.3058167 106.8396606
43.4871292 -113.1153030 107.9692764
-30.0324078 -113.5653763 115.9588928
-30.6362953 -113.6976929 115.2187424
-31.1839886 -113.8164978 114.5614548
-32.3498611 -113.5091858 113.5403214
-32.9539642 -113.6726074 112.7593536
44.6364517 -112.2062225 106.8211136
-32.3164139 -112.8869934 113.9467697
44.6082611 -111.5794144 107.3228531
-33.5092201 -112.5921631 112.7741013
45.2040215 -111.1380463 106.6747131
44.5762939 -110.9456329 107.8239746
-33.4730606 -111.9668121 113.1801987
-33.4488716 -110.7543259 113.9154510
-34.0762444 -110.9135361 113.1107788
45.7423553 -109.4547653 106.9392471
-33.4210434 -110.1406021 114.2593613
45.7102509 -108.8330307 107.3690567
-33.3763542 -109.5311737 114.6100388
-34.0265427 -109.7006226 113.7683258
-34.6650734 -109.8654022 112.9182129
46.9964142 -107.4174118 105.9824829
-34.6109009 -108.0684433 113.8441544
-35.2635994 -108.2335968 112.9737778
46.9268761 -106.7675095 106.4609375
-34.5830917 -107.4695206 114.1377563
-34.5690422 -106.8731766 114.4133911
-34.5468674 -106.2873993 114.6687469
-35.1934586 -106.4468689 113.8253860
-35.8347092 -106.6045685 112.9804535
-35.7775650 -105.4270172 113.4485474
-36.3747444 -105.5740128 112.6262054
-36.9721794 -105.7212067 111.7980576
46.8212852 -103.8308411 107.9785385
2.3782966 -100.8580246 133.7730713
1.8366578 -100.8757248 133.7600403
-35.7684631 -104.8463364 113.6679306
-36.3480034 -104.9830933 112.8783646
46.8086777 -103.2516327 108.2197037
2.3819766 -100.3301468 133.8658142
1.8470324 -100.3921432 133.8500214
-35.7430801 -104.2576523 113.9168854
48.0820847 -103.0226593 106.0761032
18.7878227 -99.7747726 131.5522003
15.4965820 -99.6981049 132.4889832
14.9235630 -99.6939621 132.6297760
14.3755951 -99.6833420 132.7585144
13.8427334 -99.6808167 132.8720245
12.7651186 -99.6871262 133.0703583
12.2282305 -99.7237778 133.1599731
11.1161509 -99.7349091 133.3499756
10.5760136 -99.6609192 133.4406433
8.9176235 -99.6723480 133.6662140
8.3773918 -99.6774902 133.7252655
7.8352470 -99.6732635 133.7727051
7.2941737 -99.6851044 133.8070374
3.4623134 -99.7570572 133.9406586
-1.4664003 -99.9105682 133.6683655
-5.8594666 -100.1117859 133.0172272
-7.4718504 -100.2009125 132.6727295
-8.0069952 -100.2230530 132.5342560
-8.5699558 -100.2627411 132.3854370
-9.1363239 -100.3033295 132.2485962
-35.7468109 -103.6851349 114.1187592
48.0606804 -102.4405899 106.3280792
18.7819576 -99.2337799 131.6227570
15.5041714 -99.1663284 132.5572052
11.0516338 -99.1551056 133.4134216
10.5598164 -99.1257629 133.4997101
7.2948284 -99.1487122 133.8773956
3.4629576 -99.2197800 134.0165558
-1.4571688 -99.3734894 133.7402344
-7.4453621 -99.7102203 132.7682190
-9.1342764 -99.8294067 132.3490906
-35.7225571 -103.1058960 114.3285522
-36.3288765 -103.2480087 113.5265961
18.7753849 -98.6973877 131.6843872
16.5935230 -98.6412964 132.3531799
16.0572186 -98.6391678 132.4872742
15.5073748 -98.6349258 132.6242371
10.5503912 -98.5950241 133.5526276
10.0017300 -98.5969315 133.6438141
6.1953158 -98.6328430 133.9899139
4.5287924 -98.6632919 134.0454102
-2.5466616 -98.8796616 133.6638641
-3.0900652 -98.9021530 133.5865631
-3.6288540 -98.9206924 133.5097961
-9.1869583 -99.2307129 132.4281464
-35.6980705 -102.5305252 114.4991150
18.7756157 -98.1643600 131.7345123
10.5545645 -98.0624237 133.5993652
9.9963398 -98.0668793 133.6945190
6.1965575 -98.0999146 134.0438080
-9.1958838 -98.6890488 132.4754333
18.7774334 -97.6283417 131.7764130
10.5504856 -97.5329666 133.6458588
10.0087347 -97.5186157 133.7401123
6.1874161 -97.5669708 134.0969696
-10.2670565 -98.2230835 132.1849213
18.7723827 -97.0988083 131.8133087
-10.2477589 -97.6760864 132.2445984
48.5846481 -99.7312469 106.1611862
47.9479942 -99.5633926 107.3649979
22.0840626 -96.6604156 130.6875610
21.5540218 -96.6485672 130.8976746
20.9970798 -96.6287079 131.1077271
20.4303799 -96.6080704 131.3102875
19.8589516 -96.5894165 131.5059204
19.3067989 -96.5765610 131.6857605
47.9414368 -99.0007935 107.5227661
22.0949097 -96.1363144 130.7166748
19.3129501 -96.0509949 131.7210388
47.9464569 -98.4444733 107.6269226
22.0746098 -95.5968170 130.7527008
-9.1350183 -96.0106354 132.6517639
-10.7910833 -96.1118011 132.1970215
-11.3066502 -96.1543579 132.0658722
-11.6557407 -96.1189194 132.2858887
47.9059334 -97.8754578 107.7845840
22.0625420 -95.0662384 130.7759705
-9.1345968 -95.4775314 132.6756897
-10.7959957 -95.5843277 132.2050781
-11.3331966 -95.6229019 132.0608978
-11.6698132 -95.6409073 132.2380829
-11.9766703 -95.5966644 132.7135162
49.2043877 -97.6647644 105.3850174
22.1080475 -94.5893478 130.7645569
-10.7901821 -95.0515900 132.1994019
-11.3799381 -95.1063461 132.0353241
-11.8531084 -95.0872498 131.9010315
-12.4259138 -95.1004028 131.7046509
-36.8278809 -98.2791290 114.0011215
-37.4137192 -98.4059372 113.2280197
49.1761284 -97.1009903 105.5150299
-11.8917933 -94.5972595 131.8741608
-12.4458427 -94.6344986 131.7012482
-36.8413353 -97.7258606 114.0721436
49.1694679 -96.5460281 105.5992661
23.1821709 -93.5298309 130.3343506
-11.8902645 -94.0643005 131.8908386
-12.4390202 -94.0999756 131.7200470
-12.9972610 -94.1396637 131.5404510
-13.5358658 -94.1779404 131.3554535
-36.8339386 -97.1696548 114.1560135
49.1605263 -95.9891968 105.6819687
23.1780548 -93.0026474 130.3380737
-13.5416727 -93.6469650 131.3710938
-36.8276939 -96.6160355 114.2160873
-37.4476891 -96.7519608 113.3768845
-38.0442848 -96.8868484 112.5376968
-38.6422272 -97.0230103 111.6860504
49.1526146 -95.4373169 105.7517853
23.1803284 -92.4775391 130.3304749
49.1540718 -94.8883743 105.7913132
23.1752644 -91.9503479 130.3177795
22.6422977 -91.9325409 130.5517273
49.1465416 -94.3382797 105.8343277
49.1326790 -93.7898483 105.8744888
49.1326141 -93.2472916 105.8732147
22.0606537 -90.3392334 130.7047119
49.1487846 -92.7110748 105.8270340
49.1406059 -92.1701126 105.8130188
24.2664928 -89.3812714 129.6781921
49.1264648 -91.6287384 105.7989960
24.2707844 -88.8603210 129.6312714
49.1372108 -91.0952759 105.7290344
-14.6835623 -88.9923248 130.7292175
49.1269569 -90.5585556 105.6862030
49.1465492 -90.0302811 105.5749741
49.1274796 -89.4948730 105.5194397
24.2625713 -86.7824554 129.3815765
-13.0226440 -87.3142929 131.1172485
-13.5721741 -87.3512039 130.9263306
-14.1159601 -87.3882370 130.7348785
-14.6803370 -87.4278107 130.5285492
49.1535378 -88.9717102 105.3649368
24.2538338 -86.2670517 129.2943573
49.1408272 -88.4416122 105.2669144
24.2628880 -85.7525864 129.1949921
23.7079926 -85.7300797 129.4445953
-12.4930983 -86.2402802 131.1427765
49.1382065 -87.9153748 105.1373596
-12.4784050 -85.7215424 131.0645142
-39.2761726 -88.9955597 110.4950333
49.1638374 -87.3963013 104.9454727
-12.5010509 -85.2040024 130.9663391
-39.2611656 -88.4591522 110.4126663
49.1735191 -86.8737259 104.7786484
-12.4953995 -84.6875153 130.8702698
49.2028923 -86.3547821 104.5751648
23.1753349 -83.6517563 129.2698975
-11.9393301 -84.1345367 130.9559326
-12.5021448 -84.1709976 130.7656708
23.1701736 -83.1392593 129.1571045
-38.0906677 -86.6110077 111.8161621
23.1686897 -82.6285477 129.0324249
22.6771507 -82.6107559 129.2361908
-38.0848541 -86.0843124 111.6716690
-38.1089859 -85.5624695 111.4781570
22.0476093 -81.5602112 129.2650604
19.2991123 -81.4906387 130.2403412
18.7405338 -81.4771347 130.4391174
-11.3979750 -82.0421677 130.6753693
-38.1114311 -85.0381317 111.3077011
-38.7296257 -85.1590042 110.4419937
22.0464535 -81.0549240 129.1147003
19.2742958 -80.9831619 130.1111908
-38.1239510 -84.5146255 111.1239853
-38.7442245 -84.6346512 110.2534485
22.0604515 -80.5462341 128.9510498
21.4914494 -80.5350571 129.1736755
20.9409275 -80.5213776 129.3767853
20.3907070 -80.5031738 129.5719604
19.8323689 -80.4879227 129.7683258
19.2853794 -80.4731369 129.9628448
47.9484253 -82.4667053 105.4592285
47.9961319 -81.9621582 105.1176147
-10.3427219 -79.9321365 130.4198151
47.9865646 -81.4544373 104.8443298
14.8785648 -78.8772278 130.7623596
14.3225479 -78.8711929 130.8970032
-35.7762642 -81.9914017 113.5037689
-36.3721924 -82.0977249 112.7433319
-36.9387054 -82.2001801 112.0086288
-37.5784950 -82.3078232 111.1743774
48.6790466 -81.0891495 103.2269821
48.0099182 -80.9479752 104.5208893
18.7412853 -78.4332733 129.5194702
14.8889589 -78.3671265 130.6204529
-35.8046989 -81.4766617 113.2621384
18.7263947 -77.9311905 129.3507233
18.2459011 -77.9171524 129.4385681
-8.1356726 -78.2907028 130.5278320
18.7348747 -77.4229660 129.1755219
18.2179127 -77.4178238 129.2874908
5.0198131 -77.3735809 131.6176910
4.4708557 -77.3778915 131.6478882
