5.1398840 -28.5456886 112.8571014
2.9103622 -28.5787888 112.6970520
0.6670325 -28.6220703 112.2912979
-1.5655028 -28.6804409 111.6765137
-3.8142262 -28.7509251 110.7850647
9.6378880 -26.6144867 107.5466156
7.3949833 -26.6137772 107.8876343
5.1402082 -26.6344261 107.9376144
2.9046619 -26.6699066 107.7338791
-42.2898102 -4.1154222 -104.1536484
-45.1753197 -4.1650834 -106.5883942
-39.3274155 -1.2356465 -99.9127808
-42.1892281 -1.2741154 -101.7688141
-45.0759735 -1.3199464 -104.0160217
19.1840534 1.7588496 -111.1524963
16.3373489 1.7771674 -107.5240631
-36.4307594 1.6062081 -96.5701447
-39.2613678 1.5769072 -98.0379562
-42.1188736 1.5450796 -99.7891998
-44.9796982 1.5086432 -101.8666534
-47.8917465 1.4716082 -104.3502274
19.1489239 4.5761385 -108.8077240
16.3091736 4.5872779 -105.4756622
13.4883480 4.5933022 -102.7193451
-33.5742722 4.4213934 -93.8833466
-36.3809509 4.4004564 -95.0439911
-39.2059059 4.3753080 -96.4548340
-42.0525131 4.3501019 -98.1175232
-44.9077530 4.3229237 -100.0831757
-47.8119431 4.2924252 -102.4243088
-50.7256393 4.2615266 -105.2365799
21.9675217 7.3823318 -110.7427368
19.1128654 7.3850832 -106.9077377
16.2809544 7.3845716 -103.7890320
13.4633942 7.3814068 -101.1690826
10.6762886 7.3775678 -98.9627380
-33.5374832 7.1993656 -92.6457672
-36.3357468 7.1836214 -93.7629852
-44.8470383 7.1252575 -98.5903015
-47.7377472 7.1032038 -100.8211975
-50.6519318 7.0782957 -103.4789886
21.9307213 10.1867352 -108.9896088
19.0824070 10.1782255 -105.3935089
16.2608109 10.1687346 -102.4306717
13.4438992 10.1601467 -99.9034958
10.6578579 10.1492329 -97.7817535
7.8771744 10.1418304 -95.9385300
-30.7163696 9.9843245 -90.7234039
-33.5094185 9.9717283 -91.6147690
-36.3127022 9.9569693 -92.7122574
-44.7981186 9.9176283 -97.3603516
-47.6796875 9.9033823 -99.5108643
-50.5848389 9.8887873 -102.0376434
-53.5450783 9.8725452 -105.1045685
21.9058228 12.9799118 -107.6402283
19.0571823 12.9638100 -104.1895599
10.6385956 12.9179688 -96.8186493
7.8634319 12.9048290 -95.0197067
-30.6984158 12.7440062 -89.8992615
-50.5408134 12.6887121 -100.9041290
-53.4814606 12.6833410 -103.8319855
24.7479496 15.7994738 -110.6777802
21.8814697 15.7695494 -106.5835342
19.0348091 15.7439327 -103.2610703
10.6273718 15.6799030 -96.0734024
7.8548398 15.6625996 -94.3061829
5.0878034 15.6452036 -92.8037643
-27.9118633 15.5088615 -88.5712891
-30.6904945 15.5026579 -89.2558746
-50.4967651 15.4846582 -100.0111465
-53.4435577 15.4869823 -102.8683319
24.7300854 18.5926895 -109.8087158
5.0800643 18.3972950 -92.2801895
2.3252268 18.3785038 -91.0138016
-25.1457748 18.2658710 -87.5890121
-27.9063015 18.2611237 -88.0912933
-30.6853409 18.2571259 -88.7670364
-50.4827881 18.2757111 -99.3860855
-53.4050293 18.2881470 -102.1508179
24.7044983 21.3853321 -109.2442474
5.0697079 21.1478920 -91.9405899
2.3151066 21.1269684 -90.6858978
-27.9083290 21.0113907 -87.7888489
-30.6763172 21.0109158 -88.4468536
-50.4600067 21.0665226 -98.9552689
-53.3937683 21.0867767 -101.6933517
24.6954880 24.1783581 -108.9784088
5.0635538 23.8988266 -91.7791061
2.3019893 23.8751163 -90.5183411
-11.4184875 23.7927628 -86.9031296
-27.9174843 23.7622509 -87.6307449
-30.6917725 23.7644062 -88.2934189
-50.4679871 23.8567657 -98.7656174
-53.3904991 23.8861370 -101.4775391
-56.3636932 23.9228764 -104.7501526
24.6780586 26.9741249 -108.9843292
5.0496626 26.6520424 -91.7896347
2.2974129 26.6252403 -90.5210114
-0.4602387 26.6014175 -89.4369965
-11.4320621 26.5351162 -86.8844604
-25.1670227 26.5120697 -87.1266251
-27.9304295 26.5146484 -87.6225281
-30.6972752 26.5193825 -88.2823639
-50.4780197 26.6496468 -98.7820663
-53.4022903 26.6878433 -101.4971008
-56.3698387 26.7349987 -104.7616959
24.6766548 29.7754326 -109.2910614
21.8066845 29.6950417 -105.3718719
18.9639282 29.6282597 -102.1544571
-0.4618316 29.3524361 -89.5890350
-11.4447727 29.2847786 -87.0294418
-25.1764908 29.2642937 -87.2689972
-50.4902267 29.4458408 -98.9931488
-53.4223709 29.4935818 -101.7350159
24.6786156 32.5846939 -109.8909607
21.8091297 32.4920197 -105.8951569
18.9619255 32.4150314 -102.6089783
-0.4744494 32.1078720 -89.9082489
-3.2257106 32.0834961 -89.0002289
-5.9728365 32.0623932 -88.2677231
-8.7091341 32.0463409 -87.7129364
-11.4517241 32.0357056 -87.3179092
-14.1893044 32.0256424 -87.0647888
-16.9522896 32.0205917 -86.9823380
-19.6810646 32.0158844 -87.0149994
-22.4425583 32.0185089 -87.2212830
-25.1915359 32.0212402 -87.5737610
-50.5264931 32.2490234 -99.4374924
-53.4584656 32.3069153 -102.2369843
24.6753426 35.4041710 -110.8222656
21.8218288 35.2998962 -106.6919556
18.9611473 35.2115822 -103.3016434
-16.9546318 34.7757301 -87.4064102
-19.7014294 34.7767563 -87.4657745
-50.5650864 35.0588226 -100.1025696
-53.4998894 35.1272163 -102.9661560
21.8199921 38.1180801 -107.7622375
18.9682636 38.0195808 -104.2746964
-16.9792557 37.5409203 -87.9903946
-19.7231789 37.5380783 -88.0633621
-50.6268692 37.8820648 -101.0307770
-53.5684471 37.9616318 -103.9948044
21.8303757 40.9536896 -109.1960602
18.9767303 40.8403893 -105.5058060
16.1569347 40.7470779 -102.4946289
13.3375206 40.6658325 -99.9445496
-44.9033432 40.5700722 -97.4389496
-47.7880554 40.6370316 -99.6200409
-50.6852951 40.7130241 -102.1922531
18.9859962 43.6797523 -107.0798340
16.1550713 43.5722733 -103.8858032
13.3441429 43.4814835 -101.2447968
-44.9734573 43.3985901 -98.6963730
-47.8604660 43.4748306 -100.9744873
19.0070972 46.5438881 -109.0639191
16.1636562 46.4188347 -105.6197205
13.3472719 46.3165359 -102.8335495
10.5480909 46.2331085 -100.4735031
7.7639780 46.1600685 -98.4804230
-0.5478556 46.0034027 -94.1182938
-3.2969863 45.9683990 -93.1326294
-39.3362427 46.1033783 -96.4951706
-42.1864624 46.1681480 -98.2038574
-45.0453949 46.2423706 -100.2178192
-47.9530411 46.3357315 -102.6474686
16.1836815 49.2934723 -107.7828369
13.3529301 49.1737366 -104.7553558
10.5474424 49.0761147 -102.2283554
7.7570643 48.9927368 -100.1183243
-0.5617375 48.8223305 -95.5980835
-3.3179307 48.7822762 -94.5496368
-39.4132614 48.9509048 -98.1344757
-42.2703362 49.0241623 -99.9456635
-45.1427994 49.1103592 -102.0815125
-48.0527534 49.2128525 -104.6576996
16.2016830 52.1934967 -110.4535599
13.3735905 52.0610962 -107.1122513
10.5482388 51.9451904 -104.3618927
7.7620153 51.8542824 -102.1193390
4.9647713 51.7778625 -100.2287750
2.1957312 51.7095566 -98.6435623
-33.8463440 51.6911850 -97.1814270
-36.6590652 51.7463684 -98.4773560
-39.5009308 51.8157845 -100.0817566
-42.3653908 51.9043198 -102.0129700
-45.2566261 52.0057449 -104.3317490
13.3821020 54.9783134 -110.0131454
10.5572014 54.8492546 -106.9709244
7.7640190 54.7419815 -104.5085526
4.9565630 54.6526413 -102.4667511
2.1820974 54.5812149 -100.7648926
-33.9215736 54.5644531 -99.2555695
-36.7521057 54.6290741 -100.6649475
-39.6057472 54.7156868 -102.4005890
-42.4817657 54.8137436 -104.4983521
10.5706158 57.7960777 -110.1960449
7.7587280 57.6700439 -107.4071884
4.9508162 57.5671425 -105.1505127
2.1738789 57.4780159 -103.2813034
-0.6178623 57.4135513 -101.7663269
-3.3859510 57.3571396 -100.5316467
-28.3785515 57.3495750 -99.4947052
-31.1917858 57.4062119 -100.4773560
-34.0170631 57.4682922 -101.7315979
-36.8673019 57.5517616 -103.2954865
-39.7272224 57.6473427 -105.1963425
-42.6243210 57.7677994 -107.5592194
7.7666264 60.6415253 -111.0206451
4.9486890 60.5259666 -108.4436722
2.1615481 60.4215050 -106.3446503
-0.6374171 60.3470917 -104.6622925
-3.4177554 60.2762833 -103.2892456
-28.4734192 60.2768745 -102.2256775
-31.2950706 60.3392792 -103.3179626
-34.1335983 60.4172134 -104.7171783
-36.9957466 60.5148010 -106.4758759
2.1484990 63.4192200 -110.1198883
-0.6644804 63.3254089 -108.1853409
-3.4433868 63.2445259 -106.6439362
-6.2299929 63.1900558 -105.4529877
-9.0144587 63.1481285 -104.5566177
-17.3686638 63.1060867 -103.4393692
-20.1589012 63.1252251 -103.5857620
-22.9466572 63.1501160 -103.9652786
-25.7636490 63.1928329 -104.6121292
-28.5734634 63.2456589 -105.5129547
-31.4107685 63.3191299 -106.7500000
-34.2616234 63.4165726 -108.3822784
-0.6891943 66.3738556 -112.7054367
-3.4730759 66.2784882 -110.8331451
-6.2685609 66.2109528 -109.4275818
-9.0677004 66.1576462 -108.3960876
-17.4465065 66.1129150 -107.1681747
-20.2426338 66.1272659 -107.3148499
-23.0515728 66.1600266 -107.7538528
-25.8751488 66.2157593 -108.5318604
-28.7144432 66.2869873 -109.6431732
-9.1273642 69.2529602 -113.4213257
-11.9371624 69.2153015 -112.5376968
-14.7389536 69.2014465 -112.0772171
-17.5421791 69.1970673 -111.9064178
-20.3562851 69.2220612 -112.1151657
10.4360247 -121.0700836 112.3498077
9.3035221 -121.0471497 112.5764618
8.2497997 -121.0276031 112.6516266
7.1617918 -121.0740356 112.6639175
6.0060720 -121.1361237 112.6056061
4.8240538 -121.2155609 112.3933258
16.0773296 -119.6146698 113.5820389
14.8703480 -119.4805603 114.3115540
13.7912960 -119.4210968 114.7830200
12.7559433 -119.3961105 115.1381607
11.6230459 -119.3711243 115.4986267
10.4146690 -119.3393097 115.8052368
9.2728386 -119.3336411 116.0047913
6.0031748 -119.4083252 116.0298233
4.8116913 -119.4656525 115.8779526
3.7467570 -119.5227966 115.6933517
2.7081418 -119.5922394 115.4164581
1.5758927 -119.6914978 115.0183563
0.3686812 -119.8182831 114.5025711
-0.7768539 -119.9817657 113.9104919
20.4934292 -118.4044647 113.5551682
19.3346291 -118.2521057 114.5715637
18.3019962 -118.1570587 115.2952576
17.2159233 -118.0734253 115.9578934
16.0293465 -117.9763947 116.6656494
14.8155384 -117.8968506 117.2881622
13.7577572 -117.8603973 117.6684952
12.7439976 -117.8453827 117.9401855
11.6172104 -117.8178101 118.2408752
10.4015026 -117.8024368 118.5083771
9.2481489 -117.8090591 118.6739807
6.0014887 -117.8771515 118.7091064
4.7866087 -117.9317627 118.5839691
3.7264454 -117.9851685 118.4271011
2.7204220 -118.0465393 118.2125168
1.5972861 -118.1242905 117.8952103
0.3760836 -118.2183838 117.4636230
-0.7729676 -118.3377228 116.9630737
-1.7993386 -118.4641571 116.4658508
-2.8742843 -118.6216431 115.8494110
-4.0482674 -118.8110657 115.0325394
22.8260765 -117.1277695 114.4033051
21.6762829 -116.9563065 115.4917755
20.4462986 -116.8046722 116.5523987
-2.8184166 -117.0471191 118.4896622
-4.0163927 -117.2088165 117.7590942
-5.2378297 -117.3789215 116.9460373
24.8998337 -115.8574982 115.1535034
23.8088474 -115.6996155 116.2457047
22.7681808 -115.5865250 117.1206894
21.6276932 -115.4649048 118.0261536
20.3904686 -115.3132553 118.9968796
-2.7937276 -115.6053314 120.6936798
-3.9918737 -115.7397003 120.0666046
-5.2388415 -115.9020538 119.3136520
27.2757645 -114.7714081 114.9273148
26.0597401 -114.5453262 116.3924103
24.8425350 -114.3506470 117.6928329
-5.2359891 -114.4842987 121.3560333
-6.2951503 -114.6159668 120.7568130
-7.2626534 -114.7320557 120.1629791
-8.3898478 -114.8803253 119.3638153
-9.6569033 -115.1105347 118.2875366
29.3840561 -113.6374817 114.9407959
28.3164749 -113.4497452 116.2070541
27.2154789 -113.2800751 117.4076385
26.0156288 -113.1001816 118.6536865
24.7799301 -112.9225922 119.8311920
-5.2290840 -113.1188660 123.1132278
-6.2809010 -113.2377625 122.5693512
-7.2318530 -113.3370438 122.0644073
-8.3553181 -113.4884567 121.3218613
-9.6194115 -113.6791077 120.3574905
-10.7911968 -113.8700790 119.4218369
-11.8318605 -114.0742188 118.5464554
30.4999142 -112.3803024 115.8828506
29.3085995 -112.1532288 117.3606644
17.1144505 -111.0922165 125.6069183
15.9032688 -111.0234222 126.0924072
14.6525602 -110.9764404 126.5418777
13.6210670 -110.9671631 126.7600784
12.6733313 -110.9877853 126.8548737
11.5637484 -110.9763031 127.0413971
10.2936478 -110.9618759 127.2806091
9.1342640 -110.9673309 127.4105911
8.2002487 -110.9965210 127.4135132
7.2032843 -111.0254898 127.3962708
5.9897695 -111.0512238 127.3881989
4.7162590 -111.0935669 127.3343658
-11.7719955 -112.6215897 120.5309143
-12.8201227 -112.8047485 119.6131897
-14.0283966 -113.0439758 118.3621521
31.6826382 -111.1938324 116.4300385
30.4257870 -110.9390717 118.0717545
29.2522068 -110.7385254 119.4055557
17.1026764 -109.8091125 126.9192810
15.8826714 -109.7524796 127.3901138
14.6274529 -109.6978302 127.8602066
13.6012592 -109.6806717 128.0652161
12.6633339 -109.7265778 128.1063843
11.5665369 -109.7081985 128.3008728
10.2812185 -109.6896744 128.5489044
9.1168652 -109.6996613 128.6642456
8.2005272 -109.7322693 128.6512451
7.2053351 -109.7632751 128.6364594
5.9840617 -109.7779312 128.6573792
4.7053041 -109.8105316 128.6172485
-11.7497911 -111.2663040 122.2643661
-12.7804213 -111.4201279 121.4614105
-13.9915781 -111.6409607 120.3238831
-15.2435522 -111.8893051 119.0240707
32.7825165 -110.0054855 116.9645233
31.6035233 -109.7785110 118.4729462
21.4691048 -108.7333679 126.3682404
20.2088490 -108.6213531 127.1156845
19.0606270 -108.5623093 127.6572571
18.0998402 -108.5713806 127.8550720
17.0783978 -108.5603714 128.1228638
9.1046782 -108.4501648 129.8363190
8.2005520 -108.4786835 129.7985992
4.7023044 -108.5686188 129.7669678
3.6887431 -108.6297379 129.6541595
2.7771544 -108.6644135 129.5571747
1.6775234 -108.6986008 129.4046936
0.3796433 -108.7705231 129.1143494
-0.7921276 -108.8621368 128.8180389
-1.7128479 -108.9050751 128.6400452
-2.6958137 -108.9606171 128.4078979
-3.9229391 -109.0800247 127.9097595
-5.2133789 -109.2207794 127.3273010
-6.2307606 -109.2994537 126.9372787
-7.1618686 -109.3667679 126.6105042
-8.2695408 -109.4789886 126.0421143
-13.9529991 -110.2842560 122.0501251
-15.1986799 -110.5005341 120.8298111
34.8986320 -109.0162811 116.0638199
33.7825089 -108.7912750 117.6048660
32.7139893 -108.6143188 118.8939514
31.5565548 -108.4328537 120.2056427
21.4477520 -107.4776535 127.5597382
20.1729412 -107.3644562 128.3011627
4.6912479 -107.3354416 130.8144531
3.6729991 -107.3805542 130.7272949
0.3735117 -107.5414429 130.1951141
-0.7951608 -107.6333160 129.9036560
-1.7069315 -107.6797791 129.7754517
-2.6771533 -107.7518005 129.5979614
-3.9208829 -107.8660812 129.1121979
-5.2124662 -107.9828873 128.5205994
-8.2435837 -108.2169418 127.3109131
-13.9270086 -108.9629135 123.5636902
-15.1785908 -109.1759720 122.4381866
-16.2570114 -109.3583908 121.4692535
-17.2900772 -109.5480194 120.4658279
34.8374329 -107.6291809 117.9981308
33.7155800 -107.4288635 119.4069901
21.4236069 -106.2458801 128.6433105
5.9678302 -106.0801773 131.8519897
4.6738110 -106.1267853 131.7862244
3.6787694 -106.1729507 131.7117004
0.3647149 -106.3370209 131.1810913
-0.7846187 -106.4083405 130.9425507
-5.2061887 -106.7256622 129.5825348
-8.2277069 -106.9679871 128.4697876
-16.2216072 -108.0400391 122.9691391
-17.2513027 -108.2132034 122.0238876
-18.4025612 -108.4510880 120.8479004
36.0209732 -106.5450745 117.9882889
34.7746735 -106.2962494 119.6782990
33.6697960 -106.1246643 120.9357376
21.3986435 -105.0213013 129.6441803
5.9537659 -104.8835144 132.7520142
4.7036266 -104.9092178 132.7170715
3.6874311 -104.9531708 132.6451111
2.7607265 -104.9914093 132.5700989
1.6739135 -105.0354462 132.4278259
-5.1953807 -105.5020065 130.5621033
-6.2261176 -105.5862808 130.2294922
-8.2093029 -105.7235413 129.5577393
-16.2090340 -106.7660141 124.2824860
-17.2243462 -106.9194946 123.4257813
-18.3548069 -107.1212769 122.3351364
-19.5926208 -107.3766479 121.0011520
37.1794815 -105.4557495 117.9027405
35.9622421 -105.2151718 119.5968552
21.3648033 -103.8035431 130.5977631
9.0711498 -103.6012421 133.6607971
8.1484852 -103.6451035 133.6245422
7.1637106 -103.6729355 133.6023254
5.9475117 -103.6928024 133.6020203
4.6864529 -103.7436905 133.5456238
3.6768885 -103.7700043 133.4912415
2.7734594 -103.7789078 133.4506226
1.6731298 -103.8390274 133.3117981
-8.2206039 -104.5287170 130.5366364
-9.5050926 -104.6695557 129.7482147
-10.6978664 -104.8208618 129.0782166
-18.3222313 -105.8284454 123.6910095
-19.5488892 -106.0596161 122.4148865
39.3630791 -104.5977936 116.1951599
38.2602386 -104.3668671 117.8743896
37.1368523 -104.1527405 119.4206543
35.9069977 -103.9251938 121.0153656
21.3545780 -102.6328125 131.4574127
20.0866528 -102.5326233 132.1509857
9.0593090 -102.4311523 134.4297333
8.1438341 -102.4630432 134.4169617
7.1611533 -102.4900742 134.4066467
5.9521403 -102.5082092 134.3990479
4.6864004 -102.5642700 134.3344269
3.6692755 -102.6018066 134.2808228
2.7435267 -102.6272736 134.2294312
1.6602929 -102.6621017 134.1028595
-8.2159882 -103.3336487 131.4135437
-9.4848261 -103.4570236 130.6773987
-10.6767235 -103.6054688 130.0341797
-18.2955379 -104.5705338 124.9075317
-19.5189972 -104.7872162 123.7151031
-20.7064514 -105.0087509 122.4951248
-21.7747097 -105.2120361 121.3283463
40.5059433 -103.5568466 115.8808594
39.2895813 -103.2680054 117.8549728
38.2002106 -103.0641022 119.3694992
21.3269768 -101.4440613 132.2888489
20.0611572 -101.3513489 132.9562225
10.2080603 -101.2837372 135.0755615
9.0713282 -101.2763214 135.1475220
5.9451308 -101.3449936 135.1366425
4.6860733 -101.3890076 135.0891724
0.3910807 -101.5623703 134.6009827
-0.7637494 -101.6245346 134.3704987
-1.6975393 -101.6632690 134.2399292
-9.4643393 -102.2643585 131.5419006
-10.6435356 -102.4005127 130.9325409
-20.6663437 -103.7412949 123.7363358
-21.7197914 -103.9244232 122.6519547
-22.8407154 -104.1604156 121.4210663
39.2315102 -101.9772263 119.2889099
38.1418533 -101.7931061 120.6883545
21.3033276 -100.2777405 133.0507202
20.0521145 -100.1901550 133.6773682
9.0745316 -100.1036682 135.8527527
5.9328318 -100.1929626 135.8265076
4.6894188 -100.2221451 135.7895050
3.6744387 -100.2683563 135.7291107
0.3943073 -100.4070511 135.3031311
-9.4626770 -101.0931473 132.3290710
-10.6183367 -101.2026443 131.7718201
-20.6459618 -102.5040131 124.8277206
-21.7039490 -102.6780701 123.7985840
-22.8013191 -102.8827057 122.6316681
-24.0126076 -103.1523438 121.2229919
41.6478195 -101.2425461 116.8188171
40.3827858 -100.9541245 118.8483200
39.1857414 -100.7233734 120.5354233
38.0914383 -100.5493546 121.8622131
21.2825203 -99.1235199 133.7560120
20.0413647 -99.0344925 134.3572388
9.0619278 -98.9756317 136.4808960
3.6800838 -99.1169510 136.3706970
2.7348547 -99.1445770 136.3156128
1.6463393 -99.1802673 136.1941528
0.3934795 -99.2609024 135.9566650
-5.1500382 -99.5976639 134.5948944
-6.1710348 -99.6584396 134.3180389
-7.0835943 -99.6812592 134.1514893
-8.1999683 -99.7830734 133.7025452
-9.4599037 -99.9224167 133.0682526
-10.6100016 -100.0339661 132.5303650
-22.7680111 -101.6337738 123.7537689
-23.9570808 -101.8749237 122.4077225
42.7844467 -100.2380676 116.2141266
41.5760880 -99.9581604 118.2043839
40.3245850 -99.7058411 120.0828781
39.1325455 -99.4894028 121.6682663
38.0497093 -99.3314896 122.9127502
21.2543945 -97.9696960 134.4230194
20.0287361 -97.8916626 134.9960632
12.5235205 -97.8422241 136.6472321
11.4235697 -97.8187103 136.7998962
10.1947765 -97.8178864 136.9919128
9.0653152 -97.8336334 137.0778198
3.6812444 -97.9720840 136.9811096
2.7210026 -98.0024719 136.9199524
1.6273423 -98.0437469 136.7978058
0.4060948 -98.1048279 136.5805664
-0.7404630 -98.1709290 136.3707123
-1.6986853 -98.2048721 136.2497864
-2.6821210 -98.2319183 136.1042786
-3.8733573 -98.3277512 135.7142029
-5.1115575 -98.4299698 135.2790985
-6.1533060 -98.5023956 134.9961853
-7.0978670 -98.5405731 134.7934113
-8.1983519 -98.6266251 134.3641663
-9.4333305 -98.7501831 133.7721252
-10.6002054 -98.8735504 133.2319489
-22.7345676 -100.4065704 124.7884598
-23.9221439 -100.6269989 123.4893265
-25.1521664 -100.8936157 121.9863739
42.7122688 -98.9566345 117.5846558
21.2399940 -96.8316422 135.0380249
20.0130215 -96.7577362 135.5859070
18.8937874 -96.7317276 135.9816284
17.9188347 -96.7371597 136.1465149
16.8751259 -96.7399139 136.3308716
15.7069168 -96.6912460 136.6867981
14.5058327 -96.6583481 137.0398407
13.4776630 -96.6691132 137.1650696
12.5032825 -96.7043304 137.2088928
11.4016933 -96.7046585 137.3558502
-25.1026592 -99.6422958 123.0804138
43.8036346 -97.9560013 116.9822464
42.6602020 -97.7152710 118.7847290
21.2196770 -95.6927032 135.6176300
20.0080414 -95.6335831 136.1240997
18.8820992 -95.6010971 136.5046539
17.8943062 -95.5968628 136.6951904
16.8534565 -95.6005173 136.9039612
15.7040930 -95.5712585 137.2290802
14.5072594 -95.5494537 137.5462952
13.4723167 -95.5518494 137.6826324
12.4902267 -95.5662689 137.7572479
11.3931589 -95.5698318 137.8988342
-25.0808182 -98.4264984 124.0561371
43.7390785 -96.7052917 118.1753922
42.6013451 -96.4859543 119.8764648
-25.0711861 -97.2322693 124.9323578
-26.2000160 -97.4393768 123.6807632
-27.2804775 -97.6467819 122.4109802
44.8593140 -95.7363968 117.3572083
43.6917038 -95.4899063 119.2130432
42.5573578 -95.2873917 120.8235779
-25.0418892 -96.0435486 125.7401047
-26.1696396 -96.2412720 124.5327530
-27.2437134 -96.4373474 123.3036346
44.7885857 -94.5115433 118.4032745
-27.2291107 -95.2499084 124.0987625
-28.3950043 -95.4843445 122.7077866
46.0357361 -93.6033325 117.1893158
44.7479248 -93.3147812 119.3167038
-27.2070122 -94.0732269 124.8428802
-28.3535347 -94.2871246 123.5086975
45.9561615 -92.3880157 118.1630630
44.7257767 -92.1416626 120.1147766
-27.1892090 -92.9074326 125.5206146
-28.3363380 -93.1150208 124.2099686
47.1526909 -91.4766769 116.8768692
45.9279366 -91.2150421 118.9527054
44.6777611 -90.9662781 120.8715973
-27.1675720 -91.7501373 126.1466446
-28.3021507 -91.9452972 124.8880920
47.1030006 -90.2951508 117.6928558
8.0448503 -87.8995056 140.9113312
6.9736757 -87.9244766 140.9322662
5.8701310 -87.9458313 140.9282227
4.7382112 -87.9724121 140.8939667
3.6827514 -88.0023575 140.8432617
2.6390440 -88.0350189 140.7743073
-27.1391621 -90.5996933 126.7308502
-28.2950439 -90.7964325 125.4815674
-29.4820766 -91.0116348 124.0819778
-30.6677666 -91.2583237 122.5446854
47.0602570 -89.1254501 118.4297333
8.0392628 -86.8231354 141.1942444
6.9673114 -86.8456650 141.2141418
4.7377081 -86.8961563 141.1766357
3.6816745 -86.9224472 141.1250458
2.6336064 -86.9551010 141.0548553
-27.1242790 -89.4604492 127.2447052
-28.2782898 -89.6517029 126.0222855
-29.4537735 -89.8574753 124.6685715
-30.6413097 -90.0834274 123.1955872
48.2320442 -88.2234650 117.0680389
47.0210152 -87.9702148 119.0906143
23.2256069 -85.8359222 138.4643402
22.1613159 -85.8095474 138.8273621
21.0702400 -85.7869720 139.1865387
19.9345398 -85.7569885 139.5407410
16.7193317 -85.7204056 140.3476563
15.6107016 -85.7095642 140.5865021
14.4802990 -85.6999435 140.8027802
13.4230051 -85.7006989 140.9610443
12.3691463 -85.7094269 141.0838165
11.2818441 -85.7077484 141.2031708
8.0294170 -85.7437134 141.4474030
3.6819801 -85.8442459 141.3846436
2.6292090 -85.8752899 141.3126221
-29.4383812 -88.7183456 125.1910706
-30.6292858 -88.9355087 123.7593613
-31.7572708 -89.1553116 122.3173904
48.1980400 -87.0701904 117.6891174
46.9911423 -86.8289108 119.6701813
23.2155075 -84.7658234 138.7000427
22.1439877 -84.7452240 139.0603485
19.9334755 -84.6899796 139.7587128
16.7109680 -84.6466064 140.5828094
15.6042051 -84.6367035 140.8175049
14.4805317 -84.6306305 141.0292816
13.4139061 -84.6297607 141.1817017
12.3739100 -84.6451340 141.2736359
11.2798748 -84.6490784 141.3776398
8.0271235 -84.6767349 141.6635590
6.9486375 -84.6978683 141.6839600
5.8570833 -84.7198029 141.6829987
4.7365255 -84.7460098 141.6592712
3.6827021 -84.7729492 141.6132660
2.6210816 -84.8075485 141.5357666
-29.4239197 -87.5841522 125.6683960
-30.5994511 -87.7914658 124.2888412
-31.7217503 -88.0005417 122.8776855
-32.9234428 -88.2535782 121.2931213
49.3483429 -86.1793900 116.1686935
48.1550751 -85.9220200 118.2809525
46.9628601 -85.6956024 120.1851578
23.2069473 -83.6888351 138.9037476
19.9183998 -83.6165161 139.9626312
18.8289928 -83.6002045 140.2815857
17.7716427 -83.5858765 140.5508118
16.6941891 -83.5770493 140.7961731
15.5964632 -83.5705643 141.0258484
10.1405430 -83.5765915 141.7336426
9.0687237 -83.5955505 141.8135376
8.0159035 -83.6109085 141.8604126
6.9435544 -83.6321716 141.8788757
5.8477449 -83.6563034 141.8780823
4.7356820 -83.6772690 141.8597107
3.6718063 -83.7022552 141.8133392
2.6140041 -83.7360992 141.7343445
1.5334406 -83.7741165 141.6343384
0.4268484 -83.8105011 141.5157013
-0.6705083 -83.8519745 141.3713379
-1.7250307 -83.8975449 141.2005768
-2.7969964 -83.9441833 141.0004883
-3.8894424 -83.9962845 140.7775879
-31.7125206 -86.8658142 123.3478622
49.3060951 -85.0307617 116.7560272
48.1223488 -84.7891541 118.7937469
46.9300194 -84.5710373 120.6447906
23.1925144 -82.6232376 139.0900574
19.9157143 -82.5544281 140.1454620
18.8298569 -82.5390396 140.4623566
17.7634926 -82.5228500 140.7297058
16.6685562 -82.5081787 140.9720154
15.5840521 -82.5043640 141.2042542
10.1453934 -82.5117950 141.9107819
9.0620499 -82.5314331 141.9931030
8.0125856 -82.5510712 142.0369110
6.9354625 -82.5611115 142.0597229
2.6046331 -82.6721039 141.9132843
-0.6709991 -82.7837677 141.5654755
-1.7222525 -82.8262177 141.3895874
-2.8075237 -82.8779678 141.1957092
-3.8891325 -82.9240875 140.9827576
-31.6908493 -85.7320480 123.7907639
-32.8738518 -85.9621658 122.2760315
50.5569763 -84.1932678 114.8674316
49.2821808 -83.9000015 117.2260971
23.1907082 -81.5593491 139.2577820
12.3362732 -81.4468765 141.8731079
11.2504101 -81.4507446 141.9777374
10.1498280 -81.4624023 142.0784912
9.0606861 -81.4722900 142.1514740
8.0134916 -81.4867554 142.1938171
6.9254980 -81.5092087 142.2176971
-3.9171693 -81.8754120 141.1690521
-5.0082326 -81.9151382 140.8964233
-6.0766659 -81.9716339 140.6231384
-7.1563544 -82.0331726 140.3234863
-8.2435150 -82.0958328 139.9963531
-31.6735497 -84.6083221 124.1802979
-32.8508224 -84.8293152 122.6862106
49.2590179 -82.7815094 117.6391602
23.1919785 -80.5054626 139.4118652
22.1134930 -80.4802551 139.7822876
-7.1537457 -80.9669876 140.4742126
-8.2474957 -81.0320282 140.1421509
-31.6621208 -83.4929428 124.5179520
-32.8242569 -83.7043610 123.0520630
-34.0385590 -83.9434891 121.4437256
49.2325439 -81.6673889 118.0104752
27.5872364 -79.5969925 137.7110138
26.4901409 -79.5524139 138.2146149
25.3920479 -79.5147858 138.6851807
24.2593918 -79.4804688 139.1323242
23.1814995 -79.4503784 139.5285492
-7.1630001 -79.9077606 140.6009064
-8.2486582 -79.9717255 140.2732849
-9.3417244 -80.0321274 139.9325409
-10.4479103 -80.1014404 139.5608368
-31.6438103 -82.3816376 124.8205795
-32.8133774 -82.5898132 123.3615265
50.4422607 -80.8113556 116.1391983
49.2158203 -80.5616760 118.3194580
27.5742626 -78.5391769 137.8183136
26.4840012 -78.4994812 138.3142853
25.3767624 -78.4606247 138.7829742
24.2474194 -78.4270172 139.2241821
23.1786385 -78.4016571 139.6122437
-9.3485746 -78.9756241 140.0371246
-10.4545002 -79.0445633 139.6614685
-31.6461830 -81.2819672 125.0560913
-32.8015900 -81.4815292 123.6328430
-33.9875298 -81.7022095 122.0672379
51.7185936 -79.9976196 113.9101486
50.4161491 -79.7045135 116.4223785
49.2014618 -79.4652405 118.5636520
29.7575493 -77.5793762 136.8122253
28.6477127 -77.5304337 137.3798523
27.5613251 -77.4861298 137.8943787
26.4627361 -77.4476318 138.3820953
-9.3508968 -77.9207001 140.1103821
-10.4585314 -77.9877930 139.7376099
-31.6391964 -80.1853180 125.2599411
-32.7913704 -80.3803177 123.8574295
-33.9685059 -80.5945663 122.3087921
51.6887207 -78.8922195 114.1756592
50.4065247 -78.6115265 116.6306610
49.1860085 -78.3758774 118.7558746
29.7571640 -76.5301895 136.8684082
28.6395779 -76.4810791 137.4291534
-9.3522949 -76.8693771 140.1681213
-10.4545441 -76.9332199 139.7939606
-31.6377678 -79.0955963 125.4173203
-32.7889900 -79.2862015 124.0317383
-33.9717255 -79.4963150 122.5042343
51.6858368 -77.7963104 114.3781891
50.3887138 -77.5201950 116.8172226
49.1726685 -77.2926178 118.8947220
29.7496758 -75.4825439 136.9029846
28.6353607 -75.4350815 137.4482422
-9.3551216 -75.8181610 140.2105408
-10.4624338 -75.8861084 139.8246613
-31.6219368 -78.0071030 125.5552063
-32.7885437 -78.1962967 124.1690979
50.3933525 -76.4406738 116.9224014
49.1643562 -76.2166138 118.9846878
29.7364349 -74.4363403 136.9159546
28.6317234 -74.3931198 137.4602661
25.3530579 -74.2795258 138.9339905
-10.4664431 -74.8378448 139.8471985
-31.6346283 -76.9292068 125.6264877
-32.8011093 -77.1145325 124.2575760
50.3807831 -75.3640060 116.9932938
49.1566925 -75.1439362 119.0453415
29.7385731 -73.3971024 136.8908386
28.6299152 -73.3534622 137.4407959
27.5479736 -73.3269882 137.9528351
25.3357315 -73.2553253 138.9054413
-11.5430346 -73.8587189 139.4441528
-12.6394815 -73.9298325 139.0097809
-31.6259041 -75.8501816 125.6912231
-32.7924538 -76.0328064 124.3294220
-33.9556961 -76.2274017 122.8567810
-35.1693687 -76.4471741 121.1955566
51.6254692 -74.5451508 114.6468430
50.3737183 -74.2934494 117.0063782
49.1401901 -74.0754089 119.0691299
29.7379971 -72.3602219 136.8456116
28.6186562 -72.3141174 137.4007263
-12.6343584 -72.8843689 138.9868011
-31.6297989 -74.7789383 125.7038498
-32.7914200 -74.9575653 124.3528290
-33.9510994 -75.1485596 122.8894501
-35.1676064 -75.3637772 121.2440796
51.6628456 -73.4990768 114.6265564
50.3868179 -73.2293701 116.9781418
49.1526985 -73.0187454 118.9924469
29.7291088 -71.3233566 136.7843170
28.6230183 -71.2801056 137.3337708
-12.6439934 -71.8432693 138.9329681
-33.9454803 -74.0736008 122.8914948
-35.1656761 -74.2853699 121.2504044
50.3827858 -72.1687317 116.9110641
49.1520157 -71.9640961 118.8968658
29.7346783 -70.2910919 136.6903687
28.6225967 -70.2481537 137.2438660
-10.4772768 -70.6733322 139.6704559
-11.5513229 -70.7371521 139.2756653
-12.6536188 -70.8052216 138.8511505
-33.9509735 -73.0051117 122.8402557
-35.1691589 -73.2127533 121.2060776
50.3744240 -71.1165543 116.7602997
49.1580238 -70.9125748 118.7675858
29.7319145 -69.2601089 136.5792999
28.6157207 -69.2172241 137.1361389
27.5349636 -69.1701050 137.6323395
-11.5613852 -69.7015076 139.1773376
-12.6637897 -69.7689972 138.7497711
-13.7344103 -69.8370514 138.3123627
-14.8503742 -69.9114151 137.8257446
-33.9579010 -71.9411545 122.7468185
-35.1750374 -72.1453094 121.1134720
51.6526718 -70.3061371 114.2156754
50.3766060 -70.0697250 116.5612030
49.1532860 -69.8629684 118.6211853
29.7389851 -68.2317047 136.4406281
28.6201382 -68.1888428 137.0081177
27.5306835 -68.1507797 137.5235901
26.4267464 -68.1151962 138.0192108
-12.6614113 -68.7334366 138.6373596
-13.7480183 -68.8024445 138.1867676
-14.8571825 -68.8759537 137.6995697
-33.9625511 -70.8813934 122.6151276
51.6426582 -69.2596588 113.9870834
27.5306492 -67.1260452 137.3602905
26.4212189 -67.0904541 137.8616943
-14.8670769 -67.8407135 137.5596619
-33.9754028 -69.8242416 122.4549255
51.6547470 -68.2223511 113.6570282
27.5325966 -66.1041107 137.1732483
26.4254074 -66.0671768 137.6824188
-10.4974461 -66.5488129 139.1166229
-14.8751545 -66.8086929 137.3916168
-34.0009842 -68.7704773 122.2528534
51.6922722 -67.1880646 113.2833023
50.4436302 -66.9541473 115.7289047
49.1894150 -66.7514954 117.8003998
27.5293789 -65.0820770 136.9743347
-10.4925089 -65.5222092 138.9287720
-11.5869226 -65.5740051 138.5544739
-13.7836914 -65.6950912 137.6851349
-14.8756819 -65.7812042 137.1886597
-31.6745739 -67.3817291 124.8312302
-32.8500748 -67.5468750 123.4591064
-33.9999237 -67.7207184 122.0170975
49.2013931 -65.7228699 117.4288864
27.5284653 -64.0633392 136.7486115
26.4253387 -64.0280914 137.2497253
25.3378410 -63.9969864 137.7126465
-9.3966322 -64.4412537 139.0828857
-10.5002174 -64.4983826 138.7102356
-11.5844326 -64.5573425 138.3222504
-12.6952419 -64.6192245 137.8958893
-13.7749062 -64.6850052 137.4523621
-14.8739529 -64.7547684 136.9727020
-31.6965084 -66.3401642 124.5537338
-32.8739548 -66.5043488 123.1709213
-34.0219498 -66.6765671 121.7186356
-35.2233276 -66.8690796 120.0697784
50.4532318 -64.8978806 114.8689117
49.2159348 -64.7004395 116.9992294
25.3373260 -62.9815903 137.4556274
-9.4146690 -63.4188690 138.8376465
-10.5183897 -63.4753265 138.4669800
-31.7166500 -65.2997284 124.2473907
-32.8822212 -65.4612732 122.8718872
51.7627563 -64.1100311 111.8164291
50.4589729 -63.8814926 114.3550110
49.2278175 -63.6792145 116.5412369
25.3379745 -61.9679565 137.1853027
24.2324581 -61.9393501 137.6301270
23.1518288 -61.9149208 138.0432434
-8.3326855 -62.3455086 138.9167023
-9.4235830 -62.3983231 138.5763092
-10.5188990 -62.4544716 138.2132263
-31.7291527 -64.2622833 123.9139023
-32.9004440 -64.4224396 122.5221252
50.4826317 -62.8602104 113.8280487
49.2555466 -62.6627502 116.0146637
-7.2500420 -61.2801743 138.9396362
-8.3351955 -61.3310814 138.6326294
-31.7472553 -63.2287216 123.5311737
-32.9272652 -63.3894157 122.1111984
-34.0856400 -63.5597839 120.6079407
49.2692070 -61.6487885 115.4564133
20.9570389 -59.8518028 138.1740570
-7.2674923 -60.2605972 138.6305237
-8.3457766 -60.3124275 138.3244781
-31.7674179 -62.1975708 123.1089096
-32.9388428 -62.3582306 121.6787186
50.5575104 -60.8411064 112.4800873
49.2996178 -60.6433372 114.7943115
20.9554558 -58.8466988 137.8280640
19.8674412 -58.8312759 138.1558228
-4.0008841 -59.1188507 139.0998840
-5.0960474 -59.1608200 138.8610382
-6.1685414 -59.2045288 138.6045532
-7.2685657 -59.2492294 138.3069305
-8.3633385 -59.2984924 137.9907532
-31.7904072 -61.1698608 122.6489868
-32.9736786 -61.3303528 121.1832275
49.3318863 -59.6394234 114.0826569
20.9658508 -57.8363266 137.4591675
19.8698616 -57.8241539 137.7895813
18.7769699 -57.8116951 138.0914307
15.5114632 -57.7920341 138.8486023
10.0937567 -57.8020897 139.6047974
8.9934673 -57.8102417 139.6843719
7.9171891 -57.8229179 139.7309875
6.8287916 -57.8394165 139.7543335
5.7468195 -57.8540497 139.7581482
4.6593513 -57.8751564 139.7511292
3.5859423 -57.8930435 139.7212524
-4.0059719 -58.1065903 138.7538452
-5.0938950 -58.1483727 138.5175323
-6.1839375 -58.1887779 138.2512207
-7.2782803 -58.2338181 137.9529114
-8.3719397 -58.2823029 137.6344299
-31.8139877 -60.1450157 122.1421661
-32.9886589 -60.3038864 120.6710815
49.3809624 -58.6394005 113.2856445
48.1589584 -58.4542236 115.4533844
46.9372330 -58.2858353 117.4242401
18.7823181 -56.8092575 137.6993103
17.6933384 -56.7905197 137.9667664
16.5890522 -56.7765579 138.2328796
15.5158224 -56.7832756 138.4694824
14.4128742 -56.7834282 138.6753235
13.3416748 -56.7824974 138.8503113
12.2506866 -56.7853851 139.0065918
11.1588697 -56.7878952 139.1297302
10.0803528 -56.7958679 139.2337341
8.9964066 -56.8084717 139.3163147
3.5794091 -56.8845711 139.3463745
0.3344408 -56.9607544 139.0882568
-31.8407936 -59.1230621 121.5856171
-33.0104675 -59.2811089 120.1012421
49.4114037 -57.6453552 112.4459000
48.1839981 -57.4592438 114.6777649
46.9616127 -57.2852554 116.7066650
18.7862492 -55.7995338 137.3067322
17.7007675 -55.7911453 137.5973511
16.5947723 -55.7798347 137.8523560
15.5173950 -55.7767105 138.0724335
14.4208317 -55.7736511 138.2737579
13.3371534 -55.7769585 138.4537964
12.2468748 -55.7804031 138.6054077
11.1604109 -55.7813187 138.7304535
10.0843763 -55.7920456 138.8404541
8.9971542 -55.7964973 138.9158020
3.5801797 -55.8803024 138.9574127
2.4893162 -55.9037590 138.8944550
1.3974098 -55.9252892 138.8078613
0.3236753 -55.9531555 138.6987762
-31.8623161 -58.1028557 120.9922485
-33.0545197 -58.2598763 119.4598541
48.2346840 -56.4612236 113.8152313
47.0010147 -56.2924271 115.9050598
-29.5766735 -56.8004341 123.0659637
-30.7423935 -56.9377480 121.7495804
-31.8869610 -57.0860977 120.3495483
48.2855110 -55.4648972 112.8950653
47.0275421 -55.3014870 115.0536652
-29.6012306 -55.7845612 122.4265442
-30.7658825 -55.9234962 121.0884857
-31.9208469 -56.0725670 119.6487885
47.0655136 -54.3115234 114.1145706
45.8814430 -54.1549950 116.0308380
44.6646194 -54.0121765 117.8323975
-29.6198330 -54.7718163 121.7484436
-30.8093033 -54.9128914 120.3545227
47.1445465 -53.3166428 113.0786362
45.9138908 -53.1676407 115.0958328
44.7058296 -53.0241165 116.9412079
-29.6636848 -53.7626495 120.9953995
-30.8349533 -53.9040146 119.5833664
-32.0099373 -54.0493698 118.0630798
45.9684715 -52.1801109 114.0628891
44.7382050 -52.0382690 115.9933167
-29.6845112 -52.7575150 120.2044296
46.0423203 -51.1904335 112.9321136
44.7761078 -51.0563622 114.9617462
-29.7228260 -51.7588081 119.3241577
44.8251343 -50.0777893 113.8355026
-27.4596615 -50.4949226 121.0872192
-28.6183758 -50.6191483 119.7908783
-29.7556934 -50.7528572 118.4129868
44.8928185 -49.0964813 112.5799484
-27.4987640 -49.4948921 120.1773529
-28.6498814 -49.6218491 118.8509445
-29.8081150 -49.7553253 117.3884048
44.9769669 -48.1176376 111.2124481
43.7511444 -47.9936295 113.2394867
42.5399551 -47.8612671 115.0977173
-27.5303097 -48.4969902 119.2077942
-28.6919003 -48.6222382 117.8280563
43.8122215 -47.0213928 111.8563385
42.5909500 -46.8910179 113.8112564
-27.5738297 -47.5013657 118.1507416
43.9185181 -46.0436249 110.2941589
42.6428223 -45.9269524 112.4283752
41.4410324 -45.7973976 114.2825851
40.2794380 -45.6781998 115.8820724
-23.0226650 -46.0742416 121.8532639
-24.1520901 -46.1718330 120.8063660
-25.3114052 -46.2762680 119.6417084
-26.4464188 -46.3890419 118.4089279
-27.6190376 -46.5053406 117.0271149
42.7278061 -44.9552841 110.8648682
41.4972992 -44.8358727 112.8713074
40.3182487 -44.7110481 114.5917816
-23.0528259 -45.0772476 120.8383255
-24.1879044 -45.1754761 119.7497406
-25.3485661 -45.2813072 118.5418549
-26.4956551 -45.3930779 117.2513733
41.5713615 -43.8688850 111.2933502
40.3691826 -43.7493057 113.1631546
-23.0903664 -44.0841713 119.7519455
-24.2238464 -44.1853752 118.6212921
41.6444702 -42.9130859 109.5636749
40.4245911 -42.7896843 111.5810623
-23.1362228 -43.0933838 118.5716095
-24.2645683 -43.1990967 117.3933411
40.5046616 -41.8277817 109.8252640
39.3092995 -41.7148628 111.7045898
38.1381073 -41.6067963 113.3942490
-23.1712379 -42.1064034 117.3057938
-24.3003788 -42.2161903 116.0739365
39.3833275 -40.7567520 109.9264526
38.1847496 -40.6547318 111.7555847
-23.2239799 -41.1231422 115.9203720
38.2709084 -39.6897316 109.8813782
37.0515213 -39.5963097 111.6956177
35.8897362 -39.4931107 113.2500916
-18.6882477 -39.7768784 118.9531708
-19.8185120 -39.8618164 117.9851913
-20.9730530 -39.9439926 116.8918610
-22.1060181 -40.0420113 115.7309189
-23.2639961 -40.1475525 114.4356079
37.1245804 -38.6367645 109.8105316
35.9436378 -38.5417290 111.5004349
-18.7320518 -38.7939491 117.5961533
-19.8509235 -38.8794975 116.5868301
-21.0045242 -38.9716682 115.4168701
36.0314484 -37.5658379 109.5455475
34.8206177 -37.4973755 111.2117310
33.6702690 -37.4108810 112.6682892
-18.7686005 -37.8091164 116.1205750
-19.9047279 -37.8996391 115.0161133
34.8991737 -36.5357666 109.1666412
33.7263565 -36.4653397 110.7726746
-18.8096237 -36.8353653 114.5126495
-19.9488106 -36.9309692 113.3086014
33.8228798 -35.4937668 108.5848694
32.6113358 -35.4339333 110.2408600
31.4404125 -35.3556862 111.6783447
-16.5778122 -35.6956787 114.9360352
-17.7065392 -35.7773743 113.8982391
-18.8562298 -35.8683853 112.7214203
-19.9929676 -35.9622116 111.4068756
32.7007484 -34.4700775 107.9328384
31.5080147 -34.4048157 109.5233307
-16.6141987 -34.7311401 113.1610107
-17.7598839 -34.8164368 112.0013962
-18.9128342 -34.9030304 110.7007675
31.5995808 -33.4362335 107.1176529
30.4042931 -33.3872757 108.6856537
29.2399940 -33.3171310 110.1075287
-12.1191988 -33.4790611 115.0662460
-13.2606096 -33.5403290 114.2139435
-14.3841314 -33.6098213 113.2964325
-15.5267982 -33.6850815 112.2681656
-16.6582489 -33.7677422 111.1498413
-17.8254967 -33.8434906 109.8591995
30.4995079 -32.4253006 106.1021576
29.3098679 -32.3790932 107.7013474
-12.1545715 -32.5097809 113.2030106
-13.3015356 -32.5739746 112.2620850
-14.4233665 -32.6450081 111.2666092
-15.5886612 -32.7125130 110.1220245
29.4227257 -31.4189072 104.8024139
28.2362556 -31.3814850 106.4539719
27.0464687 -31.3122158 107.8900986
25.8974190 -31.2462559 109.1366959
24.7453575 -31.1946716 110.2925110
-9.9325142 -31.4194641 112.8061295
-11.0642796 -31.4786758 111.9967270
-12.1963882 -31.5433712 111.0868988
27.1491795 -30.3409710 105.0425873
25.9802151 -30.2962914 106.4763260
24.7988892 -30.2585716 107.7850342
-9.9633904 -30.4610157 110.6311188
-11.1075182 -30.5241852 109.7241745
-12.2364521 -30.5808315 108.7344971
24.8798752 -29.3153763 104.7944870
23.7373619 -29.2750130 106.1077042
22.5713596 -29.2284355 107.2911453
21.4171677 -29.1744614 108.2845612
20.2733078 -29.1353321 109.1737900
-5.4921927 -29.2926598 111.1785736
-6.6078982 -29.3383579 110.5576248
-7.7359324 -29.3946419 109.8566284
-8.8606472 -29.4530067 109.0665359
-10.0044527 -29.5022736 108.1519318
22.6622257 -28.2658329 104.1417389
21.4792480 -28.2437840 105.3750305
20.3405056 -28.2089329 106.3808594
-5.5093212 -28.3401680 108.7128296
-6.6269369 -28.3936653 108.0197830
-7.7757740 -28.4285793 107.1901703
20.4185810 -27.2437191 102.9827118
19.2605953 -27.2278976 104.1478653
18.1194115 -27.2148933 105.1211777
16.9639626 -27.1805077 105.9385223
15.8334255 -27.1525192 106.6489944
14.6926031 -27.1278000 107.2840958
13.5764933 -27.1054878 107.8124924
12.4469776 -27.0906544 108.2455673
11.3096666 -27.0778999 108.5862961
1.2125064 -27.1713428 108.8485413
0.0942704 -27.1961403 108.5430679
-1.0219866 -27.2354259 108.2002182
-2.1477036 -27.2707863 107.7327652
-3.2826743 -27.3154869 107.1920929
-4.4020758 -27.3584633 106.5668640
-5.5462084 -27.3884182 105.8239746
17.0429878 -26.2187843 102.3273163
15.8917179 -26.2254066 103.2291107
14.7384768 -26.2197475 103.9898987
13.6127377 -26.1950588 104.6519699
12.4769440 -26.1836910 105.1843109
11.3393164 -26.1624107 105.5954895
1.2109140 -26.2438068 105.9162979
0.0901343 -26.2774582 105.5687332
-1.0381087 -26.3054810 105.1096802
-2.1722493 -26.3358879 104.5680542
-3.3109829 -26.3474369 103.9071732
12.5345306 -25.2351665 101.2670364
11.3772421 -25.2089367 101.8016663
10.2483025 -25.2263756 102.2353592
9.1131134 -25.2517929 102.6051102
7.9931593 -25.2495728 102.8675156
6.8479986 -25.2502518 102.9930115
5.7113495 -25.2545624 102.9927139
4.5831108 -25.2706528 102.9534302
3.4748769 -25.2819290 102.8273392
2.3408332 -25.2760601 102.5950623
1.1964369 -25.2882881 102.2133636
-44.6761475 -9.1753998 -111.8103638
-46.2015991 -9.2403383 -113.6073761
-41.6958694 -7.6687212 -107.1807175
-43.1565361 -7.7007465 -108.4420090
-44.6109657 -7.7391334 -109.8745575
-46.0933418 -7.7717977 -111.5045776
-40.2088051 -6.2083707 -104.5716705
-41.6374054 -6.2341223 -105.6152039
-43.0923309 -6.2685075 -106.8153076
-44.5411415 -6.2993612 -108.1453629
-46.0251236 -6.3296218 -109.6743469
-47.5048256 -6.3711147 -111.3350983
-49.0023956 -6.4292974 -113.1988831
18.5867958 -4.6562324 -117.7132721
-38.7053452 -4.7329664 -102.3265533
-40.1668320 -4.7865486 -103.2335052
-47.4202766 -4.9235168 -109.5840302
-48.9025383 -4.9576616 -111.3288727
-50.4319801 -5.0272903 -113.3314819
18.5636768 -3.2163553 -115.6030197
17.1195641 -3.1955571 -113.3312836
-37.2389984 -3.2951980 -100.3148499
-38.6604424 -3.3422599 -101.1060944
-40.0913429 -3.3541336 -101.9622879
-47.3429909 -3.4884076 -107.9909439
-48.8193016 -3.5173128 -109.6389618
19.9571266 -1.8065559 -116.1630325
18.5262871 -1.7825915 -113.7795334
17.0887070 -1.7694889 -111.6912537
-34.3807220 -1.8734756 -97.8217163
-35.8010063 -1.8968184 -98.5009308
-37.2125549 -1.9119058 -99.2251434
-47.2953110 -2.0669088 -106.6104736
-48.7594299 -2.0901260 -108.1580505
-50.2576447 -2.1249824 -109.9117355
21.3913422 -0.4016265 -116.9974747
19.9228687 -0.3733743 -114.3786316
18.5073032 -0.3624458 -112.1970978
17.0693417 -0.3491748 -110.2278366
15.6742191 -0.3410960 -108.4848938
14.2516747 -0.3338545 -106.9034500
-32.9477844 -0.4553625 -96.3290253
-34.3450584 -0.4658297 -96.8835144
-35.7639008 -0.4841989 -97.5249329
-37.1733704 -0.5015550 -98.2232208
-47.2417107 -0.6434230 -105.3430939
-48.6933708 -0.6626806 -106.7943420
-50.1720619 -0.6896553 -108.4437866
-51.6731033 -0.7334617 -110.2221146
21.3599606 1.0261688 -115.2629318
14.2206116 1.0923352 -105.7642059
12.8232222 1.0898029 -104.4177628
11.4193325 1.0913973 -103.1701660
10.0460434 1.0826468 -101.9918594
-32.9272766 0.9386324 -95.4856033
-34.3232193 0.9280954 -96.0239410
-50.1209068 0.7279981 -107.1516342
-51.5909653 0.7069142 -108.8497467
22.7738628 2.4294186 -116.2677994
21.3195076 2.4504347 -113.7147980
14.2024498 2.4931521 -104.7216644
12.7984333 2.4969363 -103.4164581
11.3940926 2.5054712 -102.2071991
10.0173054 2.4918015 -101.0683899
-31.4850845 2.3485518 -94.2039261
-32.9055519 2.3402584 -94.6940765
-34.3012886 2.3291166 -95.2256851
-50.0651169 2.1480002 -105.9818039
-51.5275841 2.1328073 -107.6105499
-53.0846291 2.0878305 -109.4833069
22.7393570 3.8566451 -114.7940674
21.3200836 3.8615472 -112.4197235
11.3914938 3.9033136 -101.3384857
9.9990559 3.8957317 -100.2548447
-31.4649696 3.7402248 -93.4860916
-52.9939346 3.5269234 -108.3067551
-54.4889221 3.5026765 -110.2537842
24.2023335 5.2499542 -116.1828842
22.7130013 5.2714186 -113.4896011
21.2898254 5.2746873 -111.2147369
11.3892078 5.2951541 -100.5457230
9.9904318 5.2939296 -99.4879303
8.6015177 5.2949262 -98.5052567
7.1990390 5.2877665 -97.5908356
-30.0794487 5.1410494 -92.4167786
-31.4431038 5.1369653 -92.8072052
-52.9424934 4.9424810 -107.2210617
-54.4196358 4.9293594 -109.0704041
24.1476326 6.6746812 -114.8815384
8.5976849 6.6806917 -97.8216324
7.1879673 6.6815686 -96.9328690
-30.0497913 6.5306168 -91.7851868
-31.4434032 6.5156903 -92.1999588
-52.8878059 6.3579078 -106.2370148
-54.3798180 6.3440676 -108.0576935
-55.9041252 6.3186879 -110.0724182
25.6108990 8.0681057 -116.5148392
24.1248055 8.0812550 -113.7364273
8.5970373 8.0646820 -97.2006989
7.1858444 8.0615635 -96.3278809
5.8141880 8.0596924 -95.5239868
-28.6347656 7.9218659 -90.8778000
-30.0397911 7.9160190 -91.2362518
-31.4242821 7.9071617 -91.6499557
-52.8627319 7.7634163 -105.3947983
-54.3181686 7.7607207 -107.1064224
-55.8502235 7.7398262 -109.0696335
25.5466309 9.4979649 -115.3153839
24.1025753 9.4925632 -112.7025299
5.8183417 9.4390335 -94.9859009
-28.6354599 9.2961874 -90.4024506
-55.8146400 9.1558075 -108.2116699
25.5390720 10.8996096 -114.3705673
24.0861969 10.8929510 -111.8207092
5.8067989 10.8223782 -94.4856262
4.4045286 10.8199520 -93.7478256
-27.2547264 10.6850204 -89.6470108
-28.6214848 10.6838951 -89.9466095
-55.7728539 10.5685444 -107.4304504
-57.2949219 10.5495472 -109.4041977
26.9924946 12.3100901 -116.3590088
25.5047798 12.3094559 -113.4845047
24.0634136 12.2975883 -111.0396729
5.8002081 12.2041416 -94.0436249
4.4009686 12.1979895 -93.3269501
-25.8338661 12.0778589 -88.9529724
-27.2432270 12.0665703 -89.2252045
-28.6023426 12.0680141 -89.5221176
-55.7343025 11.9776287 -106.7237244
26.9531078 13.7210913 -115.5232086
25.5117149 13.7032785 -112.7821884
24.0620213 13.6944218 -110.3882141
5.7985125 13.5828199 -93.6521835
4.3968649 13.5793810 -92.9507294
3.0576444 13.5614452 -92.3189926
-24.4697418 13.4527578 -88.3943405
-25.8431377 13.4502821 -88.6032486
-27.2268257 13.4473381 -88.8583221
-28.5982189 13.4424629 -89.1570969
-55.7079849 13.3843632 -106.1152725
26.9242172 15.1252718 -114.7718201
3.0276344 14.9458675 -91.9690094
1.6440544 14.9363565 -91.3586197
-23.0943871 14.8356571 -87.9244766
-24.4757080 14.8310204 -88.0912628
-25.8356171 14.8266201 -88.3028564
-55.6711311 14.7920752 -105.5754166
-57.1736450 14.7904072 -107.4531326
26.9119911 16.5284538 -114.1643982
3.0257401 16.3216801 -91.6634979
1.6472974 16.3130550 -91.0781631
0.2611571 16.3059711 -90.5228043
-1.1096278 16.2992516 -90.0144119
-21.7140923 16.2076702 -87.5189667
-23.0868073 16.2093277 -87.6447906
-24.4647331 16.2057705 -87.8194122
-25.8292160 16.2027569 -88.0363770
-55.6651154 16.1948051 -105.1429367
-57.1409798 16.1992397 -106.9659424
28.4088554 17.9487648 -116.6492844
26.8932476 17.9297657 -113.6399841
0.2551878 17.6791954 -90.2851181
-1.1170294 17.6709499 -89.7857590
-2.5013373 17.6681671 -89.3401794
-18.9516830 17.5911407 -87.1076508
-20.3442421 17.5903664 -87.1646881
-21.6931553 17.5886421 -87.2564087
-23.0694313 17.5856609 -87.3929596
-55.6475143 17.5983639 -104.7538834
-57.1187286 17.6073265 -106.5633621
28.3858185 19.3551483 -116.1672287
26.8706055 19.3291435 -113.2010193
0.2509313 19.0522423 -90.0822525
-1.1238276 19.0460892 -89.5817642
-2.4858313 19.0350494 -89.1468124
-3.8654022 19.0287380 -88.7420807
-5.2524476 19.0220966 -88.3651199
-6.6032572 19.0161381 -88.0754852
-7.9642215 19.0058060 -87.8208466
-14.8453951 18.9789124 -86.9476624
-16.2037964 18.9784813 -86.8959656
-17.5936737 18.9711800 -86.8949890
-18.9366245 18.9703426 -86.9056244
-20.3387718 18.9621925 -86.9629669
-21.6977139 18.9592609 -87.0626221
-23.0735703 18.9583111 -87.2046509
-55.6331635 19.0021553 -104.4249344
-57.1045151 19.0132427 -106.2231140
28.3584423 20.7608547 -115.8025284
26.8781433 20.7294807 -112.9117432
0.2594583 20.4249878 -89.9276962
-1.1160326 20.4153557 -89.4343796
-2.4972150 20.4081059 -88.9815674
