36.2428856 -73.0631561 138.7279968
25.1976204 -72.5187378 145.0566559
23.0055580 -72.4615173 145.8713684
20.8902206 -72.4302826 146.5010986
18.6494179 -72.3902130 147.1362915
-17.9911995 -73.9030762 140.0627136
-20.2774124 -74.1528931 138.3274841
-22.4454880 -74.4063568 136.4977875
-24.7682686 -74.7206268 134.2030334
45.2667389 -71.7371521 130.7448425
42.9374542 -71.4543304 133.5633698
40.6851311 -71.2318039 135.8751526
38.3717308 -71.0257645 138.0001526
36.1937408 -70.8733749 139.6959534
25.1718235 -70.3650284 145.8314514
22.9840317 -70.3133850 146.6240540
20.8610802 -70.2829590 147.2518005
18.6428623 -70.2504654 147.8441010
-17.9717159 -71.6984558 141.0219727
-20.2455940 -71.9320145 139.3679810
-22.4109497 -72.1691208 137.6225433
-24.7240448 -72.4647522 135.4396820
47.5585175 -69.8255920 128.7145996
45.2036667 -69.5088959 131.9148865
25.1434860 -68.2314148 146.4872284
18.6314640 -68.1246033 148.4503326
16.5289459 -68.1177979 148.8642883
14.3297958 -68.1164856 149.2126923
12.2301064 -68.1297760 149.4382782
10.0533209 -68.1523666 149.5790710
7.9349341 -68.1858597 149.6142426
5.7871180 -68.2307434 149.5489502
3.6291165 -68.2864532 149.4010162
1.5176558 -68.3506927 149.1479340
-0.6755742 -68.4323425 148.7818451
-2.7703016 -68.5160980 148.3507385
-4.9772825 -68.6243515 147.7603149
-7.0862989 -68.7326508 147.1164398
-22.3931713 -69.9666519 138.5392151
-24.6853027 -70.2383423 136.4706573
-26.9124889 -70.5311050 134.1998596
47.4930344 -67.6030273 129.8240814
45.1442528 -67.3095398 132.8766785
25.1179619 -66.1112213 147.0335236
16.5077972 -66.0049820 149.3755798
14.3196697 -66.0063629 149.7165680
12.2110367 -66.0187531 149.9389343
10.0470371 -66.0416031 150.0702667
7.9159832 -66.0744019 150.1069031
5.7786140 -66.1181870 150.0533142
3.6244879 -66.1704407 149.9071198
-2.7771211 -66.3966675 148.8669281
-4.9671683 -66.4950943 148.3085022
-7.0871258 -66.6014557 147.6733704
-22.3693733 -67.7794418 139.3218384
-24.6523514 -68.0380402 137.3246765
-26.8796806 -68.3154678 135.1361237
47.4354630 -65.4079437 130.7204285
45.0975761 -65.1381989 133.6374512
38.2658691 -64.5633392 140.1349182
36.0738525 -64.4297256 141.7405701
33.8259544 -64.3110352 143.2158813
31.6561279 -64.2150345 144.4696960
29.4387321 -64.1313934 145.6137695
27.2760391 -64.0638657 146.5961914
25.1002922 -64.0080261 147.4654388
-7.0917044 -64.4860992 148.1210785
-9.2695465 -64.6068878 147.3459473
-11.4238348 -64.7346573 146.4792023
-26.8556499 -66.1229095 135.8996887
47.3955917 -63.2410049 131.4027100
45.0651932 -62.9869919 134.2296143
38.2452583 -62.4441376 140.5786438
36.0469437 -62.3177872 142.1578217
31.6315117 -62.1133308 144.8479614
29.4188976 -62.0322762 145.9812622
-7.0968676 -62.3863449 148.4579010
-9.2696056 -62.4990845 147.7071533
-11.4221516 -62.6238403 146.8540344
-26.8355198 -63.9521370 136.4986877
-29.1267204 -64.2427063 134.0532532
49.7015533 -61.3825531 128.6639404
47.3559799 -61.0932732 131.9228516
45.0232162 -60.8533363 134.6875916
38.2228050 -60.3397217 140.9064636
36.0217209 -60.2183342 142.4705048
33.7841301 -60.1125183 143.8932495
31.6118507 -60.0236282 145.1262512
29.4059086 -59.9486198 146.2332764
-9.2728367 -60.4048386 147.9709320
-11.4277592 -60.5259628 147.1225891
-13.5958366 -60.6585999 146.1499481
-15.7813187 -60.8055763 145.0424042
-26.8224678 -61.7987862 136.9512634
-29.1097431 -62.0767975 134.5602264
49.6731796 -59.2408829 129.0762482
47.3280907 -58.9672890 132.2642212
45.0039139 -58.7401733 134.9684296
38.2064934 -58.2490158 141.1138306
36.0015564 -58.1323166 142.6681519
33.7736626 -58.0308800 144.0726318
-9.2716179 -58.3212471 148.1449890
-11.4290695 -58.4374695 147.3026733
-13.5990658 -58.5674210 146.3327484
-15.7821255 -58.7085342 145.2379608
-26.8204079 -59.6648140 137.2489929
-29.0963879 -59.9280891 134.9225769
49.6519623 -57.1178627 129.3091888
33.7667122 -55.9605370 144.1531525
-13.5992260 -56.4842987 146.4265137
-15.7894564 -56.6226578 145.3348083
-26.8198032 -57.5428543 137.4325867
-29.0888557 -57.7950172 135.1433105
49.6325264 -55.0108414 129.3813934
33.7565460 -53.8998642 144.1294250
-13.6088314 -54.4126816 146.4195404
-15.7923393 -54.5452194 145.3381348
-26.8299847 -55.4353256 137.4767761
-29.0939541 -55.6783562 135.2052460
-31.3767204 -55.9527054 132.5922394
49.6373711 -52.9221230 129.2572479
33.7500534 -51.8480110 144.0079346
31.5626488 -51.7719193 145.2304535
-13.6155262 -52.3484879 146.3228607
-15.8016567 -52.4767761 145.2464600
-26.8356552 -53.3380661 137.4067078
-29.0995770 -53.5726089 135.1474304
-31.3831139 -53.8381805 132.5417480
49.6417465 -50.8444481 128.9937134
33.7546158 -49.8039322 143.7868042
31.5607681 -49.7304306 145.0144958
29.3692207 -49.6692543 146.0967255
-15.8092422 -50.4165192 145.0533752
-26.8543892 -51.2520103 137.2054901
-29.1118622 -51.4784164 134.9554443
-31.3960800 -51.7361069 132.3440247
49.6552200 -48.7789955 128.5637054
29.3714695 -47.6361084 145.7954712
-15.8175869 -48.3633499 144.7679138
-26.8680344 -49.1743164 136.8898010
-29.1346626 -49.3953552 134.6186371
49.6754036 -46.7253647 127.9597244
29.3763351 -45.6085739 145.3946838
-15.8344650 -46.3164520 144.3821411
-26.8952885 -47.1054230 136.4452209
-29.1635971 -47.3209648 134.1462097
49.7048416 -44.6823921 127.1747742
47.3427734 -44.4586334 130.4770813
45.0135498 -44.2757378 133.2529907
29.3774681 -43.5868912 144.9069824
-15.8531418 -44.2749023 143.8919067
-26.9210835 -45.0438690 135.8783569
-29.1866493 -45.2535591 133.5586853
49.7449036 -42.6507759 126.1849823
47.3798752 -42.4261513 129.6000671
45.0469017 -42.2449226 132.4519501
29.3950100 -41.5690231 144.3056030
27.2090721 -41.5245552 145.2963257
-9.3501301 -41.9352608 146.2379150
-11.5181370 -42.0270576 145.3858948
-13.6887045 -42.1272583 144.4143677
-15.8662310 -42.2383690 143.3115540
-26.9535904 -42.9890213 135.1666870
-29.2177296 -43.1943016 132.8108368
47.4245949 -40.4018555 128.5438995
45.0859528 -40.2213135 131.4870911
29.4059830 -39.5561829 143.6113739
27.2199554 -39.5123863 144.6181183
25.0440063 -39.4774361 145.4879608
22.8770428 -39.4510345 146.2478027
-9.3673096 -39.9109764 145.5798035
-11.5362635 -40.0008621 144.7147827
-26.9902954 -40.9408112 134.3168945
47.4732399 -38.3861275 127.2831497
45.1269073 -38.2034836 130.3591156
29.4192162 -37.5449219 142.8141785
27.2299309 -37.5032539 143.8361816
25.0528069 -37.4687119 144.7246704
22.8838501 -37.4430122 145.4960938
20.7172966 -37.4255676 146.1507874
18.5639610 -37.4133987 146.6969147
16.4021606 -37.4099121 147.1429596
14.2543364 -37.4148941 147.4797363
12.1039667 -37.4237175 147.7213135
9.9622507 -37.4415016 147.8709717
3.5269203 -37.5284348 147.7456512
1.3837018 -37.5739365 147.5137024
-5.0681138 -37.7416916 146.2218933
-7.2263088 -37.8117752 145.5742340
-9.3876343 -37.8901291 144.8223877
-11.5557623 -37.9779282 143.9472656
-27.0321026 -38.8976631 133.3231964
47.5393372 -36.3791580 125.7809677
45.1817474 -36.1915779 129.0398712
12.1063690 -35.4183884 146.9057159
9.9579344 -35.4344254 147.0627441
7.8168116 -35.4575653 147.1199799
5.6667953 -35.4865723 147.0699005
3.5213420 -35.5214386 146.9330139
1.3714305 -35.5620384 146.6880188
-0.7801557 -35.6109695 146.3559723
-2.9296653 -35.6659851 145.9189453
-5.0866966 -35.7265167 145.3781128
-7.2482738 -35.7954788 144.7270966
-22.5791245 -36.5302391 136.3471832
-24.8168926 -36.6861763 134.4020996
-27.0800819 -36.8599625 132.1626892
45.2420158 -34.1876793 127.4854965
12.1052408 -33.4155350 145.9923096
9.9576244 -33.4300385 146.1413879
7.8126831 -33.4522972 146.1941833
5.6600556 -33.4797058 146.1540833
3.5168374 -33.5142288 146.0149841
1.3610216 -33.5537186 145.7780151
-0.7894385 -33.6013145 145.4406891
-2.9459045 -33.6543121 144.9901733
-5.1015573 -33.7148438 144.4360046
-7.2656922 -33.7816391 143.7695160
-22.6191635 -34.5013199 135.1583557
-24.8653450 -34.6546059 133.1397705
-27.1329575 -34.8263321 130.8057098
45.3225250 -32.1919479 125.6565323
42.9891548 -32.0337067 128.6954041
40.6806679 -31.9076290 131.2570648
-22.6691780 -32.4760590 133.8041229
-24.9223747 -32.6271210 131.6919861
43.0656319 -30.0376358 126.8111420
40.7465363 -29.9079227 129.5480347
-22.7287712 -30.4527016 132.2534332
43.1549187 -28.0509682 124.5776062
40.8226471 -27.9136600 127.5597916
38.5326080 -27.8026505 130.0282898
36.2494354 -27.7154713 132.1424866
-18.3101997 -28.1812572 134.2769318
-20.5356846 -28.2992458 132.5272827
-22.7849483 -28.4330711 130.4938507
40.9124260 -25.9252472 125.2422180
38.6015434 -25.8104076 127.9491730
36.3207016 -25.7164249 130.2062073
-18.3616924 -26.1642590 132.4966125
-20.5938320 -26.2819939 130.6349945
38.6863556 -23.8183327 125.5080948
36.3955994 -23.7226868 127.9945526
34.1221161 -23.6438637 130.0798492
31.8736420 -23.5833073 131.8703766
-13.9715481 -23.9519825 133.6719055
-16.1928768 -24.0439415 132.1945953
-18.4138641 -24.1503716 130.4858093
-20.6676846 -24.2675438 128.4631348
36.4834518 -21.7329140 125.4059753
34.1971970 -21.6495132 127.7114792
31.9394131 -21.5844002 129.6441498
-14.0262623 -21.9364700 131.6025696
-16.2516880 -22.0315037 130.0120697
34.2921715 -19.6579590 124.9255219
32.0131683 -19.5893078 127.0742569
29.7594376 -19.5329323 128.8786011
27.5287399 -19.4875259 130.4145813
-9.6519680 -19.7675285 131.9725342
-11.8604259 -19.8401260 130.7164764
-14.0790672 -19.9232063 129.2351990
-16.3101254 -20.0168762 127.5033417
32.1064072 -17.5952034 124.0521698
29.8380795 -17.5342579 126.0861893
27.5909843 -17.4898472 127.7891541
-9.6974831 -17.7537365 129.4962158
-11.9181042 -17.8284168 128.1223145
-14.1393538 -17.9104996 126.5006027
29.9326859 -15.5429440 122.7480774
27.6755943 -15.4909096 124.7147980
25.4257660 -15.4497461 126.3013611
23.1977882 -15.4230375 127.6535263
20.9807434 -15.3993607 128.7458496
18.7734299 -15.3876581 129.6499329
-5.3348675 -15.6160440 128.9535217
-7.5382137 -15.6744251 127.8964767
-9.7491980 -15.7416124 126.6318207
-11.9802284 -15.8147850 125.0901031
-14.2148104 -15.9029293 123.2447968
27.7749481 -13.5009623 120.9501495
25.5056953 -13.4516335 122.8442459
23.2737808 -13.4173861 124.3776169
21.0327282 -13.3954411 125.6270599
18.8182564 -13.3774290 126.6490326
-5.3645482 -13.6048651 125.8812408
-7.5817719 -13.6618805 124.6865921
21.0988617 -11.3897924 121.8738708
18.8736343 -11.3715725 123.0694427
16.6445866 -11.3601208 123.9993057
14.4342346 -11.3554983 124.6841660
12.2284088 -11.3587360 125.1854630
10.0207882 -11.3658943 125.4713440
7.8229299 -11.3812485 125.5897369
5.6198916 -11.4002829 125.5137939
3.4249611 -11.4264612 125.2708435
1.2184087 -11.4578533 124.8186188
-0.9857152 -11.4927063 124.1650848
-3.1952732 -11.5387754 123.2911072
-5.4116325 -11.5897322 122.1576843
16.7121429 -9.3562622 119.7281723
14.4821510 -9.3466282 120.5734100
12.2646418 -9.3458147 121.1690674
10.0475502 -9.3544273 121.5189972
7.8426781 -9.3664303 121.6679993
5.6248736 -9.3848715 121.5754089
3.4179108 -9.4111595 121.2761154
1.2033314 -9.4413042 120.7231216
-1.0151778 -9.4825363 119.9383698
5.6350040 -7.3867188 116.4398193
-44.1831436 14.8001347 -98.7448730
-41.2084656 17.5672569 -93.8538361
-44.0636597 17.5770226 -96.1036377
19.6985283 20.5976830 -101.6853943
-35.4866714 20.3082085 -88.5742035
-38.2967148 20.3147831 -90.0588837
-41.1245384 20.3250465 -91.8175964
-43.9786530 20.3370285 -93.9331360
-46.8687057 20.3548298 -96.4651489
19.6508331 23.3452339 -99.4201736
16.8430824 23.2976990 -96.3221283
-35.4365997 23.0476532 -87.0143890
-38.2454681 23.0582600 -88.4389648
-41.0669365 23.0721188 -90.1260529
-43.9088631 23.0905266 -92.1287231
-46.7862053 23.1126308 -94.4953384
-49.6866455 23.1438351 -97.3398132
22.4551811 26.1466675 -101.1272888
19.6237068 26.0855904 -97.5691833
16.8136673 26.0326996 -94.6500015
14.0275383 25.9886208 -92.1943512
-32.6217804 25.7666798 -84.5570526
-35.4004898 25.7787552 -85.7049103
-38.1982880 25.7952976 -87.0701981
-41.0085831 25.8139400 -88.6870880
-43.8491364 25.8380642 -90.6019287
-46.7179794 25.8665638 -92.8525696
-49.6144257 25.9021873 -95.5488129
22.4148750 28.8890915 -99.4070740
19.5889015 28.8203659 -96.0591583
16.7893448 28.7643661 -93.2789001
13.9993181 28.7161942 -90.9036713
11.2367315 28.6732960 -88.8793945
-29.8156853 28.4813633 -82.5532684
-32.5874901 28.4928169 -83.4798889
-35.3694954 28.5081425 -84.6009979
-38.1594696 28.5274715 -85.9160309
-40.9627266 28.5532417 -87.4722824
-43.8072319 28.5810738 -89.3369141
-46.6670494 28.6158962 -91.5132141
-49.5439453 28.6578751 -94.0659180
25.2428856 31.7163429 -102.0255280
22.3898277 31.6279163 -98.0685425
13.9850378 31.4405670 -89.8580551
11.2203827 31.3933830 -87.8878174
8.4708586 31.3544750 -86.1931610
-29.8076267 31.1992264 -81.7055588
-32.5596008 31.2170792 -82.5870972
-46.6208649 31.3611736 -90.4228363
-49.4950562 31.4113503 -92.8929520
-52.4080963 31.4713020 -95.8441925
25.2067280 34.4618874 -100.7912598
22.3626423 34.3668327 -97.0179291
13.9671993 34.1642456 -89.0268784
11.2122211 34.1121597 -87.1209412
8.4648943 34.0690842 -85.4500961
-27.0271645 33.9052277 -80.3033371
-29.7938709 33.9189987 -81.0129547
-32.5438385 33.9378166 -81.8871002
-46.5784454 34.1084137 -89.5526276
-49.4544678 34.1629257 -91.9603577
-52.3679962 34.2293320 -94.8226013
25.1794224 37.2087021 -99.8994904
22.3401642 37.1063995 -96.2358627
8.4449215 36.7871246 -84.8700485
5.7009687 36.7463150 -83.4569244
-27.0262737 36.6198616 -79.7785187
-52.3363152 36.9898643 -94.0657959
25.1627083 39.9592781 -99.3193665
22.3200493 39.8491974 -95.7057571
8.4341488 39.5049362 -84.4705048
5.6883588 39.4613876 -83.0608826
2.9585519 39.4246750 -81.8688812
0.2195382 39.3933182 -80.8579712
-27.0162468 39.3380241 -79.4006577
-52.3202972 39.7534180 -93.5577393
25.1411934 42.7152557 -98.9952545
22.3022728 42.5965195 -95.4024277
2.9514012 42.1412735 -81.6587982
0.2163647 42.1076202 -80.6438217
-2.4954433 42.0796204 -79.8019638
-5.2299480 42.0577278 -79.1352539
-7.9427233 42.0394897 -78.6246109
-24.2933311 42.0412292 -78.6822968
-27.0351467 42.0582733 -79.2055054
-52.3162727 42.5220909 -93.3036499
25.1333675 45.4782982 -98.9333191
22.2948494 45.3500404 -95.3469620
2.9437079 44.8616714 -81.5908356
0.1992017 44.8258438 -80.5709686
-5.2378654 44.7731247 -79.0681305
-21.5670280 44.7481079 -78.2285767
-24.2965698 44.7625542 -78.6079865
-27.0392361 44.7826996 -79.1484909
-52.3206253 45.2967758 -93.2621231
28.0112076 48.4263763 -103.6812744
25.1191578 48.2514305 -99.1400604
22.2951584 48.1133232 -95.5337753
2.9352360 47.5876389 -81.6756897
0.1993317 47.5500412 -80.6568069
-2.5172307 47.5189972 -79.8181305
-5.2413249 47.4963264 -79.1678925
-16.1177406 47.4573441 -77.9944153
-18.8439560 47.4615784 -78.0731277
-21.5717087 47.4722099 -78.3009338
-52.3473663 48.0808868 -93.4613342
25.1227570 51.0362434 -99.6141510
22.2820969 50.8864288 -95.9358826
2.9296749 50.3206139 -81.9206314
0.1846882 50.2798004 -80.8943253
-2.5343587 50.2473259 -80.0452881
-5.2578707 50.2217903 -79.3819122
-16.1324463 50.1853333 -78.2418365
-18.8618088 50.1910896 -78.3196106
-21.5924492 50.2047310 -78.5564423
-52.3728714 50.8744507 -93.8817062
25.1277809 53.8374710 -100.4107208
22.2907753 53.6744308 -96.6208572
19.4670448 53.5371399 -93.4851379
16.6810303 53.4243088 -90.8531799
-2.5449007 52.9859161 -80.4626923
-5.2757788 52.9609299 -79.7969360
-7.9887638 52.9367981 -79.2566833
-10.7133589 52.9267654 -78.8991089
-13.4294682 52.9224701 -78.6867371
-16.1515884 52.9203606 -78.6164703
-46.6372375 53.4375839 -89.2338943
-49.5080643 53.5491524 -91.6638870
-52.4140511 53.6823044 -94.5587006
22.2935333 56.4767151 -97.5559540
19.4737568 56.3274460 -94.3209686
16.6772442 56.2052307 -91.6185837
-2.5572028 55.7346230 -81.0229263
-5.2896070 55.7018127 -80.3338699
-7.9969234 55.6842575 -79.8064728
-10.7310457 55.6711082 -79.4327316
-13.4438190 55.6686554 -79.2126770
-16.1709404 55.6658859 -79.1351242
-46.6768646 56.2344589 -89.9979553
-49.5543480 56.3591080 -92.5101776
-52.4725494 56.5062103 -95.5111542
22.3070908 59.3027420 -98.8132935
19.4811401 59.1356659 -95.4141083
16.6807289 59.0020447 -92.6128387
-2.5705638 58.4944115 -81.7590866
-5.3065572 58.4625473 -81.0532913
-46.7345581 59.0499687 -91.0148392
-49.6225662 59.1888313 -93.6316528
22.3179588 62.1496696 -100.4349365
19.4944725 61.9671173 -96.8181610
16.6844006 61.8159790 -93.8772278
-2.5849886 61.2621384 -82.6687927
-5.3226013 61.2332993 -81.9379501
-46.8012505 61.8834419 -92.2878113
-49.7077370 62.0406952 -95.0535126
19.5058899 64.8230896 -98.5761108
16.6925793 64.6578522 -95.4430618
13.9049978 64.5173950 -92.8308334
11.1272402 64.4013748 -90.6286163
8.3720198 64.3038559 -88.7561798
5.6131277 64.2227325 -87.1622238
-35.5456924 64.2810822 -86.2114410
-38.3490829 64.3712616 -87.6612701
-41.1773872 64.4789429 -89.4017868
-44.0114899 64.5983429 -91.4420547
-46.8933105 64.7463226 -93.8862457
-49.7985725 64.9166183 -96.8219910
19.5312386 67.7212143 -100.8065720
16.7001858 67.5288315 -97.3708649
13.9138699 67.3726654 -94.5861893
11.1283360 67.2441025 -92.2669830
8.3644648 67.1354446 -90.2909698
5.6036286 67.0466843 -88.6220398
-35.6158905 67.1207428 -87.6923828
-38.4176369 67.2164230 -89.2095184
-41.2531471 67.3334198 -91.0366135
-44.1011009 67.4698334 -93.1987915
-46.9933586 67.6359253 -95.8316574
16.7230949 70.4408340 -99.7818756
13.9195023 70.2577057 -96.7268143
11.1337786 70.1161652 -94.2210388
8.3672638 69.9913940 -92.1115494
5.5943837 69.8916168 -90.3520813
-30.1041527 69.8129196 -86.9966125
-32.8862381 69.8890533 -88.1010056
-35.6837463 69.9770355 -89.4357758
-38.5031891 70.0922470 -91.0715866
-41.3466072 70.2214203 -93.0228043
-44.2101021 70.3781738 -95.3631516
13.9417629 73.1920700 -99.3538208
11.1384373 73.0234070 -96.5881424
8.3741980 72.8882904 -94.3392944
5.5882311 72.7723770 -92.4351959
-30.1685066 72.6809387 -88.8983154
-32.9611511 72.7706299 -90.0811615
-35.7741966 72.8724899 -91.5256271
-38.5925293 72.9940338 -93.2693787
-41.4522324 73.1459961 -95.4046631
11.1490908 75.9831314 -99.4996033
8.3702230 75.8227386 -96.9789505
5.5855026 75.6983719 -94.9219971
2.8281293 75.5878220 -93.1980743
0.0653706 75.5091476 -91.7993164
-30.2590981 75.5914917 -91.1620026
-33.0458565 75.6823120 -92.4288406
-35.8723373 75.8043365 -94.0162354
-38.7092209 75.9488602 -95.9454803
8.3816910 78.8172531 -100.2517929
5.5792146 78.6646805 -97.9085464
2.8194890 78.5431976 -96.0170670
0.0462026 78.4461060 -94.4760056
-30.3468952 78.5377502 -93.8546295
-33.1587181 78.6558075 -95.2824402
-35.9962311 78.7933502 -97.0521622
5.5776725 81.7088928 -101.6772461
2.8025012 81.5588760 -99.4720306
0.0253145 81.4493561 -97.7458344
-2.7357163 81.3572235 -96.3495865
-5.4923649 81.2931900 -95.2803421
-24.8541870 81.3582611 -94.9019775
-27.6476440 81.4430847 -95.8665085
-30.4569969 81.5531921 -97.1463394
-33.2891006 81.6860275 -98.7716904
-0.0042846 84.5234604 -101.8242874
-2.7688160 84.4223480 -100.2148056
-5.5328574 84.3398895 -98.9818726
-24.9636421 84.4135742 -98.6087036
-5.5846081 87.4861145 -103.7526550
-8.3630276 87.4176636 -102.6325378
-11.1371117 87.3784866 -101.9156189
-13.9135189 87.3594666 -101.5355225
-16.6942711 87.3764725 -101.4964676
-19.4871674 87.4164963 -101.7893829
-22.2848969 87.4808350 -102.4218140
-25.0938873 87.5732727 -103.4352951
14.1847744 -101.9103851 120.0717392
13.1403589 -101.8386459 120.4301605
10.9125099 -101.8333435 120.9721298
9.7386589 -101.8230286 121.0993576
8.6685419 -101.8407745 121.1309814
7.6224051 -101.8816071 121.0318985
6.5202160 -101.9303894 120.8791656
5.3340988 -102.0343018 120.6111755
4.2088552 -102.1306381 120.2478409
0.9193292 -102.4892883 118.3997040
19.7207146 -100.6760483 120.4110260
18.6351376 -100.5659714 121.2494507
17.5927467 -100.4771271 121.8791809
16.4755440 -100.4058685 122.4624176
15.2831917 -100.3356781 123.0531158
14.1389713 -100.2915726 123.5058746
13.1143150 -100.2737122 123.7846909
12.0639744 -100.2699661 124.0014038
10.9014626 -100.2688904 124.1878738
9.7164860 -100.2783813 124.3068619
8.6516333 -100.3011246 124.3265991
7.6373177 -100.3310242 124.2609558
6.5306044 -100.3769760 124.1143036
5.3361769 -100.4241486 123.9155273
4.1898260 -100.4980621 123.6234741
3.1673949 -100.5715942 123.3000946
2.1054084 -100.6523209 122.8648682
0.9565451 -100.7531052 122.3221359
22.0414486 -99.3302078 121.7575836
20.8553715 -99.1868286 122.7701492
19.6548042 -99.0716171 123.7012634
18.5818367 -99.0001221 124.3599243
2.1399763 -99.1831970 125.6740417
0.9741700 -99.2624054 125.2242889
-0.2375727 -99.3828583 124.6321640
-1.3088837 -99.4956207 124.0416565
-2.3248379 -99.6462326 123.4359970
25.2606792 -98.1977921 121.7383423
24.0959854 -98.0196609 122.9750366
23.0653305 -97.9245682 123.8253403
21.9942131 -97.8406754 124.6075287
20.8089581 -97.7321320 125.4805908
19.6012344 -97.6315308 126.2928162
18.5505733 -97.5850220 126.8161774
2.1540945 -97.7807465 127.9795532
0.9781626 -97.8672028 127.5660019
-0.2354516 -97.9552994 127.0737991
-1.2962656 -98.0568924 126.5532608
-2.2842789 -98.1552505 126.0338058
-3.3951070 -98.2952118 125.3554230
-4.6250734 -98.4707947 124.4636307
27.5625248 -97.0608063 121.9551849
-4.6029582 -97.0236206 126.8246536
29.6420441 -95.8950653 122.2228165
28.5438709 -95.7075882 123.5521545
27.5007744 -95.5858612 124.6092987
-4.5945125 -95.6632919 128.8814240
-5.7619867 -95.8088608 128.1376343
-6.7284575 -95.9132538 127.5102844
-7.7519855 -96.0373154 126.7234650
-8.9626064 -96.2365799 125.6482391
30.8022480 -94.6487579 123.2568512
29.5590630 -94.4460602 124.7931747
13.0282135 -93.5305939 133.7151642
12.0361443 -93.5424500 133.7982635
10.8304853 -93.5310898 133.9529114
9.5753593 -93.5456772 134.0528564
-8.9180460 -94.8435440 127.7761993
-10.1761770 -95.0559998 126.6283646
31.9278641 -93.4574051 124.0410461
30.7280216 -93.2632370 125.5321045
29.4841747 -93.0843658 126.9327393
13.0126801 -92.2779465 135.0854187
12.0224380 -92.2891312 135.1674194
10.8136930 -92.2815933 135.3200073
9.5510693 -92.3051529 135.4075165
-8.8893013 -93.5300217 129.6007233
-10.1412554 -93.7065048 128.5588226
-11.2042990 -93.8559570 127.6658020
34.0279274 -92.4215164 123.5249939
32.9588699 -92.2450104 124.8838806
31.8611336 -92.0961075 126.1586304
21.8380775 -91.2523270 133.6344299
20.6420746 -91.1877289 134.2371826
19.3993301 -91.1063004 134.8651886
18.3807430 -91.1063156 135.1423492
17.4355698 -91.1048203 135.3003540
16.3303795 -91.0704117 135.5766296
15.0621185 -91.0245514 136.0501099
13.9239969 -91.0273972 136.2943726
12.9980030 -91.0634232 136.3369598
9.5331106 -91.0794983 136.6815643
8.5480919 -91.0898132 136.6753540
7.6393051 -91.1288223 136.6144104
2.2283058 -91.3257141 136.0159912
1.0155034 -91.3955536 135.7005005
-0.2678871 -91.4947205 135.2802582
-1.2773986 -91.5481949 134.9950562
-2.1732888 -91.5927353 134.7617035
-3.2712202 -91.6751099 134.3209381
-4.5628052 -91.8061447 133.6580811
-5.7358327 -91.9298096 133.0454407
-11.1792488 -92.5393829 129.4420929
-12.1598167 -92.6668854 128.6385651
-13.2985268 -92.8607788 127.5440979
-14.5437183 -93.1085052 126.1981049
35.1241531 -91.2547455 124.0790176
33.9461784 -91.0455856 125.6706848
32.8907700 -90.9173203 126.8579712
31.8080006 -90.7801971 127.9983978
21.8114891 -90.0256653 134.8952332
20.6098671 -89.9619141 135.4962158
19.3625813 -89.8870468 136.1167908
8.5323248 -89.8886566 137.8184662
7.6381106 -89.9169464 137.7659912
2.2421639 -90.0841980 137.2476196
1.0136353 -90.1750870 136.9034424
-0.2749178 -90.2739334 136.4961395
-1.2726558 -90.3335114 136.2472534
-4.5529180 -90.5651321 134.9609375
-5.7263212 -90.6869278 134.3742371
-11.1615009 -91.2627792 131.0290070
-12.1385937 -91.3778687 130.2923889
-13.2611809 -91.5387726 129.2904968
-14.4882612 -91.7442627 128.0467834
35.0550613 -89.9129181 126.0689850
33.8806419 -89.7356873 127.5170822
23.7610626 -88.8537979 135.3805542
22.7985153 -88.8481598 135.6959839
21.7921753 -88.8264847 136.0423889
20.5741329 -88.7416229 136.6639099
7.6392703 -88.7369232 138.8199005
2.2240241 -88.9051743 138.3185425
1.0132279 -88.9687042 138.0187073
-4.5518913 -89.3536224 136.1396790
-5.7105527 -89.4565201 135.5982361
-13.2184801 -90.2614212 130.8645172
-14.4470205 -90.4442291 129.7027893
-15.6169577 -90.6262589 128.5167694
37.4070702 -89.0287628 124.5448074
36.2343254 -88.8256302 126.1763229
34.9928436 -88.6249542 127.7939758
33.8144913 -88.4516754 129.1497803
23.7178116 -87.6418152 136.5352936
22.7766438 -87.6409302 136.8051147
21.7709198 -87.6393433 137.1089478
20.5578594 -87.5556870 137.7235413
7.6158676 -87.5423965 139.8285980
2.2244284 -87.7180405 139.3326111
1.0106493 -87.7806015 139.0444336
-4.5382996 -88.1499176 137.2322083
-5.7120328 -88.2600098 136.6980133
-13.1997881 -89.0163345 132.2529907
-14.4276867 -89.1878433 131.1718140
-15.5883045 -89.3625641 130.0802917
-16.6166000 -89.5109634 129.0883484
-17.7060757 -89.7091980 127.9181213
38.4205551 -87.8962708 124.8580780
37.3288803 -87.7116852 126.3631744
36.1670799 -87.5395889 127.8411331
26.0925751 -86.6338043 136.1347961
24.8376255 -86.5199280 136.9614258
23.7007713 -86.4661713 137.5820923
7.6163268 -86.3737488 140.7665405
2.2368894 -86.5326614 140.2977448
1.0101413 -86.6133881 140.0037231
-5.6966972 -87.0693588 137.7401733
-6.6112528 -87.1145325 137.4534760
-7.5918818 -87.1832809 137.0644531
-17.6583214 -88.4219971 129.4509277
39.4667282 -86.7887497 125.0011292
38.3503075 -86.6069031 126.5816803
37.2723274 -86.4563217 127.9218445
36.1142387 -86.2970047 129.2863464
26.0623627 -85.4394073 137.1562347
24.8127785 -85.3462524 137.9428558
7.5984702 -85.2144623 141.6339874
2.2271338 -85.3781281 141.1888123
-5.6852231 -85.8811340 138.7240753
-6.6062183 -85.9309387 138.4414368
-7.5740538 -85.9903793 138.0742340
-17.6168575 -87.1695099 130.8544312
-18.7946644 -87.3705444 129.6062927
40.6590729 -85.7542191 124.7111130
39.3859215 -85.5083466 126.6666031
38.2785110 -85.3453369 128.1093903
26.0384712 -84.2735214 138.0888672
24.7755089 -84.1767731 138.8687744
23.6392555 -84.1312637 139.4673309
7.5966291 -84.0757217 142.4289398
4.0810246 -84.1815338 142.1537170
-6.5953908 -84.7685699 139.3603821
-7.5674124 -84.8160172 139.0041199
-17.5872383 -85.9461975 132.1132202
-18.7625771 -86.1282043 130.9204712
-19.9649181 -86.3351898 129.5612335
41.8174744 -84.7254181 124.3596954
40.5787125 -84.4809189 126.3183670
39.3354416 -84.2715073 128.0900421
38.2394142 -84.1241531 129.4237061
26.0103111 -83.1190491 138.9559021
24.7600079 -83.0279312 139.7101746
23.6316376 -82.9879456 140.2765808
10.7249336 -82.8707733 143.1166534
9.4827690 -82.8764648 143.2312164
8.4839373 -82.9012299 143.2234192
7.5894871 -82.9277420 143.1838379
4.0940418 -83.0359039 142.9001465
3.1873281 -83.0522614 142.8487854
1.0147004 -83.1540222 142.4790344
-7.5698309 -83.6612625 139.8559723
-17.5606995 -84.7348251 133.2686310
-18.7263165 -84.9001923 132.1523743
-19.9430008 -85.1017227 130.8223572
41.7347221 -83.4564667 125.9268646
40.5253716 -83.2486115 127.7090454
23.6079788 -81.8350067 141.0382843
22.6658993 -81.8438339 141.2489929
21.6538219 -81.8375626 141.4877014
20.4489574 -81.7672882 142.0098572
10.7204971 -81.7372894 143.8172302
9.4947853 -81.7492981 143.9205322
4.0689244 -81.9271851 143.5921478
3.1809001 -81.9241638 143.5587769
2.2003455 -81.9514389 143.4753876
1.0088323 -82.0127411 143.2028046
-0.2363647 -82.0933304 142.8571472
-1.2439145 -82.1234741 142.6404114
-7.5613093 -82.5136566 140.6566772
-19.9230194 -83.8929138 132.0121155
-21.0285568 -84.0641022 130.8652191
-22.0922661 -84.2426529 129.6669312
42.8102455 -82.4092102 125.6230164
41.6768723 -82.2224731 127.3051147
40.4630508 -82.0336227 128.9746399
23.6007347 -80.7152176 141.7347717
22.6374092 -80.7177124 141.9475708
21.6209126 -80.7056580 142.2158203
20.4319229 -80.6529694 142.7226257
19.2182846 -80.5993805 143.2313538
11.8887548 -80.6362076 144.3151398
10.6967602 -80.6159668 144.4758148
9.4902449 -80.6221085 144.5800476
4.0989008 -80.7867432 144.2813110
3.1740279 -80.7938385 144.2399902
2.1976492 -80.8259735 144.1547394
-4.5031338 -81.2032089 142.4167480
-5.6496925 -81.2839203 141.9644928
-6.5710468 -81.3145523 141.7257996
-7.5621281 -81.3749619 141.3899841
-19.8972607 -82.6987305 133.0844879
-20.9971886 -82.8579559 131.9795685
-22.0473614 -83.0217819 130.8522644
43.8710403 -81.3849869 125.2334824
42.7565193 -81.1888885 126.9555206
21.6024685 -79.5838547 142.8943176
20.4238701 -79.5344620 143.3801422
19.2137318 -79.4863358 143.8804932
12.8651104 -79.4862213 144.9114227
11.8654346 -79.5197601 144.9463806
2.1740758 -79.7095566 144.7770691
-3.2320335 -79.9580002 143.5922241
-4.4883270 -80.0677567 143.0747375
-5.6219931 -80.1415482 142.6603241
-22.0180168 -81.8175964 131.9222565
-23.1556263 -82.0068817 130.6377411
45.0220337 -80.3959656 124.5666885
43.7974586 -80.1542816 126.5723419
42.6993904 -79.9837265 128.1537476
21.5818977 -78.4673309 143.5241394
20.4073467 -78.4238129 143.9861755
13.8063335 -78.3574753 145.4712524
12.8529224 -78.3787231 145.4944916
11.8553905 -78.4028625 145.5399170
2.1697624 -78.6015167 145.3458405
1.0115848 -78.6550598 145.1154633
-0.2162502 -78.7334442 144.8033752
-1.2359180 -78.7714233 144.6107483
-2.1680331 -78.7946320 144.4884949
-3.2388563 -78.8461456 144.1939392
-4.4746280 -78.9429169 143.7125549
-5.6159992 -79.0243607 143.3051300
-21.9912872 -80.6364517 132.9041443
-23.1301022 -80.8157349 131.6575012
-24.3509789 -81.0377960 130.2243652
44.9482231 -79.1706314 125.8758850
21.5552425 -77.3634796 144.1118927
20.3818016 -77.3109665 144.5580139
19.2023869 -77.2847519 144.9825439
18.1771011 -77.2834167 145.1954956
17.2055588 -77.3035202 145.3060608
16.1190891 -77.2888107 145.5265503
14.9119015 -77.2628174 145.8262634
13.7994957 -77.2522736 146.0096436
-24.3030186 -79.8333740 131.2201691
44.8955345 -77.9756165 127.0008392
21.5208359 -76.2613678 144.6687012
20.3713436 -76.2192383 145.0850220
19.2029533 -76.1878281 145.4849548
18.1646481 -76.1845932 145.6939392
17.1742001 -76.1871338 145.8358154
16.0969238 -76.1884155 146.0489349
14.9139891 -76.1649857 146.3268738
13.7996750 -76.1738968 146.4977417
-24.2643642 -78.6518021 132.1484070
47.2990723 -77.2534943 123.9183502
46.0831718 -77.0142136 126.0662003
44.8394661 -76.7947540 128.0420380
-24.2576714 -77.5027008 132.9828491
-25.4153786 -77.6830826 131.6673279
-26.4973335 -77.8591995 130.3510590
47.2298584 -76.0496597 125.0806503
46.0284348 -75.8329620 127.0980225
44.7901382 -75.6273499 128.9745789
-24.2277737 -76.3486252 133.7659912
-25.3952065 -76.5270996 132.4717407
-26.4808407 -76.6947784 131.1970978
48.3591919 -75.1028061 124.0465393
47.1806984 -74.8756256 126.1050034
-26.4437447 -75.5324097 132.0102081
-27.5855255 -75.7287979 130.6133118
48.2841454 -73.9135132 125.1011887
47.1216049 -73.7098312 127.0450592
-26.4253426 -74.3932114 132.7272949
-27.5451756 -74.5697556 131.3833008
48.2422562 -72.7567215 125.9912109
47.0851631 -72.5635529 127.8566589
-26.4118881 -73.2587357 133.3826294
-27.5187378 -73.4250488 132.0903168
-28.6895676 -73.6206818 130.6244202
49.3875427 -71.8244476 124.7686844
48.1949425 -71.6062775 126.8141632
47.0429688 -71.4281693 128.5959320
-26.3819866 -72.1283875 134.0053253
-27.5042343 -72.2942886 132.7301636
-28.6648083 -72.4787445 131.3038330
49.3444061 -70.6744080 125.5975800
23.4807529 -68.7204285 146.9540558
22.4536934 -68.7065735 147.2745972
21.3862801 -68.6868744 147.5921478
20.2828598 -68.6677399 147.9049988
-28.6357117 -71.3431778 131.9356995
-29.8510590 -71.5529938 130.3563843
49.2915039 -69.5340042 126.3353882
23.4714413 -67.6625366 147.2432251
22.4394035 -67.6409607 147.5688171
21.3799343 -67.6286316 147.8735199
20.2773228 -67.6135864 148.1783905
-28.6114540 -70.2201233 132.4893951
49.2561913 -68.4119492 126.9452057
23.4649906 -66.6043396 147.5052490
22.4312820 -66.5879974 147.8152618
20.2666378 -66.5546722 148.4301300
19.1471748 -66.5479965 148.7186432
18.0894852 -66.5345764 148.9604797
2.0552611 -66.7435760 149.6154938
0.9625622 -66.7819824 149.4586182
-0.1444044 -66.8192520 149.2773132
-1.2056214 -66.8626862 149.0844116
-28.5970116 -69.1040192 132.9963989
-29.7729912 -69.2819214 131.4953613
50.4710083 -67.5016327 125.4275360
49.2102814 -67.2952042 127.5218430
23.4590874 -65.5495377 147.7403412
19.1413994 -65.4933472 148.9547272
18.0896626 -65.4860077 149.1890869
2.0460920 -65.6923218 149.8437195
0.9628584 -65.7272491 149.6919861
-0.1446352 -65.7644882 149.5164948
-1.1982608 -65.8016739 149.3233643
-28.5724506 -67.9934006 133.4797974
50.4341812 -66.3916931 125.9545746
49.1813049 -66.1874008 128.0275574
23.4549656 -64.4952545 147.9565430
22.4743385 -64.5104599 148.0622711
19.1422787 -64.4393616 149.1667175
18.0819321 -64.4317627 149.3840179
15.9517107 -64.4262543 149.7812500
14.8582678 -64.4290314 149.9562073
13.7704353 -64.4325180 150.0960541
12.7303677 -64.4356613 150.2063293
11.6670370 -64.4523926 150.2909088
10.5884008 -64.4631805 150.3562622
9.4853630 -64.4788742 150.3993225
8.4345798 -64.4923401 150.4223328
7.3982806 -64.5078354 150.4211731
6.3155975 -64.5321121 150.3891602
5.2210484 -64.5568008 150.3376312
4.1418180 -64.5799561 150.2720184
3.1036057 -64.6094208 150.1780701
2.0383446 -64.6401062 150.0509949
-1.1991674 -64.7516708 149.5428009
-2.2541955 -64.7930679 149.3233490
-3.3184652 -64.8332367 149.0809631
-4.4164438 -64.8846207 148.8009644
-5.5095444 -64.9340515 148.5059204
-28.5728760 -66.8950577 133.8758545
50.3990097 -65.2827148 126.4541550
49.1552734 -65.0890350 128.4751282
23.4477329 -63.4461594 148.1493530
19.1357689 -63.3962555 149.3445129
18.0856495 -63.3926773 149.5321808
13.7705116 -63.3913116 150.2630463
12.7244816 -63.3976288 150.3770294
11.6585875 -63.4038010 150.4708862
10.5856266 -63.4116211 150.5370026
9.4855824 -63.4297333 150.5779572
2.0295708 -63.5941696 150.2301178
-4.4164629 -63.8326416 149.0000458
-5.5085230 -63.8823166 148.7066803
-28.5540676 -65.7958145 134.2630768
-29.7385998 -65.9644012 132.8720703
-30.8830929 -66.1360397 131.4230347
51.6030121 -64.3894043 124.7312088
50.3661346 -64.1818771 126.9023590
49.1445236 -64.0020218 128.8403473
34.3641090 -62.7578735 143.1817322
33.2538223 -62.7046013 143.8619690
27.7972870 -62.5035934 146.6537933
26.7292786 -62.4754791 147.0995178
25.6430416 -62.4524689 147.5252991
24.5369911 -62.4281120 147.9345856
23.4443150 -62.4053879 148.3050232
19.1335640 -62.3552704 149.5108948
11.6548615 -62.3598671 150.6395569
10.5734348 -62.3742065 150.6928711
9.4805822 -62.3872299 150.7291870
-4.4213562 -62.7819366 149.1813660
-5.5083103 -62.8291702 148.8801880
-30.8575897 -65.0322647 131.8090363
-32.0029640 -65.2132416 130.2879333
51.5668106 -63.2878761 125.1585999
50.3404465 -63.0896530 127.2806549
49.1293144 -62.9169693 129.1693115
34.3525810 -61.7038803 143.3612213
27.7916412 -61.4613609 146.8025818
26.7143974 -61.4290314 147.2558594
23.4467716 -61.3633423 148.4458618
-5.5072575 -61.7850227 149.0256500
-30.8520241 -63.9393463 132.1302490
52.7923203 -62.4148712 123.2121811
51.5401535 -62.1949844 125.5205307
27.7823486 -60.4203606 146.9192200
26.7142105 -60.3927994 147.3734283
-5.5096726 -60.7394791 149.1606903
-6.5672498 -60.7898560 148.8372040
-7.6377287 -60.8421516 148.4898987
-30.8313198 -62.8472366 132.4301300
-31.9681549 -63.0154800 130.9619751
-33.1758804 -63.2101021 129.3085327
51.5171394 -61.1091576 125.8310394
27.7838783 -59.3841667 147.0109863
26.6998062 -59.3537788 147.4688110
25.6177502 -59.3302116 147.9001770
-7.6477561 -59.8014679 148.6059570
-30.8186340 -61.7630653 132.6762085
-31.9630356 -61.9284668 131.2034149
51.4835815 -60.0268936 126.1090622
32.1471558 -58.4841690 144.9777222
31.0461731 -58.4443359 145.5586700
29.9533672 -58.4090195 146.0999451
28.8365211 -58.3739510 146.6244202
27.7644596 -58.3446388 147.0995483
26.6903954 -58.3189774 147.5475159
-30.8268929 -60.6873398 132.8574066
-31.9561043 -60.8456154 131.4253540
52.7049026 -59.1530228 124.0646057
51.4773216 -58.9551201 126.2957001
32.1364517 -57.4468651 145.0453339
31.0397301 -57.4086227 145.6204987
29.9468994 -57.3735580 146.1639404
28.8364887 -57.3406143 146.6859589
27.7543736 -57.3103714 147.1599579
26.6828289 -57.2856369 147.6040955
-30.8032417 -59.6081238 133.0433044
-31.9556026 -59.7674332 131.5974426
52.6948929 -58.0802307 124.2246399
51.4544907 -57.8849487 126.4601135
32.1286354 -56.4123573 145.0837555
31.0353127 -56.3754425 145.6592560
26.6779919 -56.2544670 147.6394196
-8.7325954 -56.7377243 148.4135437
-9.8262854 -56.7926674 148.0126648
-10.8969879 -56.8482246 147.5997772
-11.9688864 -56.9079132 147.1508179
-30.8104839 -58.5401154 133.1500092
-31.9533195 -58.6937866 131.7185211
-33.1127472 -58.8613434 130.1621094
52.6922798 -57.0126038 124.3440475
51.4403496 -56.8234444 126.5513916
32.1325836 -55.3826370 145.0889740
31.0242386 -55.3428230 145.6801453
-9.8222160 -55.7570038 148.0334778
-10.9001551 -55.8129654 147.6128693
-11.9735651 -55.8722229 147.1645813
-30.8100967 -57.4736519 133.2333527
-31.9462261 -57.6233749 131.8223877
-33.1098938 -57.7876701 130.2702026
52.6762238 -55.9485855 124.4257355
51.4452209 -55.7680817 126.5695343
32.1195526 -54.3524971 145.0809326
31.0201302 -54.3150330 145.6675720
-11.9848909 -54.8379898 147.1587219
-33.1208725 -56.7194328 130.3304138
52.6794624 -54.8927193 124.4182816
51.4432983 -54.7146797 126.5688019
32.1130409 -53.3258438 145.0450439
31.0232487 -53.2898331 145.6221313
29.9361839 -53.2573509 146.1611633
28.8201523 -53.2267265 146.6812592
27.7434082 -53.1996384 147.1613159
-11.9790878 -53.8040886 147.1402893
-33.1272812 -55.6545410 130.3485413
52.6610603 -53.8380966 124.3931503
51.4369621 -53.6641312 126.5323563
29.9333782 -52.2343330 146.0921631
28.8153648 -52.2042618 146.6146545
-11.9868536 -52.7739983 147.0862732
-33.1200104 -54.5911293 130.3435211
52.6657600 -52.7916565 124.2731094
51.4373703 -52.6187592 126.4393463
29.9274559 -51.2126236 146.0089722
28.8169289 -51.1831169 146.5295105
-11.9889927 -51.7451744 147.0150146
-33.1242638 -53.5336266 130.2782288
52.6709366 -51.7480659 124.1207428
51.4348297 -51.5761719 126.3110809
27.7414513 -50.1389618 146.8874817
-11.9903507 -50.7180481 146.9230347
-13.0829058 -50.7756577 146.4415588
-14.1668758 -50.8349113 145.9419250
-33.1296234 -52.4798546 130.1699524
52.6747971 -50.7079315 123.9239807
51.4393501 -50.5381203 126.1250839
27.7571831 -49.1222610 146.7410431
-8.7567024 -49.5403671 148.0447388
-9.8475704 -49.5886917 147.6624146
-10.9217100 -49.6388817 147.2537384
-11.9994421 -49.6930466 146.8020935
-13.0867844 -49.7496719 146.3251190
-14.1752033 -49.8082275 145.8215332
-33.1332207 -51.4282951 130.0325928
52.6870728 -49.6711807 123.6740875
51.4415970 -49.5033722 125.9000702
27.7468376 -48.1003418 146.6030426
-8.7623978 -48.5187683 147.9035034
-9.8517857 -48.5671654 147.5198975
-13.0916443 -48.7250862 146.1851044
-14.1780739 -48.7830582 145.6765289
-30.8322716 -50.0987358 132.8189087
-31.9805832 -50.2337570 131.4029236
-33.1414795 -50.3800735 129.8551331
51.4503708 -48.4721107 125.6184158
27.7381821 -47.0916786 146.4427185
-8.7661705 -47.4994278 147.7477722
-9.8633509 -47.5456543 147.3548126
-14.1815424 -47.7594910 145.5114594
-30.8566456 -49.0579224 132.5964508
-31.9953480 -49.1905632 131.1855164
52.7292862 -47.6057129 123.0186310
51.4605293 -47.4443970 125.2814941
27.7383556 -46.0805435 146.2327118
-8.7696972 -46.4820175 147.5587006
-9.8643188 -46.5279427 147.1621399
-14.1881676 -46.7364426 145.3257904
-30.8588963 -48.0182648 132.3632660
-32.0137978 -48.1502342 130.9243164
52.7441483 -46.5791740 122.6104736
51.4787140 -46.4199753 124.8921661
27.7472343 -45.0674973 146.0144806
26.6485710 -45.0474167 146.4812622
-7.7110734 -45.4193611 147.7081757
-8.7821121 -45.4633942 147.3448486
-9.8737793 -45.5099602 146.9508362
-14.1972837 -45.7159081 145.1095123
-30.8727951 -46.9805450 132.0875092
-32.0274849 -47.1116066 130.6386414
-33.2053452 -47.2500954 129.0661774
51.5082588 -45.3975677 124.4469757
27.7442913 -44.0555420 145.7857361
26.6600704 -44.0339775 146.2456055
25.5714760 -44.0152779 146.6727753
24.4920521 -43.9978943 147.0653992
-7.7117538 -44.4055939 147.4797974
-8.7847919 -44.4489861 147.1177673
-9.8729401 -44.4937859 146.7258606
-10.9540110 -44.5405884 146.3097229
-12.0359087 -44.5903320 145.8608551
-13.1207428 -44.6423378 145.3805542
-14.2062855 -44.6967926 144.8692322
-30.8811531 -45.9446411 131.7872620
-32.0434990 -46.0741577 130.3171387
51.5207138 -44.3794975 123.9725723
27.7537861 -43.0458717 145.5219421
26.6583328 -43.0259514 145.9814301
25.5657825 -43.0077400 146.4040985
24.4907188 -42.9914627 146.7988739
-6.6401844 -43.3505211 147.5620728
-7.7299800 -43.3923569 147.2167358
-8.7998781 -43.4334602 146.8594971
-9.8830185 -43.4780464 146.4702301
-10.9628353 -43.5245247 146.0509033
-12.0465393 -43.5735245 145.5993500
-13.1359425 -43.6249237 145.1166992
-14.2121220 -43.6795616 144.6089325
-30.9095440 -44.9121666 131.4160461
-32.0565338 -45.0395393 129.9549103
51.5616379 -43.3638153 123.3789749
25.5724220 -41.9998779 146.1156616
24.4906559 -41.9861526 146.5154724
-6.6483579 -42.3375626 147.2787781
-7.7376537 -42.3783569 146.9380188
-30.9254322 -43.8816376 131.0188904
-32.0858154 -44.0094185 129.5202332
-33.2752762 -44.1409988 127.8983841
51.5840988 -42.3500443 122.7778320
25.5798130 -40.9939270 145.8048401
24.4968987 -40.9767990 146.1973877
23.4079113 -40.9658546 146.5791016
22.3365173 -40.9518890 146.9311676
21.2464333 -40.9425468 147.2559967
9.4265041 -40.9620552 149.0806274
8.3971109 -40.9668350 149.1931458
-6.6522064 -41.3281670 146.9858856
-7.7424383 -41.3659592 146.6440430
-30.9392548 -42.8526917 130.5882874
-32.1144714 -42.9789886 129.0545349
51.6402817 -41.3386765 122.0570068
50.3933830 -41.1982040 124.2965698
49.1737366 -41.0689011 126.2985382
21.2522964 -39.9394875 146.9185944
20.1785736 -39.9327545 147.2127380
19.0866241 -39.9268951 147.4801483
18.0225163 -39.9281387 147.6911621
9.4289951 -39.9577103 148.7752686
5.1541066 -40.0091324 148.7632751
-5.5916348 -40.2790298 146.9808960
-6.6631594 -40.3161545 146.6652222
-7.7479143 -40.3548355 146.3231964
-28.6761150 -41.6012421 132.7962646
-29.8302574 -41.7094078 131.4882050
-30.9644012 -41.8260078 130.0954437
-32.1300049 -41.9522400 128.5439758
50.4255829 -40.1879578 123.6171265
49.1988373 -40.0610428 125.6583710
21.2541313 -38.9325485 146.5662537
20.1819077 -38.9287872 146.8657837
19.0961418 -38.9202385 147.1348114
18.0109482 -38.9248161 147.3758087
16.9320183 -38.9212723 147.5957794
15.8614998 -38.9182930 147.7969360
14.7956924 -38.9171143 147.9651489
13.7183247 -38.9202576 148.1098633
12.6474504 -38.9258118 148.2301331
11.5665169 -38.9349251 148.3286438
10.5056143 -38.9431343 148.3949890
9.4296827 -38.9496307 148.4450378
8.3582888 -38.9605904 148.4931183
6.2092905 -38.9714432 148.4554443
5.1469612 -39.0067635 148.4091492
4.0703053 -39.0287170 148.3471680
3.0008526 -39.0481796 148.2583923
1.9197124 -39.0665970 148.1351318
0.8611096 -39.0912094 147.9982910
-0.2253590 -39.1141815 147.8362732
-3.4402769 -39.2021141 147.1962891
-4.5141554 -39.2351646 146.9309235
-5.6002603 -39.2711029 146.6377258
-6.6723223 -39.3055038 146.3199310
-7.7561193 -39.3440552 145.9731445
-28.6887531 -40.5759048 132.3216553
-29.8458748 -40.6849518 130.9851837
-30.9624348 -40.8118515 129.5572052
50.4671669 -39.1801910 122.8660583
49.2301598 -39.0553436 124.9530029
8.3535538 -37.9622536 148.1134338
7.2766485 -37.9714165 148.1086121
6.2080250 -37.9882889 148.0932465
5.1396375 -38.0047150 148.0533905
-0.2313316 -38.1113281 147.4658966
-1.2979404 -38.1376381 147.2745514
-2.3736227 -38.1686668 147.0617676
-3.4483428 -38.1970863 146.8245850
-28.7184715 -39.5550194 131.7926941
-29.8657799 -39.6662445 130.4249878
49.2716942 -38.0485306 124.1800995
8.3577251 -36.9549713 147.7316742
7.2795677 -36.9671364 147.7355042
6.2058873 -36.9831696 147.7188873
5.1393290 -36.9996109 147.6710968
-0.2389066 -37.1050072 147.0712128
-1.3010283 -37.1311493 146.8831329
-2.3785510 -37.1582642 146.6705017
-3.4596987 -37.1886139 146.4323425
-28.7397461 -38.5345078 131.2272034
-29.8956966 -38.6430740 129.8086548
49.3035622 -37.0479202 123.3617249
-28.7744617 -37.5146446 130.5954437
-29.8995476 -37.6299858 129.1739807
-31.0368004 -37.7485504 127.5544968
49.3618126 -36.0448914 122.4251022
-28.7945175 -36.4954529 129.9514160
49.4306946 -35.0380363 121.4215317
48.1997757 -34.9344902 123.5140076
46.9949799 -34.8256645 125.4335938
-28.8184605 -35.4803162 129.2346344
48.2353249 -33.9402237 122.5207596
47.0383759 -33.8289604 124.4875641
-28.8549747 -34.4647255 128.4316559
48.3122597 -32.9352264 121.4059296
47.0760040 -32.8367844 123.4826508
-26.6003056 -33.2621269 130.3232422
-27.7546024 -33.3542404 129.0006256
-28.8830528 -33.4545746 127.6042786
47.1415977 -31.8407631 122.3451538
-26.6455765 -32.2472687 129.4848480
-27.7868118 -32.3418350 128.1382599
-28.9366302 -32.4392624 126.6792755
47.1885834 -30.8441467 121.1530075
45.9743919 -30.7480240 123.1895294
44.7966843 -30.6531525 124.9841385
-24.3882828 -31.0711021 131.0825195
-25.5397625 -31.1518803 129.8852539
-26.6713791 -31.2387733 128.6154022
-27.8314610 -31.3304329 127.2010117
47.2862015 -29.8492241 119.7823792
46.0330467 -29.7624836 121.9424286
44.8382301 -29.6613007 123.8537369
-24.4276409 -30.0580978 130.2033081
-25.5737743 -30.1394939 128.9774780
-26.7048225 -30.2268906 127.6685867
46.1004333 -28.7679157 120.5956879
44.8892288 -28.6743889 122.6171188
-24.4575005 -29.0463142 129.2720490
-25.6001797 -29.1337376 128.0025635
44.9524498 -27.6834049 121.2594757
-24.4973850 -28.0424728 128.2627258
45.0454140 -26.6819305 119.7647018
43.8213501 -26.6077118 121.7916794
42.6390038 -26.5334892 123.5513611
-22.2654762 -26.8852825 129.5858459
-23.4098473 -26.9552040 128.4198608
-24.5171547 -27.0420227 127.1913452
42.7073174 -25.5400200 122.1357269
-22.3066368 -25.8769932 128.5063934
-23.4395256 -25.9484673 127.3099060
-24.5612755 -26.0321121 126.0141754
42.7807312 -24.5412693 120.6052094
41.5695686 -24.4793129 122.4396667
40.4074516 -24.4082108 124.0508881
-22.3446350 -24.8717175 127.3608246
-23.4760361 -24.9445419 126.1183014
41.6268120 -23.4911194 120.8861084
40.4540367 -23.4221191 122.6100082
-22.3844147 -23.8678436 126.1247864
-23.5310822 -23.9362526 124.8069839
41.7299423 -22.4815559 119.1441956
40.5232430 -22.4331188 121.0052948
39.3341980 -22.3680420 122.6837616
38.1905251 -22.3003693 124.1385727
-17.9165897 -22.6097317 129.2577057
-19.0191479 -22.6681023 128.2990417
-20.1611404 -22.7256241 127.2148666
-21.2806740 -22.7919884 126.0703201
-22.4299355 -22.8590584 124.7834778
40.6168671 -21.4181137 119.2280045
39.3938255 -21.3838120 121.0493317
38.2482147 -21.3169060 122.6032104
-17.9523811 -21.6036644 128.0302734
-19.0633945 -21.6613007 127.0234985
-20.2001266 -21.7225342 125.8964844
39.4864082 -20.3866520 119.1890717
38.3122139 -20.3367615 120.9039307
37.1342392 -20.2722378 122.4767227
35.9790459 -20.2207623 123.8774796
-17.9798756 -20.5988941 126.7242737
-19.0966187 -20.6587410 125.6523361
38.3973846 -19.3410091 118.9848175
37.1981087 -19.2921219 120.7058182
36.0322800 -19.2291832 122.2239838
-18.0249939 -19.5936584 125.2845078
-19.1350288 -19.6590939 124.1510315
37.2714005 -18.3105106 118.7109375
36.0982742 -18.2507801 120.3834839
34.9429703 -18.1929817 121.8555527
33.7961349 -18.1501541 123.1657715
-15.8033237 -18.4842491 125.8784790
-16.9210701 -18.5379257 124.8631897
-18.0672417 -18.5931549 123.7155151
37.3834457 -17.2996178 116.4115906
36.1632462 -17.2700081 118.3289108
35.0039864 -17.2157784 119.9443207
33.8494797 -17.1608028 121.3651123
-15.8476238 -17.4774075 124.2977905
-16.9701385 -17.5336800 123.1996994
-18.1144466 -17.5885677 121.9661102
35.0856934 -16.2216053 117.7395477
33.9080009 -16.1874771 119.3553314
32.7728920 -16.1345406 120.7610703
31.6008701 -16.0934677 122.0564117
-15.8865395 -16.4781284 122.5670471
-17.0072632 -16.5376015 121.3796997
35.1952553 -15.2369957 115.1678772
33.9927292 -15.1968632 117.0314560
32.8384323 -15.1509266 118.6080856
31.6589584 -15.1092539 120.0368652
-15.9322014 -15.4801502 120.6242752
31.7382355 -14.1279621 117.7418747
30.5834389 -14.0815868 119.1325836
29.4409389 -14.0489788 120.4043121
-9.2285843 -14.2116814 124.5519409
-10.3610296 -14.2445068 123.7565308
-11.4763298 -14.2892752 122.9097824
-12.5956974 -14.3334579 121.9667358
-13.7169304 -14.3774862 120.9101563
-14.8279667 -14.4276190 119.7591476
-16.0053864 -14.4584942 118.3886642
30.6770229 -13.0678921 116.6816330
29.5025063 -13.0629158 118.0990677
-9.2511005 -13.2126360 122.7266083
-10.3826094 -13.2482672 121.8546524
-11.4944963 -13.2920656 120.9275131
-12.6215286 -13.3303232 119.8839874
29.5921497 -12.0545435 115.3906860
28.4256630 -12.0466118 116.8682785
