20.4328957 -75.3258591 139.6376648
18.2116508 -75.2717896 140.4190369
16.1377010 -75.2636032 140.8478241
13.8117094 -75.2465820 141.3152771
11.8416653 -75.2835693 141.3885193
9.4751358 -75.3141785 141.4391937
7.4982557 -75.3783340 141.2764893
5.1936803 -75.4602356 140.9047089
3.1057882 -75.5601349 140.4276123
0.9292849 -75.6841965 139.7134399
-1.3134227 -75.8452225 138.7580872
-3.3686080 -76.0069275 137.6845093
31.4377670 -73.4911194 135.8824768
29.0717258 -73.2733612 137.9908752
26.9989281 -73.1709061 139.3119659
24.6772270 -73.0334549 140.7363281
7.4921055 -72.9679413 144.0066223
5.1749058 -73.0538483 143.6499329
3.1044540 -73.1411743 143.2313843
-5.6973095 -73.7547150 139.4549255
-7.6988382 -73.9343262 138.1657257
31.3384552 -71.0427856 139.0521240
28.9734764 -70.8543701 140.9209900
26.9264965 -70.7766953 142.0453949
24.6011047 -70.6531677 143.3555908
-5.6692848 -71.3440857 142.2035522
-7.6571364 -71.5002213 141.1028748
-10.0219078 -71.7521210 139.3316193
35.6855888 -69.0113678 137.9096985
33.3420410 -68.7899704 140.1439972
31.2519264 -68.6728210 141.6517944
28.8922958 -68.5090942 143.3464966
-5.6539459 -69.0064087 144.4958191
-7.6256700 -69.1359711 143.5473938
-9.9871655 -69.3683701 141.9383850
-12.0471926 -69.5652161 140.4450684
37.7750702 -66.8325043 138.4069824
35.5820847 -66.6491165 140.4796753
33.2501717 -66.4610596 142.4835205
31.1750774 -66.3625336 143.8396606
28.8209019 -66.2182693 145.4079285
7.4482155 -66.0899200 150.0321503
-7.6001525 -66.8307724 145.6225586
-9.9538078 -67.0442963 144.1304321
-12.0137568 -67.2196503 142.7839813
-14.2858982 -67.4649658 140.9345856
39.9523697 -64.7220154 138.3630981
37.6734009 -64.5075607 140.7390442
35.4943695 -64.3521423 142.6129608
33.1765671 -64.1874161 144.4514923
31.1026764 -64.1008148 145.7011261
28.7602119 -63.9659958 147.1910400
7.4248238 -63.8785095 151.5424957
-7.5825152 -64.5633087 147.4132996
-9.9182758 -64.7640076 146.0212555
-11.9768124 -64.9225235 144.7733307
-14.2401581 -65.1475983 143.0705719
-16.4115849 -65.3775406 141.2279510
42.1555328 -62.6538544 137.9314575
39.8543701 -62.4244919 140.5167999
37.5882645 -62.2368927 142.6897125
35.4177856 -62.0970650 144.4265137
33.1092720 -61.9462280 146.1569214
31.0420933 -61.8759613 147.3213501
28.7145634 -61.7546349 148.7310181
26.6909409 -61.7218590 149.5016479
11.6817474 -61.6182175 152.9043579
9.3674822 -61.6429138 152.9587555
7.4072180 -61.6851425 152.8941345
5.1404023 -61.7549133 152.6082306
-7.5788245 -62.3378105 148.9531555
-9.8940210 -62.5221558 147.6522217
-11.9537811 -62.6687126 146.4783020
-14.2041454 -62.8741074 144.8972626
-16.3668652 -63.0841217 143.1965637
44.3084412 -60.6071892 137.2548523
42.0522308 -60.3729172 139.9704590
39.7673683 -60.1712608 142.3417969
37.5138969 -60.0008774 144.3643494
35.3487930 -59.8792305 146.0018463
33.0535507 -59.7448730 147.6202240
30.9827824 -59.6775436 148.7413330
28.6709251 -59.5699577 150.0597229
26.6331558 -59.5352592 150.8330078
24.3690376 -59.4674683 151.8067017
11.6522551 -59.4535522 154.0952759
9.3732052 -59.4804611 154.1359253
7.3829608 -59.5208855 154.0759888
5.1450291 -59.5808411 153.8209686
3.0792344 -59.6401634 153.5621338
0.9366984 -59.7192268 153.1205292
-5.5803547 -60.0422592 151.0537415
-7.5765266 -60.1385193 150.2993622
-14.1744347 -60.6376572 146.4694061
-16.3288040 -60.8306427 144.8804016
-18.5313873 -61.0557480 143.0027618
44.2038803 -58.3402176 139.1868439
41.9634590 -58.1355362 141.6821594
39.6978798 -57.9545746 143.8886414
37.4460678 -57.8042374 145.7953644
35.2852936 -57.6902275 147.3594360
33.0033417 -57.5676765 148.8870392
30.9200535 -57.5054398 149.9844360
28.6377144 -57.4116898 151.2097321
26.5860252 -57.3791962 151.9820099
24.3400841 -57.3154030 152.9049377
22.2456493 -57.2978592 153.4987183
20.0927429 -57.2730827 154.0663147
17.9226093 -57.2597198 154.5403290
15.8621025 -57.2739677 154.7938538
13.6288052 -57.2761688 155.0854492
11.6205063 -57.3059387 155.1464539
9.3695831 -57.3360214 155.1775665
7.3615637 -57.3756485 155.1092834
5.1443052 -57.4328957 154.8767853
3.0672231 -57.4923058 154.6205444
0.9313616 -57.5638123 154.1973267
-1.2504669 -57.6593704 153.6488037
-3.2867289 -57.7360229 153.1065369
-5.5570660 -57.8686943 152.2331085
-7.5752621 -57.9644585 151.4793243
-14.1474323 -58.4313698 147.8323364
-16.2996349 -58.6114426 146.3184662
-18.4864769 -58.8184853 144.5559845
-20.7421494 -59.0596504 142.4606171
46.4830589 -56.3608894 137.8356323
44.1227036 -56.1170502 140.7861328
41.8897591 -55.9311066 143.1300049
39.6277657 -55.7676392 145.2198029
37.3923874 -55.6314735 147.0219727
35.2227554 -55.5230980 148.5345459
28.6098747 -55.2734108 152.2227783
26.5416756 -55.2380600 153.0035553
24.3186493 -55.1883163 153.8566589
22.2199726 -55.1661224 154.4606323
-18.4534206 -56.6112671 145.8864441
-20.7013912 -56.8344116 143.9107819
46.3940964 -54.1441345 139.3759155
44.0479736 -53.9259949 142.1307373
41.8208542 -53.7572250 144.3559875
39.5709457 -53.6084061 146.3418427
37.3402977 -53.4842224 148.0691223
35.1776810 -53.3832741 149.5352783
28.5825577 -53.1530876 153.0966034
26.5004311 -53.1169891 153.8925781
24.2946911 -53.0738144 154.6966248
22.1879616 -53.0523643 155.2954865
-18.4363823 -54.4303856 147.0242920
-20.6674938 -54.6394958 145.1423645
-22.8635254 -54.8627510 143.0498352
46.3203392 -51.9592400 140.6524353
43.9901085 -51.7623596 143.2532501
24.2725334 -50.9740219 155.4170227
22.1628151 -50.9559021 156.0084381
20.0220070 -50.9407463 156.5195007
17.8749733 -50.9353409 156.9378967
15.7841053 -50.9417038 157.2329102
13.6052341 -50.9534798 157.4553833
11.5464916 -50.9749680 157.5550385
9.3628836 -51.0079956 157.5718994
7.2999263 -51.0433121 157.5003204
5.1411896 -51.0923157 157.3115082
3.0391164 -51.1487732 157.0428467
0.9184199 -51.2110672 156.6709442
-1.2369256 -51.2879715 156.1866913
-3.3165402 -51.3660431 155.6356812
-5.5162678 -51.4673843 154.9063110
-7.5865164 -51.5613289 154.1512909
-22.8242340 -52.6747284 144.1949463
-25.1076813 -52.9235382 141.7806091
48.5219955 -50.0065689 138.9183350
46.2587891 -49.8022079 141.7029877
43.9382935 -49.6203804 144.1955414
24.2558498 -48.8907700 156.0223846
22.1411324 -48.8696060 156.6203003
20.0034332 -48.8573456 157.1261597
17.8636017 -48.8538742 157.5296936
15.7623320 -48.8599319 157.8259735
13.6007233 -48.8712730 158.0422516
11.5249443 -48.8940506 158.1358337
9.3580303 -48.9246101 158.1565247
7.2885408 -48.9608116 158.0842133
5.1351175 -49.0059357 157.9027405
3.0330949 -49.0607567 157.6404572
0.9082978 -49.1226730 157.2746429
-1.2332053 -49.1944733 156.8080597
-3.3246889 -49.2705421 156.2605896
-5.5020261 -49.3631134 155.5652771
-7.5914063 -49.4580612 154.8082886
-22.8044205 -50.5112495 145.1401367
-25.0652943 -50.7409744 142.8521118
48.4664192 -47.8553276 139.8883209
32.8452797 -46.9878120 152.9855042
30.7173500 -46.9331322 154.0332336
28.5196419 -46.8823242 155.0125427
26.4072151 -46.8455124 155.8160706
24.2344475 -46.8149338 156.5451508
-5.5007377 -47.2767334 156.1001892
-7.5913272 -47.3659515 155.3565063
-9.7698956 -47.4742966 154.4413757
-11.8892441 -47.5861588 153.4445648
-22.7850876 -48.3651276 145.9315948
-25.0359497 -48.5811462 143.7268982
50.7899818 -45.9505348 137.4366913
48.4152908 -45.7238007 140.6664581
32.8252258 -44.9154778 153.4550476
30.6906815 -44.8616333 154.4932556
-5.4964113 -45.1980209 156.5397186
-7.6012964 -45.2874069 155.7963867
-9.7673559 -45.3895302 154.9033966
-11.8926344 -45.4983559 153.9133301
-22.7712364 -46.2365494 146.5744629
-25.0131340 -46.4396057 144.4318085
50.7398148 -43.8210182 138.1434784
48.3766479 -43.6122437 141.2579193
37.1811829 -42.9903564 151.2676392
35.0033493 -42.9155922 152.6106262
32.8075638 -42.8528442 153.8141632
30.6658745 -42.7999496 154.8555908
-9.7653179 -43.3139076 155.2708282
-11.8920555 -43.4186707 154.2921753
-22.7606735 -44.1218796 147.0804749
-25.0031586 -44.3148537 144.9860840
50.6987495 -41.7093468 138.6643677
48.3471260 -41.5136032 141.7053528
37.1589508 -40.9280891 151.5620880
34.9844780 -40.8583565 152.8872986
32.7928467 -40.7988625 154.0714722
30.6487770 -40.7497101 155.1107483
-9.7637329 -41.2495461 155.5359344
-11.8911438 -41.3487778 154.5700378
-22.7636757 -42.0218506 147.4460449
-24.9877186 -42.2017059 145.4165192
50.6689377 -39.6120491 139.0233307
48.3220024 -39.4293671 142.0003357
37.1442451 -38.8759270 151.7499390
34.9688911 -38.8092613 153.0611115
-9.7661705 -39.1928940 155.7112427
-11.8976727 -39.2887192 154.7477722
-14.0565338 -39.3943672 153.6527557
-16.2180519 -39.5100441 152.4198608
-22.7597694 -39.9310303 147.7013092
-24.9890556 -40.1033936 145.6880798
-27.2133560 -40.2944489 143.4157410
50.6466980 -37.5280533 139.2176819
48.3082848 -37.3560791 142.1544342
37.1286583 -36.8315048 151.8332214
34.9571571 -36.7688522 153.1414032
-14.0629921 -37.3369141 153.7469330
-16.2171211 -37.4472427 152.5259247
-22.7662964 -37.8502007 147.8381042
-24.9908295 -38.0143013 145.8465881
-27.2143784 -38.1962242 143.5984344
50.6400299 -35.4566002 139.2434692
48.2969666 -35.2924652 142.1740417
37.1229897 -34.7950974 151.8121490
34.9473648 -34.7350388 153.1252747
32.7571907 -34.6851349 154.2871857
-14.0693903 -35.2866516 153.7418518
-16.2255230 -35.3928528 152.5203552
-27.2196636 -36.1082230 143.6446838
-29.4821968 -36.3067093 141.0361938
50.6297493 -33.3935127 139.1357117
48.2978821 -33.2380447 142.0501862
37.1183243 -32.7638855 151.6985321
34.9400253 -32.7068329 153.0162659
32.7594604 -32.6596565 154.1749268
-11.9213543 -33.1490250 154.7270660
-14.0747890 -33.2420540 153.6463318
-16.2321224 -33.3439560 152.4257202
-27.2300110 -34.0290833 143.5586243
-29.4880447 -34.2185097 140.9613647
50.6353836 -31.3390656 138.8712158
48.2987747 -31.1901703 141.8070984
32.7515335 -30.6390629 153.9762115
-11.9323397 -31.1135559 154.5376587
-27.2448387 -31.9572754 143.3460388
50.6420135 -29.2927055 138.4474182
48.3139992 -29.1498451 141.4048004
32.7597809 -28.6226959 153.6771698
-9.8052244 -29.0039177 155.2178040
-11.9446831 -29.0821342 154.2604523
-27.2636261 -29.8918457 143.0001221
50.6683159 -27.2526836 137.8503418
48.3373566 -27.1147099 140.8631897
32.7657967 -26.6104431 153.2817230
30.5994949 -26.5770187 154.3288879
-9.8116951 -26.9793053 154.8577728
-11.9575462 -27.0545044 153.8839722
-22.8342590 -27.5522175 146.8176270
-25.0513077 -27.6840630 144.8166962
-27.2897301 -27.8320313 142.5170746
50.7023315 -25.2179794 137.0898438
48.3673439 -25.0844421 140.1732635
32.7760391 -24.6001358 152.7861786
30.6129169 -24.5683079 153.8485413
-9.8251858 -24.9577217 154.3973999
-11.9731207 -25.0294666 153.4114990
-22.8564415 -25.5070839 146.2683411
-25.0776291 -25.6334667 144.2369690
50.7439499 -23.1883202 136.1275635
48.3999138 -23.0575581 139.3200226
32.7837563 -22.5921364 152.2007141
30.6161785 -22.5626221 153.2760010
-7.7062387 -22.8752480 154.6921844
-9.8444471 -22.9380054 153.8374786
-11.9921532 -23.0076160 152.8444061
-22.8770351 -23.4649239 145.6000671
-25.1070938 -23.5869427 143.5229492
50.7935257 -21.1636639 134.9765472
48.4404068 -21.0332241 138.3050537
32.7987747 -20.5853939 151.5093994
30.6285439 -20.5578480 152.5993958
28.4689274 -20.5347958 153.5546570
26.3161430 -20.5187798 154.3808289
24.1756382 -20.5055504 155.0957489
22.0383549 -20.5011749 155.7066498
-3.4546304 -20.7547836 155.4561768
-5.5896349 -20.8050861 154.8020020
-7.7207589 -20.8594837 154.0502625
-9.8655386 -20.9196968 153.1756287
-12.0178680 -20.9854240 152.1673126
-22.9142361 -21.4252701 144.7872162
-25.1445351 -21.5428963 142.6576996
48.5010071 -19.0125561 137.0796509
46.1814041 -18.9116650 139.9709167
43.9014359 -18.8281059 142.4155273
24.1856213 -18.5042744 154.3521271
22.0475998 -18.4981499 154.9721375
19.9051266 -18.4971924 155.4877014
17.7771263 -18.4981537 155.8981628
15.6456356 -18.5051136 156.2095947
13.5267963 -18.5167236 156.4237823
11.3964634 -18.5306950 156.5432434
9.2816982 -18.5490265 156.5728149
7.1576891 -18.5712395 156.5035400
5.0372086 -18.5987968 156.3491821
2.9191761 -18.6283054 156.0914307
0.7895326 -18.6627235 155.7389526
-1.3323032 -18.7016945 155.2922363
-3.4704170 -18.7445908 154.7286530
-22.9522705 -19.3869514 143.8384857
-25.1781731 -19.5005322 141.6473694
48.5625153 -16.9943161 135.6351013
46.2392998 -16.8933983 138.6737366
43.9471817 -16.8129158 141.2345886
24.1924934 -16.5044575 153.5211029
22.0572357 -16.4970036 154.1440735
19.9162560 -16.4955063 154.6719666
17.7816086 -16.4991455 155.0928497
15.6521530 -16.5054626 155.4104004
13.5225267 -16.5151482 155.6295013
11.3989010 -16.5293007 155.7517242
9.2777281 -16.5478191 155.7852020
7.1562386 -16.5681152 155.7085876
5.0315919 -16.5940113 155.5541687
2.9081991 -16.6222591 155.2861023
0.7809712 -16.6566124 154.9302368
-1.3487968 -16.6921768 154.4687805
-3.4780774 -16.7349491 153.9057312
-22.9890575 -17.3494473 142.7309265
-25.2265224 -17.4591217 140.4548645
46.3070297 -14.8758354 137.1715240
44.0059433 -14.7972136 139.8671875
-18.6155758 -15.1321602 145.2935181
-20.8196888 -15.2182045 143.5053101
-23.0367966 -15.3122120 141.4579468
46.3878021 -12.8592491 135.4009705
44.0708046 -12.7797146 138.2842712
-18.6553516 -13.1018543 144.0034637
-20.8658218 -13.1826172 142.1367188
-23.0883179 -13.2733278 139.9934082
44.1494446 -10.7627773 136.4540863
41.8641968 -10.7006369 139.0217285
39.5996590 -10.6506882 141.2313995
-18.7028351 -11.0688391 142.5376587
-20.9199448 -11.1454124 140.5652161
44.2392159 -8.7455845 134.2942810
41.9430695 -8.6815701 137.0933228
39.6673355 -8.6340799 139.4649811
-18.7551956 -9.0317698 140.8583679
-20.9788666 -9.1065874 138.7656708
42.0311661 -6.6611414 134.8329010
39.7527924 -6.6139860 137.4020081
37.4948425 -6.5721092 139.5668640
35.2512589 -6.5462637 141.4339142
-14.4016943 -6.8709345 142.5040436
-16.5985603 -6.9287906 140.8506317
-18.8086014 -6.9917841 138.9352417
39.8397980 -4.5868878 135.0182495
37.5740204 -4.5509696 137.3889160
35.3187027 -4.5211630 139.3859558
-14.4485207 -4.8333492 140.5693207
-16.6551018 -4.8877707 138.7880096
37.6685677 -2.5209644 134.8354797
35.4019928 -2.4910245 137.0377960
33.1667557 -2.4724102 138.9065857
30.9435463 -2.4554892 140.4854126
-10.1210623 -2.7025003 141.4058380
-12.3058777 -2.7425919 139.9962006
-14.5030012 -2.7886200 138.3371429
-16.7205276 -2.8386893 136.3958130
35.4975739 -0.4569062 134.2948608
33.2470245 -0.4362308 136.3654480
31.0136414 -0.4233132 138.1075439
-10.1627645 -0.6547391 139.1059570
-12.3580761 -0.6947440 137.5721436
-14.5643702 -0.7367974 135.7560120
35.6097794 1.5816958 130.9733887
33.3451920 1.6073713 133.3574524
31.0972900 1.6190943 135.3272858
28.8747482 1.6293491 136.9522705
26.6631393 1.6330330 138.3281860
24.4649925 1.6369053 139.4668579
22.2834148 1.6355191 140.4325256
-1.4976475 1.5085534 140.9413910
-3.6686406 1.4820688 140.1199646
-5.8409710 1.4588583 139.1045532
-8.0226440 1.4300427 137.8919983
-10.2141666 1.3976685 136.4568329
-12.4198742 1.3618433 134.7410431
31.1992760 3.6701887 131.9861450
28.9549484 3.6794887 133.8694458
26.7328053 3.6813540 135.4310608
24.5218773 3.6860991 136.6961060
22.3342476 3.6840446 137.7581482
-1.5193188 3.5608039 138.3341675
-3.6962726 3.5419092 137.4132080
-5.8788700 3.5180283 136.2957916
-8.0721970 3.4908590 134.9485321
26.8248367 5.7434888 131.9317932
24.5981941 5.7445683 133.4146118
22.4008446 5.7408705 134.6228180
20.1979198 5.7391415 135.5785828
18.0133667 5.7325382 136.3418274
7.1433549 5.6862550 137.4575500
4.9743919 5.6728191 137.1748505
2.8087695 5.6604290 136.7325439
0.6349384 5.6442285 136.1092224
-1.5444239 5.6264005 135.2799072
-3.7256751 5.6082239 134.2486877
22.4807758 7.8137941 130.8050537
20.2639503 7.8134403 131.9428406
18.0709610 7.8044701 132.8391266
7.1583791 7.7595310 134.1247253
4.9789929 7.7490783 133.8077393
2.8005877 7.7361522 133.2981873
0.6140540 7.7206883 132.5678253
-1.5707803 7.7084198 131.6048431
18.1414909 9.8880463 128.4284515
15.9224453 9.8858871 129.2414703
13.7346935 9.8787060 129.8032074
11.5371981 9.8703384 130.1139374
9.3516750 9.8623028 130.1789856
7.1676416 9.8503675 130.0365295
4.9763212 9.8403034 129.6504211
-41.7932892 34.1147385 -89.6002426
-38.8703575 36.7513237 -84.9841995
-41.7027321 36.8073578 -87.1195526
21.5524044 39.7732086 -93.2118912
-35.9939423 39.3919067 -81.3382492
-38.7950020 39.4402771 -83.0241852
-41.6118355 39.5021057 -85.0189819
-44.4648628 39.5710945 -87.4050293
-47.3460846 39.6602554 -90.2737122
24.3348007 42.5731010 -94.7505798
21.5082169 42.4495697 -90.9825974
18.7015991 42.3503380 -87.9186096
-35.9469452 42.0766068 -79.7579498
-38.7339058 42.1286850 -81.3607330
-41.5510445 42.1906586 -83.2680054
-44.3917503 42.2651253 -85.5168839
-47.2566986 42.3546600 -88.1862411
24.2883511 45.2523193 -92.6510925
21.4726563 45.1264038 -89.1431656
18.6769218 45.0257492 -86.2511444
15.9052477 44.9389534 -83.8284302
-30.3763046 44.6692276 -75.9942017
-33.1181755 44.7109299 -77.0806351
-35.9105759 44.7573547 -78.4132233
-38.6900864 44.8135529 -79.9512634
-41.4977264 44.8812561 -81.7773895
-44.3302879 44.9594193 -83.9242477
-47.1881905 45.0514145 -86.4675140
24.2477665 47.9338951 -90.9569702
21.4411736 47.8074493 -87.6539917
18.6514130 47.7008400 -84.8872681
15.8841476 47.6120911 -82.5331116
13.1327209 47.5361328 -80.5123901
-27.5997734 47.3113823 -74.0382843
-30.3482094 47.3469543 -74.9239578
-33.0926666 47.3905525 -75.9962311
-47.1299133 47.7499657 -85.0502625
27.0406208 50.7791901 -93.4782867
24.2122459 50.6186829 -89.6066589
21.4115219 50.4901276 -86.4305954
18.6293030 50.3803101 -83.7545929
15.8656740 50.2888718 -81.4768372
13.1148319 50.2095528 -79.5110931
-27.5849571 49.9846420 -73.1714325
-30.3214703 50.0249367 -74.0235519
-33.0741119 50.0702286 -75.0843582
-47.0800705 50.4525452 -83.8924179
27.0160065 53.4727325 -92.2719269
13.0997343 52.8867493 -78.7049408
10.3689575 52.8161469 -77.0537109
-24.8461227 52.6286736 -71.7895203
-27.5652847 52.6625443 -72.4544525
-47.0545654 53.1593094 -83.0138931
26.9964867 56.1750107 -91.3877945
13.0841999 55.5669785 -78.0752792
10.3584681 55.4942932 -76.4606781
7.6268368 55.4323883 -75.0387268
-24.8340492 55.3067131 -71.2432480
-27.5712013 55.3427963 -71.9171677
-47.0234146 55.8695641 -82.3048248
-49.8871231 56.0009575 -84.9578476
26.9651527 58.8854485 -90.7520676
7.6199088 58.1119995 -74.6239243
4.9091530 58.0574188 -73.4293671
2.1939628 58.0120239 -72.4133606
-24.8351135 57.9885712 -70.8528748
-27.5694160 58.0283051 -71.5275574
-47.0096664 58.5864410 -81.8095779
-49.8788223 58.7253571 -84.4537354
-52.7855721 58.8906441 -87.6075363
26.9394703 61.6069336 -90.4061737
7.6121764 60.7985916 -74.3712769
4.9031310 60.7416534 -73.1812286
2.1891704 60.6938019 -72.1631622
-0.5106794 60.6555786 -71.3207245
-22.1255913 60.6429939 -70.1068649
-24.8431435 60.6763382 -70.6137161
-27.5660362 60.7185783 -71.2844849
-47.0055771 61.3120079 -81.5379028
-49.8726730 61.4592972 -84.1728821
-52.7820587 61.6331520 -87.3045654
26.9271946 64.3401184 -90.3117905
2.1714323 63.3829803 -72.0589523
-0.5146422 63.3431358 -71.2230835
-11.3178625 63.2746010 -69.4701538
-22.1270504 63.3338356 -70.0090179
-47.0115051 64.0470123 -81.4681854
-49.8762321 64.2030716 -84.1022949
-52.7858849 64.3875046 -87.2435379
26.9303474 67.0893478 -90.4926605
2.1719527 66.0809021 -72.1211624
-0.5269265 66.0388641 -71.2846146
-3.2291422 66.0098801 -70.6260452
-5.9342403 65.9847870 -70.0925751
-8.6322861 65.9708633 -69.7026443
-11.3232775 65.9663696 -69.4879913
-22.1435394 66.0359497 -70.0686188
-47.0308228 66.7941895 -81.6070709
-49.8974495 66.9604874 -84.2676163
-52.8047142 67.1570129 -87.4439087
26.9353752 69.8560486 -90.9459229
-8.6400471 68.6734085 -69.8858032
-11.3406353 68.6707153 -69.6952820
-22.1537743 68.7438354 -70.2656097
-47.0550919 69.5540771 -81.9478836
-49.9255104 69.7312469 -84.6486588
26.9463806 72.6435928 -91.6869507
-8.6587276 71.3887482 -70.2485352
-11.3533688 71.3848877 -70.0352936
-14.0520039 71.3908386 -69.9692841
-16.7641449 71.4077072 -70.0405960
-19.4537277 71.4293823 -70.2354584
-22.1743412 71.4632111 -70.6044159
-47.0970306 72.3311615 -82.5174103
26.9547138 75.4564056 -92.7558441
24.1162682 75.2005615 -88.7849503
21.3152199 74.9945831 -85.5732422
-47.1401443 75.1257172 -83.2998962
24.1324120 78.0200500 -89.9801102
21.3283825 77.7976151 -86.6441040
-47.1969757 77.9426422 -84.3393478
24.1466637 80.8700714 -91.5340424
21.3439274 80.6248322 -87.9789276
18.5432968 80.4212036 -85.0514984
15.7794762 80.2521362 -82.5830688
-35.9879074 80.1208191 -77.3398895
-38.7666016 80.2493439 -78.9293671
-41.5794487 80.4032745 -80.8214874
-44.4127884 80.5815353 -83.0433807
-47.2652168 80.7858505 -85.6630402
21.3617821 83.4837189 -89.6584549
18.5549927 83.2605896 -86.5361176
15.7849178 83.0772247 -83.9459076
-36.0357399 82.9326019 -78.5483780
-38.8339043 83.0800629 -80.2313995
-41.6485634 83.2411499 -82.1958389
-44.4861717 83.4366150 -84.5371399
21.3876648 86.3912811 -91.8200150
18.5724716 86.1381302 -88.4087296
15.7990732 85.9334564 -85.6410751
13.0299349 85.7634888 -83.3131104
10.2836285 85.6233063 -81.3596268
-36.1088181 85.7782135 -80.0271301
-38.9019012 85.9327240 -81.7820740
-41.7338486 86.1164780 -83.8858337
-44.5760994 86.3292084 -86.3791351
18.5976105 89.0656509 -90.7280045
15.8127718 88.8352661 -87.7234268
13.0393066 88.6424408 -85.2143631
10.2886639 88.4860458 -83.1245575
-36.1837730 88.6524124 -81.7902069
-38.9871483 88.8208923 -83.6636810
-41.8270683 89.0268784 -85.9269714
15.8301697 91.7788696 -90.2370148
13.0479164 91.5650101 -87.5046387
10.2930489 91.3918076 -85.2573929
7.5432501 91.2475128 -83.3676224
4.7987137 91.1291733 -81.7981491
-30.6945496 91.2712402 -80.8308487
-33.4714508 91.4048233 -82.2191925
-36.2716370 91.5690613 -83.9076996
-39.0960655 91.7638092 -85.9570770
13.0667248 94.5455933 -90.3144836
10.2956200 94.3432007 -87.8104019
7.5451059 94.1813049 -85.7587509
4.7977352 94.0493927 -84.0591507
-30.7715282 94.1976318 -83.0838470
-33.5626755 94.3514557 -84.6008911
-36.3772507 94.5334625 -86.4578934
-39.2090187 94.7538681 -88.7412338
10.3080492 97.3664246 -90.9789276
7.5518837 97.1748047 -88.6694183
4.7872620 97.0214081 -86.7806015
2.0515068 96.9087448 -85.2640381
-0.6924124 96.8168640 -84.0362549
-3.4229035 96.7382050 -83.0463562
-6.1467581 96.6990280 -82.3451691
-19.8164635 96.7632828 -81.9927902
-22.5591297 96.8285294 -82.5574112
-25.3145981 96.9251556 -83.3723373
-28.0879478 97.0391541 -84.4464722
-30.8729668 97.1821442 -85.8045197
-33.6774788 97.3564148 -87.5024719
-36.5048103 97.5702362 -89.6164398
7.5531645 100.2532272 -92.3055420
4.7822227 100.0734558 -90.1380005
2.0415173 99.9304657 -88.4023132
-0.7106683 99.8213272 -87.0288467
-3.4489007 99.7401581 -85.9522705
-6.1876101 99.6852646 -85.1614761
-19.8884926 99.7501373 -84.8058167
-22.6430607 99.8347931 -85.4532166
-25.4076843 99.9426575 -86.3805008
-28.1859016 100.0743866 -87.5852356
-30.9848385 100.2435684 -89.1509018
2.0294766 103.0474243 -92.3563461
-0.7339166 102.9227295 -90.7576447
-3.4771791 102.8190918 -89.5160904
-6.2254939 102.7534637 -88.6162567
-8.9687614 102.7148132 -87.9961624
-11.7200232 102.7071381 -87.6732635
-14.4539213 102.7206726 -87.6083603
-17.2124023 102.7570496 -87.7879944
-19.9705696 102.8274994 -88.2620773
-22.7354546 102.9205627 -89.0149536
-25.5135345 103.0458145 -90.0943375
-3.5130391 106.0187531 -94.1175690
-6.2796516 105.9342728 -93.0203629
-9.0255451 105.8855972 -92.2813492
-11.7825041 105.8711090 -91.9041519
-14.5351038 105.8839264 -91.8331909
-17.2946262 105.9335709 -92.0832977
12.4532948 -84.0615768 126.0026932
11.4127378 -84.0109711 126.2936249
10.1834469 -84.0829773 126.1637115
9.0645285 -84.1214676 126.0095901
20.0794411 -82.7601852 126.7429810
18.9457664 -82.6544876 127.5971756
17.9185543 -82.6055603 128.1553192
16.8517418 -82.5415955 128.6516113
15.6939125 -82.4864807 129.1330872
14.5039082 -82.4454880 129.5603180
13.4562836 -82.4351883 129.7788086
12.4479437 -82.4549942 129.8641052
11.3441811 -82.4619598 129.9545441
10.1658726 -82.4775620 129.9730835
9.0364456 -82.5074005 129.8894653
8.0286760 -82.5521469 129.7349396
6.9761529 -82.6073303 129.4892273
5.8225074 -82.6963196 129.1398621
4.6564236 -82.7967224 128.6929626
3.5848913 -82.8965225 128.1521149
2.5471046 -82.9964066 127.5362244
23.3915386 -81.5046692 127.7630234
22.3527508 -81.4058990 128.6374817
21.2205696 -81.3037872 129.5209656
20.0173988 -81.1948090 130.3430481
3.5831444 -81.3685455 131.4076385
2.5875306 -81.4415131 130.9510193
1.4774755 -81.5562973 130.3350067
0.2876108 -81.7212830 129.5698853
25.5830536 -80.2338715 128.9490356
24.3629570 -80.0623932 130.1889954
23.3051128 -79.9810867 131.0237427
22.2931824 -79.9382172 131.6621094
21.1767235 -79.8763733 132.3675232
19.9523182 -79.7890091 133.1434479
3.5806296 -80.0080261 134.0022430
2.6056798 -80.0662308 133.6288147
1.5155884 -80.1403046 133.1251984
0.2947445 -80.2507553 132.4586487
-0.8375110 -80.3728638 131.7803040
-1.8504412 -80.5028763 131.0594788
-2.9134970 -80.6467361 130.2058411
28.8133926 -79.1831665 128.4786682
27.7668266 -79.0404663 129.6587524
26.6913166 -78.9178085 130.7334900
25.4995251 -78.7878723 131.8826904
24.2952557 -78.6903381 132.8961487
-2.8454835 -79.2028580 132.9380341
29.8793545 -77.8888779 130.1223450
28.7117500 -77.7292099 131.4282227
27.6935387 -77.6401443 132.3748474
26.6285172 -77.5549774 133.2805023
25.4548187 -77.4623718 134.2471466
24.2341557 -77.3508072 135.1936340
-2.8019216 -77.8592911 135.2229004
-3.9853311 -77.9904022 134.3766022
-5.2079201 -78.1378555 133.3773651
31.0708122 -76.6678848 131.3593140
29.8010445 -76.5103683 132.7046967
28.6490002 -76.3849945 133.8396149
-5.2034264 -76.8307571 135.5357056
-6.2409124 -76.9400177 134.7785034
-7.2257519 -77.0503540 133.9573975
-8.3327990 -77.1865082 132.8966980
33.1565933 -75.5951691 131.1146851
32.1005173 -75.4725723 132.3399353
30.9550552 -75.3349609 133.5997467
29.7336311 -75.2075577 134.8415375
28.5894241 -75.1045151 135.8503113
-5.1909347 -75.5630798 137.3903961
-6.2250037 -75.6622086 136.6927643
-7.1881018 -75.7512283 136.0027161
-8.2963057 -75.8825607 135.0528259
-9.5191813 -76.0462799 133.8667145
34.1458206 -74.3861771 132.1448822
33.0706139 -74.2670975 133.3943481
23.0634518 -73.5683289 140.8523254
22.1109276 -73.5642624 141.1482544
21.0075836 -73.5317612 141.5760345
19.7606277 -73.4710007 142.1389771
18.6275101 -73.4493713 142.5093231
17.6974792 -73.4493484 142.6393585
16.7046146 -73.4428635 142.7755585
15.5200253 -73.4374924 143.0895844
14.2790604 -73.4253387 143.3633423
13.2777462 -73.4490356 143.4248047
12.3716660 -73.4712372 143.4291687
11.2852707 -73.4721069 143.4848328
10.0200748 -73.4885864 143.5296021
8.8705807 -73.5252304 143.4924011
1.5763024 -73.8112564 142.1803589
0.3020348 -73.8950119 141.7039337
-0.8435702 -73.9725037 141.2506714
-1.7623961 -74.0262451 140.9003143
-2.7410724 -74.0916443 140.4754333
-3.9420571 -74.1923218 139.8104858
-9.4993849 -74.7700958 135.8157196
34.0789223 -73.0951233 134.2296906
33.0042191 -72.9932098 135.3438568
23.0254993 -72.3679810 142.2204742
22.0835133 -72.3713608 142.4660339
20.9864864 -72.3365555 142.8631744
14.2575788 -72.2450943 144.6082916
13.2565155 -72.2635727 144.6625366
12.3559551 -72.3025436 144.6470337
11.2730331 -72.3139343 144.7066345
9.9969673 -72.3112259 144.7751770
8.8673506 -72.3313293 144.7397156
1.5857928 -72.6198578 143.4893951
0.3062873 -72.6941681 143.0252380
-0.8534277 -72.7809372 142.5714111
-1.7568904 -72.8236465 142.2727203
-2.7237804 -72.8788834 141.8916473
-3.9215915 -72.9790955 141.2499390
-9.4702177 -73.5161514 137.5679932
-10.6262922 -73.6567688 136.5425720
-11.6349010 -73.7868195 135.6229706
37.5557823 -72.3126526 131.5910950
36.4387970 -72.1509705 133.0942535
35.2344170 -71.9990387 134.6127014
34.0158615 -71.8555984 136.0133820
32.9385300 -71.7511444 137.0504608
22.9906082 -71.1855698 143.4670105
8.8422661 -71.1869354 145.8564148
7.9721608 -71.1969528 145.8138123
7.0194693 -71.2038422 145.7512054
5.7995615 -71.2611847 145.5504608
4.5243912 -71.3273621 145.2897339
3.5361915 -71.3530502 145.1331940
2.6677604 -71.3847427 144.9992371
1.5939169 -71.4289246 144.7330780
-2.7055526 -71.6889496 143.2053223
-3.9057865 -71.7808838 142.5716095
-11.6027031 -72.5279541 137.3014221
-12.6387377 -72.6679535 136.3574677
38.5164528 -71.1522064 132.2373352
37.4717407 -71.0259094 133.6092224
36.3663750 -70.8946686 134.9508972
35.1687698 -70.7525024 136.3398132
33.9433250 -70.6186752 137.6446533
32.8891525 -70.5399475 138.5654144
6.9964929 -70.0801926 146.7708893
-2.7076886 -70.5357132 144.4083405
-3.8955054 -70.5992432 143.7924194
-11.5641127 -71.3021698 138.8426208
-12.6037407 -71.4221191 137.9426422
-13.7746992 -71.5789032 136.7775269
-14.9823341 -71.7588806 135.4411469
39.6284599 -70.0733414 132.4533691
38.4468040 -69.8980637 134.1125183
37.4000740 -69.7845383 135.3652191
27.3830814 -69.0382462 143.5803070
26.3680534 -69.0112000 144.0411377
25.1682205 -68.9467545 144.7172394
23.9332371 -68.8816605 145.3874207
22.9274216 -68.8635941 145.7301636
7.9424973 -68.9101334 147.8419342
6.9977770 -68.9137344 147.7882843
5.7860212 -68.9685669 147.6437988
-3.8960938 -69.4443130 144.8946533
-13.7407303 -70.3590622 138.2947693
-14.9506569 -70.5220337 137.0479126
-16.0290604 -70.6700821 135.8817444
39.5473595 -68.8188248 134.2525940
38.3815765 -68.6735535 135.7621002
37.3411598 -68.5694733 136.9076843
27.3477249 -67.8872223 144.6496735
26.3418388 -67.8685226 145.0762329
25.1386490 -67.7913971 145.7463074
9.9571714 -67.7146835 148.8693085
8.8083782 -67.7513275 148.8203125
7.9350114 -67.7708054 148.7790985
6.9928951 -67.7762909 148.7292175
5.7850523 -67.8220901 148.5664063
4.5086122 -67.8944550 148.3135681
3.5383425 -67.9087524 148.1679382
-3.8816562 -68.2892380 145.9262390
-13.7176828 -69.1588440 139.6705627
-14.9250946 -69.3139877 138.5016174
-15.9927101 -69.4471741 137.4117432
-17.0305901 -69.5969162 136.2838135
41.9016647 -67.9528351 132.3714294
40.7319412 -67.7758789 134.1074829
39.4846573 -67.6055145 135.8290863
27.3092880 -66.7341156 145.6570435
26.3067684 -66.7262802 146.0506744
9.9550743 -66.5908051 149.7249603
8.8123512 -66.6130829 149.6966553
5.7796206 -66.6927032 149.4278259
4.5104842 -66.7624512 149.1752167
3.5366931 -66.7685394 149.0350647
-3.8716702 -67.1423340 146.9003448
-5.1440978 -67.2548065 146.2322083
-6.1492682 -67.3159790 145.7999268
-15.9634542 -68.2480774 138.7835999
-16.9881821 -68.3744736 137.7324219
-18.1299191 -68.5530930 136.4369659
41.8189468 -66.7193756 134.0411835
40.6542091 -66.5623093 135.6646423
39.4154854 -66.4093246 137.2570496
27.2869473 -65.6132660 146.5672760
26.2842712 -65.6011658 146.9342041
9.9393387 -65.4775925 150.5195160
8.8048019 -65.5130463 150.4958496
5.7739449 -65.5777054 150.2387848
4.5084267 -65.6453094 149.9895325
-3.8696094 -66.0075378 147.7967682
-5.1247659 -66.1151428 147.1496735
-6.1352215 -66.1711731 146.7384186
-15.9449615 -67.0694427 140.0197449
-16.9595642 -67.1837387 139.0445251
-18.0870132 -67.3425522 137.8327637
42.8391113 -65.6506729 134.0327454
41.7582550 -65.5167999 135.5252075
27.2589817 -64.4955063 147.4205322
26.2549686 -64.4814606 147.7710266
25.0618019 -64.4159393 148.4016418
23.8367615 -64.3658981 149.0976257
14.1637287 -64.3220215 151.2199707
13.1682434 -64.3155289 151.2260437
12.2624607 -64.3589478 151.1761169
11.1872025 -64.3633347 151.2176514
9.9389973 -64.3609848 151.2830505
8.8145380 -64.3944550 151.2646179
5.7723975 -64.4689255 151.0001678
4.5189638 -64.5225830 150.7663116
3.5290899 -64.5509262 150.6170197
-5.1214323 -64.9858551 148.0055542
-6.1207380 -65.0445557 147.6099548
-18.0503426 -66.1504517 139.0870972
-19.2504997 -66.3288727 137.7154541
43.8993683 -64.6084976 133.8433838
42.7825966 -64.4588547 135.4556732
41.7033997 -64.3400116 136.8349152
27.2347240 -63.3816147 148.2229767
26.2283478 -63.3691902 148.5682678
25.0318413 -63.3054733 149.1931915
23.8191319 -63.2684326 149.8313446
13.1614819 -63.2233620 151.9231720
12.2460909 -63.2528076 151.8916931
11.1638660 -63.2560501 151.9416809
9.9336720 -63.2632217 151.9951324
8.8144188 -63.2943573 151.9720154
5.7673497 -63.3674088 151.7229767
4.5269685 -63.4173088 151.4959869
3.5307741 -63.4521370 151.3503571
-5.1188183 -63.8858261 148.8013000
-6.1151018 -63.9239388 148.4230042
-18.0159245 -64.9796600 140.2334900
-19.2020035 -65.1340408 138.9430389
43.8317070 -63.4191055 135.2335052
25.0193005 -62.2119637 149.9121704
23.7973423 -62.1536026 150.5327606
22.8045998 -62.1725006 150.8381348
14.1427956 -62.1097908 152.5907288
13.1496630 -62.1282959 152.5986938
3.5374656 -62.3429565 152.0557251
-5.1039047 -62.7709846 149.5673370
-6.1081843 -62.8169937 149.1762085
-18.0100918 -63.8331451 141.2668762
-19.1753845 -63.9725952 140.0741730
-20.3337002 -64.1280518 138.7909546
-21.4154778 -64.2828369 137.5340118
46.2331924 -62.6149025 132.6479797
45.0043755 -62.4195099 134.6651764
43.7771530 -62.2514992 136.4612122
24.9956703 -61.1183777 150.6003876
23.7961159 -61.0652237 151.1793976
22.7958736 -61.0723267 151.4540863
14.1347866 -61.0191345 153.2092285
13.1500301 -61.0378113 153.2332153
3.5318804 -61.2676086 152.6959534
2.6424127 -61.2789764 152.6493988
-0.8420961 -61.4637604 151.6401367
-1.7242084 -61.4648056 151.5424500
-3.8723140 -61.5589066 150.8491669
-5.0899014 -61.6629372 150.2643433
-6.1026330 -61.7083931 149.8871155
-17.9727821 -62.6859360 142.2540588
-19.1469479 -62.8235245 141.0998383
-20.2966042 -62.9662552 139.8848572
-21.3644333 -63.1005859 138.6918488
47.3347206 -61.6116524 132.0240784
46.1552467 -61.4231491 134.0163422
22.7756710 -59.9873123 152.0432434
21.8206596 -60.0000610 152.1824493
20.7381077 -59.9780121 152.4774475
19.5165749 -59.9351883 152.9262848
15.3262568 -59.9592476 153.5687256
14.1283722 -59.9404297 153.7860107
13.1435480 -59.9559708 153.8170013
-0.7967335 -60.3442688 152.3096466
-1.7224536 -60.3701248 152.1537323
-2.7002740 -60.4033585 151.9391479
-3.8613238 -60.4766502 151.4636841
-20.2725410 -61.8228455 140.8661194
-21.3423977 -61.9475250 139.7175751
-22.4466095 -62.1024475 138.4339600
47.2520294 -60.4211655 133.3993225
46.0906601 -60.2595520 135.2443390
22.7634125 -58.8931541 152.6174316
21.7951660 -58.9112549 152.7669678
20.7071934 -58.8954468 153.0693970
19.5114632 -58.8657227 153.4774170
18.4137993 -58.8634186 153.7483978
17.4668846 -58.8805542 153.8132629
16.4737759 -58.9007149 153.8918457
15.3115253 -58.8706741 154.1239166
14.1276464 -58.8694725 154.3178864
13.1251173 -58.8848076 154.3593750
-0.7882971 -59.2703285 152.9094238
-1.7199711 -59.2876778 152.7462158
-2.6965013 -59.3199310 152.5237885
-3.8619370 -59.3864975 152.0634460
-20.2457943 -60.6887169 141.7666931
-21.3126984 -60.8103867 140.6630249
-22.4171047 -60.9493752 139.4245300
48.3374176 -59.4316101 132.7182312
47.1830750 -59.2573204 134.6184998
46.0427322 -59.1143265 136.3161926
-22.3894024 -59.8112869 140.3419037
-23.5530300 -59.9732628 138.9919586
48.2469940 -58.2629700 133.9368744
47.1345444 -58.1186180 135.6652985
45.9913521 -57.9804916 137.2895508
-22.3592796 -58.6816368 141.1913910
-23.5032692 -58.8263931 139.8746643
49.4200058 -57.3076210 132.9337921
48.1910706 -57.1200333 134.9806061
-22.3406391 -57.5632401 141.9647064
-23.4837799 -57.7003365 140.6932526
49.3395996 -56.1549911 133.9900513
48.1452637 -55.9958878 135.9104462
-22.3276482 -56.4554672 142.6712189
-23.4620361 -56.5861778 141.4575043
-24.6182117 -56.7282486 140.0916595
50.5638809 -55.2223663 132.7399902
49.2930222 -55.0266991 134.9102478
48.0900116 -54.8708954 136.7810211
-24.5843220 -55.6088142 140.8281403
49.2419167 -53.9094391 135.7631836
48.0476456 -53.7681351 137.5484467
-24.5789223 -54.5060272 141.5109558
-25.7002583 -54.6430244 140.1966248
-26.8193436 -54.7943039 138.8112030
50.4311066 -52.9579926 134.5534058
49.1794701 -52.7945328 136.5648651
48.0290070 -52.6711349 138.2151489
-26.7809124 -53.6721802 139.5048065
-27.9398460 -53.8386002 138.0199585
51.5971527 -52.0184441 133.2326965
50.3875809 -51.8509712 135.3119507
49.1669922 -51.7043266 137.2071838
47.9853859 -51.5771713 138.8591309
-26.7607346 -52.5689392 140.1278992
51.5368118 -50.9042587 134.0178833
50.3494759 -50.7544708 135.9933777
-26.7345448 -51.4691544 140.7109375
51.5018234 -49.8048706 134.6903992
50.3046417 -49.6573181 136.6301727
-26.7220116 -50.3797722 141.2251129
-27.8612785 -50.5181427 139.8231659
52.6464272 -48.8686829 133.2511139
51.4716110 -48.7156677 135.2940063
50.2730293 -48.5748444 137.1810608
22.6472034 -47.3198280 156.8809509
21.6072083 -47.3117294 157.1405945
20.5346718 -47.3032990 157.3852539
19.4417896 -47.3016205 157.6201630
18.3670387 -47.2993126 157.8245392
17.3378716 -47.2965927 157.9939270
16.2886810 -47.3012161 158.1395416
15.2123280 -47.3108749 158.2676392
14.1084099 -47.3120270 158.3803711
13.0776224 -47.3220749 158.4511414
12.0494919 -47.3343315 158.4956970
10.9821291 -47.3461838 158.5270691
9.8926067 -47.3568916 158.5414429
8.8162985 -47.3789520 158.5264587
7.7973576 -47.3958321 158.4866180
6.7470407 -47.4186287 158.4226379
5.6754613 -47.4375877 158.3391876
4.5730062 -47.4631004 158.2289886
3.5415101 -47.4888992 158.1032715
2.5181358 -47.5144005 157.9561462
1.4575913 -47.5426445 157.7779541
0.3627887 -47.5792618 157.5648499
-0.7164226 -47.6119041 157.3347626
-1.7455535 -47.6498299 157.0927277
-2.7874067 -47.6849060 156.8200836
-3.8706300 -47.7301331 156.5017548
-26.7035046 -49.2932510 141.7003784
-27.8392830 -49.4250603 140.3238068
53.8158722 -47.9479218 131.6028137
52.5996513 -47.7719116 133.8773041
51.4322815 -47.6288528 135.8520203
50.2413826 -47.4961319 137.6766052
22.6311131 -46.2828560 157.1141968
19.4301872 -46.2673798 157.8523712
18.3623066 -46.2689171 158.0449524
17.3224659 -46.2686691 158.2093201
16.2797298 -46.2729683 158.3558502
15.2040148 -46.2790184 158.4944305
14.1078739 -46.2822342 158.5988159
13.0733299 -46.2892838 158.6655731
12.0312366 -46.3036995 158.7114105
10.9683485 -46.3180695 158.7433777
9.8903332 -46.3299561 158.7587891
8.8204365 -46.3430481 158.7495270
1.4384266 -46.5136795 158.0007324
0.3543844 -46.5440674 157.7937317
-0.7210184 -46.5779572 157.5675049
-1.7464991 -46.6107674 157.3277588
-2.7976418 -46.6479454 157.0525055
-3.8680463 -46.6881332 156.7416077
-26.6980553 -48.2164230 142.1172028
-27.8220158 -48.3386993 140.7860718
-28.9744167 -48.4783516 139.2929993
53.7638092 -46.8484726 132.2208252
52.5690536 -46.6875038 134.4116211
29.0551281 -45.3439369 155.1221466
27.9643688 -45.3215828 155.5652313
26.9213543 -45.3117981 155.9400635
24.7747765 -45.2762032 156.6941528
23.6696949 -45.2628403 157.0324097
22.6247787 -45.2534409 157.3134003
18.3553295 -45.2395859 158.2413788
13.0593910 -45.2630806 158.8598480
12.0230484 -45.2723618 158.9123535
10.9677954 -45.2835503 158.9469147
-2.8028336 -45.6124954 157.2705994
-3.8716178 -45.6489220 156.9584961
-26.6948261 -47.1415024 142.4900818
-27.8106403 -47.2604218 141.1823273
53.7292023 -45.7626953 132.7542419
52.5295525 -45.6086884 134.8914185
29.0395126 -44.3093529 155.3216095
27.9464760 -44.2882004 155.7513733
-2.8118706 -44.5818787 157.4632721
-3.8790512 -44.6189156 157.1465759
-26.6732082 -46.0677032 142.8423462
-27.8023224 -46.1860542 141.5405884
-28.9370136 -46.3131294 140.1140442
53.7228699 -44.6884041 133.2061920
52.5150490 -44.5387192 135.2798615
29.0322495 -43.2816849 155.4944763
27.9441795 -43.2596397 155.9147339
-3.8804893 -43.5870056 157.3227844
-4.9743018 -43.6280251 156.9820251
-6.0194073 -43.6683578 156.6363831
-7.0648074 -43.7113647 156.2688599
-8.1314526 -43.7554092 155.8693542
-26.6640930 -45.0010147 143.1442871
-27.7914276 -45.1156769 141.8679352
53.7019196 -43.6119461 133.6143494
52.4949417 -43.4710121 135.6312256
29.0287132 -42.2554016 155.6394348
27.9433918 -42.2362900 156.0614624
-6.0244222 -42.6375237 156.7875061
-7.0773635 -42.6806526 156.4150085
-8.1333332 -42.7218552 156.0217896
-26.6653900 -43.9385490 143.4010773
-27.7926559 -44.0502090 142.1411896
53.6499214 -42.5412865 133.9485168
52.4746704 -42.4083290 135.9348602
29.0224514 -41.2295723 155.7606964
27.9378128 -41.2113457 156.1800079
-7.0736923 -41.6499100 156.5475769
-8.1454496 -41.6935616 156.1435242
-26.6445999 -42.8753166 143.6482544
-27.7853870 -42.9867554 142.3799133
53.6263046 -41.4778748 134.2187653
52.4563332 -41.3504524 136.1828918
29.0144024 -40.2081985 155.8554382
-7.0770378 -40.6215057 156.6504822
-8.1345606 -40.6634102 156.2541962
-26.6543846 -41.8220749 143.8189087
-27.7727871 -41.9265823 142.5878601
-28.9112682 -42.0403748 141.2426453
-30.0690289 -42.1652145 139.7543182
-31.1915207 -42.2933578 138.2127228
54.8875351 -40.5783691 132.0793610
53.6124268 -40.4214401 134.4372253
52.4419785 -40.2977829 136.3782043
33.3172569 -39.2783508 153.9317932
32.2508011 -39.2499313 154.4823761
31.1796055 -39.2273750 155.0037842
30.1052475 -39.2080956 155.4762726
29.0083847 -39.1885643 155.9260712
-7.0773301 -39.5948143 156.7342834
-8.1460056 -39.6372223 156.3357391
-28.9060802 -40.9814987 141.4153442
-30.0525093 -41.1020164 139.9375153
53.6014328 -39.3679237 134.6131287
52.4218826 -39.2464638 136.5499420
33.3098259 -38.2560539 153.9947205
32.2422943 -38.2309914 154.5446625
-7.0863824 -38.5713768 156.7982483
-8.1456623 -38.6121483 156.4002533
-28.8969688 -39.9250221 141.5516815
53.5909042 -38.3184013 134.7392883
52.4139099 -38.2009430 136.6545410
33.3050766 -37.2368889 154.0319519
32.2369576 -37.2125397 154.5664368
-8.1494045 -37.5884285 156.4411316
-9.2385321 -37.6330414 156.0108032
-12.4381990 -37.7728500 154.5740662
-28.8928967 -38.8722458 141.6518402
53.5835495 -37.2731857 134.8082428
52.4084473 -37.1589508 136.7111969
33.2978210 -36.2190704 154.0440979
32.2304192 -36.1963539 154.5688934
-8.1575499 -36.5672379 156.4597778
-9.2320213 -36.6090012 156.0386963
-12.4454212 -36.7475128 154.5906372
-28.8988228 -37.8224487 141.7241821
-30.0634174 -37.9352684 140.2854919
-31.1762238 -38.0492477 138.7966919
53.5708542 -36.2293396 134.8530731
52.4091530 -36.1197624 136.7269440
31.1509037 -35.1591530 155.0904236
30.0781612 -35.1400490 155.5832520
-9.2416000 -35.5882034 156.0381470
-10.3191223 -35.6322327 155.5702515
-11.3722067 -35.6763344 155.0957642
-12.4558516 -35.7241859 154.5791321
-31.1806660 -36.9974213 138.8218079
53.5725479 -35.1898270 134.8372345
52.3794403 -35.0793762 136.7549438
31.1487923 -34.1463776 155.0575867
30.0748272 -34.1280479 155.5397339
-10.3285561 -34.6126709 155.5405579
-11.3757687 -34.6555328 155.0670929
-12.4535427 -34.7018814 154.5560303
-31.1844330 -35.9474907 138.8221436
53.5784950 -34.1540794 134.7604065
52.3927193 -34.0470314 136.6663513
31.1404266 -33.1341209 155.0071106
30.0661316 -33.1162758 155.4893494
-10.3225737 -33.5929108 155.4989014
-31.1858807 -34.8994064 138.7926483
53.5880089 -33.1210175 134.6303406
52.3958855 -33.0152664 136.5591583
31.1428337 -32.1233177 154.9321289
-10.3234272 -32.5753021 155.4308472
-31.1845760 -33.8537827 138.7260132
53.5705185 -32.0872421 134.5211182
52.3945656 -31.9845600 136.4345093
31.1449432 -31.1132698 154.8343811
-10.3341045 -31.5595360 155.3253479
-28.9269981 -32.6082573 141.5213776
-30.0709133 -32.7068672 140.1080322
-31.2053070 -32.8119812 138.5928955
-32.3777199 -32.9250565 136.9341125
53.5761642 -31.0574837 134.3268127
52.4075699 -30.9572124 136.2355499
31.1399288 -30.1048164 154.7195892
-8.1858101 -30.4681492 156.0852509
-9.2593327 -30.5050011 155.6596375
-10.3398781 -30.5444908 155.2039337
-28.9293156 -31.5709343 141.3901367
-30.0781651 -31.6678295 139.9673462
54.8382301 -30.1487942 131.7730865
53.5905151 -30.0322227 134.0604706
52.4159241 -29.9328632 135.9918213
31.1400280 -29.0974369 154.5711517
-8.1935368 -29.4557590 155.9517212
-28.9474335 -30.5360546 141.1995697
-30.0913906 -30.6313229 139.7735748
53.6157227 -29.0070763 133.7455139
52.4253922 -28.9095650 135.7077637
31.1340389 -28.0931149 154.3951569
30.0679970 -28.0754662 154.8749390
28.9840412 -28.0612049 155.3313141
-8.1994381 -28.4438782 155.7900543
-28.9599705 -29.5030727 140.9739380
-30.1019974 -29.5963135 139.5396271
-31.2457676 -29.6928272 138.0157928
53.6399994 -27.9820175 133.4021149
52.4376640 -27.8880310 135.3814697
28.9794655 -27.0582027 155.1352081
-7.1503782 -27.3979225 155.9925995
-8.2041550 -27.4333191 155.6060791
-28.9673347 -28.4706612 140.7230225
-30.1024609 -28.5655365 139.2703400
-31.2323875 -28.6686497 137.7039948
53.6625137 -26.9609318 132.9956970
52.4615746 -26.8677292 134.9984741
28.9894638 -26.0536842 154.9220886
-7.1535945 -26.3885269 155.7856903
-8.2084675 -26.4228573 155.4034119
-28.9756718 -27.4410114 140.4329681
-30.1342316 -27.5282536 138.8918304
53.6760368 -25.9433689 132.5279846
52.4782791 -25.8494835 134.5841217
28.9869747 -25.0513439 154.6881866
-6.0801897 -25.3505096 155.9392090
-7.1545320 -25.3805389 155.5649109
-8.2196836 -25.4108467 155.1742554
-26.7435627 -26.2514172 142.7004089
-27.8816738 -26.3277683 141.4403381
-28.9895725 -26.4104328 140.1095123
-30.1233654 -26.5002861 138.6232758
53.7113800 -24.9235554 131.9975128
52.4952545 -24.8323479 134.1183319
28.9919701 -24.0471840 154.4223022
27.9116211 -24.0373306 154.8547363
-5.0380292 -24.3130035 156.0336914
-6.0844841 -24.3438892 155.6938934
-7.1580992 -24.3720169 155.3178711
-8.2237444 -24.4033623 154.9239502
-26.7534027 -25.2250309 142.3715973
-27.8888607 -25.3007126 141.1032715
-29.0149517 -25.3821373 139.7371521
53.7426567 -23.9036598 131.4445496
52.5187378 -23.8169518 133.5827942
28.9958878 -23.0442905 154.1439209
27.9151421 -23.0355473 154.5847473
26.8509560 -23.0239944 154.9872437
25.7590694 -23.0191860 155.3720703
24.7100029 -23.0078602 155.7120514
23.6258488 -23.0075798 156.0488434
22.5711174 -23.0008583 156.3432465
11.9369516 -23.0272179 157.9720764
-3.9611681 -23.2814274 156.0890350
-5.0398183 -23.3074951 155.7631226
-6.0989585 -23.3348083 155.4160461
-26.7746716 -24.2005119 141.9916992
-27.9082756 -24.2739410 140.7077332
53.7985115 -22.8848858 130.7653503
52.5454445 -22.8022919 132.9913025
28.9984188 -22.0431900 153.8458252
27.9234428 -22.0303783 154.2861176
26.8511810 -22.0231323 154.6910706
25.7663345 -22.0166931 155.0681915
24.7132511 -22.0080185 155.4107513
23.6230030 -22.0069580 155.7474060
22.5698452 -22.0024891 156.0354309
21.5125389 -21.9998512 156.2637939
20.4362602 -21.9972420 156.5415497
17.2377815 -22.0038738 157.1590271
16.1684361 -22.0033188 157.3130951
11.9310722 -22.0295601 157.7011108
10.8713646 -22.0345459 157.7416992
-1.8439300 -22.2277870 156.3583069
-2.9145367 -22.2507458 156.0868530
-3.9713490 -22.2744522 155.7914734
-5.0448895 -22.3019676 155.4670715
-6.1093779 -22.3280754 155.1142578
-26.7939911 -23.1749306 141.5714874
-27.9307766 -23.2481613 140.2754211
-29.0422440 -23.3259926 138.9078674
52.5756760 -21.7882175 132.3502960
20.4302177 -20.9967880 156.2541504
19.3718967 -20.9959602 156.4793549
18.2993050 -20.9989491 156.6851349
17.2457848 -20.9982491 156.8554688
16.1714516 -21.0033035 157.0139465
15.1224298 -21.0073967 157.1510620
14.0471992 -21.0101986 157.2524414
12.9966135 -21.0209961 157.3312378
11.9284496 -21.0284882 157.3924408
10.8660946 -21.0359745 157.4331360
6.6268802 -21.0799904 157.3360291
-0.7993878 -21.1998520 156.2874603
-1.8515825 -21.2223682 156.0490265
-26.8148232 -22.1520653 141.1140594
-27.9559536 -22.2223053 139.7883148
52.6303406 -20.7727623 131.6050568
20.4382725 -19.9946251 155.9183044
19.3730049 -19.9964085 156.1453552
18.3033524 -19.9993076 156.3506012
17.2487373 -19.9998531 156.5276184
16.1725025 -20.0042896 156.6905975
15.1205578 -20.0090618 156.8186035
14.0489349 -20.0114021 156.9157104
13.0036106 -20.0167923 156.9972839
11.9265270 -20.0262947 157.0627441
10.8677416 -20.0352268 157.0976868
9.8132458 -20.0435581 157.1109009
8.7520466 -20.0544987 157.1052094
7.6947088 -20.0656796 157.0673523
6.6265087 -20.0805950 157.0087128
5.5733252 -20.0909557 156.9304962
4.5061674 -20.1062450 156.8301849
3.4542360 -20.1234818 156.7111664
2.3888035 -20.1398964 156.5620117
1.3275599 -20.1562138 156.3816986
0.2747933 -20.1767159 156.1823120
-0.7958857 -20.1983871 155.9638062
-1.8551710 -20.2179012 155.7202301
-26.8316841 -21.1303616 140.6224365
-27.9657536 -21.2010269 139.2832031
52.6843910 -19.7592316 130.7828674
51.4364319 -19.6840248 132.9854584
50.2518387 -19.6102200 134.9104156
-26.8618908 -20.1050243 140.0742188
-27.9920063 -20.1760063 138.7176971
51.4784775 -18.6751575 132.1858215
50.2791061 -18.6011658 134.1800995
-26.8794937 -19.0837498 139.4976501
-28.0162487 -19.1540298 138.1041870
51.5514984 -17.6534939 131.3092346
50.3201904 -17.5929508 133.3681030
-26.9010410 -18.0614147 138.8686371
-28.0424118 -18.1260033 137.4564209
50.3708382 -16.5796204 132.4797211
