-2.1259441 25.9725609 139.6454620
-3.2273803 25.9904194 138.8390656
-4.3019729 26.0098228 137.9760895
28.2498741 27.1243172 135.8910217
27.1613197 27.1092358 136.8199615
26.0300026 27.0913944 137.6861725
24.9317341 27.0800037 138.4247437
23.8273163 27.0656929 139.1002502
1.0975823 27.0303345 139.4106445
0.0253424 27.0377808 138.8079681
-1.0661577 27.0588722 138.0879822
-2.1335473 27.0646915 137.3336182
28.3618965 28.2962322 132.8320313
27.2341309 28.2264671 134.0111389
26.1043911 28.1906166 134.9829865
24.9948597 28.1751499 135.8377380
23.8830738 28.1500416 136.6334991
1.0976108 28.1254692 137.0164185
0.0180276 28.1330795 136.3276215
-1.0748137 28.1602020 135.5216522
23.9623489 29.2738266 133.6774902
22.8693867 29.2378845 134.4940643
21.7571220 29.2143078 135.2069244
20.6460381 29.2108078 135.7778625
19.5536900 29.2028065 136.2739716
18.4634609 29.2012844 136.6830139
17.3795071 29.1871300 137.0485535
9.7687120 29.1689854 137.5876770
8.6802559 29.1735878 137.4129181
7.6017647 29.1819229 137.1760864
6.5168386 29.1879807 136.8823700
5.4418221 29.1897984 136.5172882
4.3453002 29.1991615 136.0508423
3.2812204 29.2002106 135.5444031
2.1775897 29.2194977 134.8939819
1.0896915 29.2548485 134.1644897
21.8418655 30.3903770 131.8102875
20.7222672 30.3369102 132.5467529
19.6170807 30.3084602 133.1714020
18.5153942 30.2945442 133.6866760
17.4318428 30.2852497 134.1244354
9.7932777 30.2737999 134.7628021
8.7090864 30.2740822 134.5768890
7.6360593 30.2876892 134.3343201
6.5331140 30.3008957 133.9400330
5.4594975 30.3005943 133.4724121
4.3644738 30.3204269 132.8918152
3.2874489 30.3569050 132.2646790
18.6091824 31.5009060 129.7351837
17.5112610 31.4839401 130.3224182
16.3855705 31.4342709 130.7554779
15.2989492 31.3908978 131.0709534
14.1934271 31.4008980 131.2914124
13.1214504 31.3940277 131.4530182
12.0223265 31.4082470 131.4585571
10.9199390 31.4405003 131.3842773
9.8243256 31.4464874 131.2098083
-38.1024132 51.0520325 -81.9397736
-39.5286331 51.1026459 -83.2152863
24.9465923 52.8305435 -93.4400406
-35.2749290 52.2608910 -78.5102615
-36.6636925 52.3106079 -79.4846115
-38.0551643 52.3636475 -80.5654678
-39.4760437 52.4259300 -81.7675171
-43.7946205 52.5932274 -86.1402054
24.8803616 54.1324196 -91.3919601
23.4771576 54.0168991 -89.1376038
-33.8361969 53.5284042 -76.4492340
-38.0167923 53.6673431 -79.3086090
-39.4432373 53.7189102 -80.4685211
-40.8646851 53.7784119 -81.7287064
-42.2933540 53.8496017 -83.1265869
-43.7010880 53.9246750 -84.6247253
-45.1922646 53.9806633 -86.3595352
26.2787094 55.5234718 -92.0505219
24.8532219 55.4162750 -89.6320648
23.4460258 55.3141708 -87.5417480
-32.4146194 54.8009453 -74.6223602
-33.7974167 54.8428078 -75.3815765
-37.9774933 54.9771347 -78.1625595
-39.4147949 55.0246773 -79.2938461
-40.8095665 55.0918236 -80.4622498
-42.2543564 55.1526260 -81.8152466
-43.6523209 55.2283897 -83.2551270
-45.1110764 55.3044357 -84.9173279
27.6993484 56.9241371 -92.9455261
26.2364845 56.8141174 -90.3063049
24.8206406 56.7064896 -88.0572281
23.4243641 56.6143608 -86.1196823
-30.9944763 56.0770760 -72.9542084
-32.4061127 56.1039734 -73.6626129
-33.7732620 56.1503029 -74.3897705
-43.5900421 56.5397186 -81.9615250
-45.0554466 56.6166000 -83.5595093
-46.4981651 56.7013588 -85.2546921
27.6351986 58.2237892 -91.2000427
26.2035847 58.1040611 -88.7518158
24.7903748 58.0031128 -86.6468201
23.4036026 57.9072266 -84.8277054
-29.6276970 57.3500748 -71.4898834
-30.9606094 57.3931503 -72.0628357
-32.3622704 57.4239082 -72.7414093
-33.7343750 57.4656410 -73.4650269
-43.5566368 57.8463135 -80.8195724
-44.9956169 57.9263306 -82.3156815
-46.4326744 58.0155029 -83.9587555
-47.9120712 58.1016006 -85.8082352
29.0334568 59.6373520 -92.2875748
27.6034889 59.5128365 -89.6837540
26.1680832 59.4012680 -87.3638077
24.7596378 59.3022614 -85.3880920
23.3580074 59.2146645 -83.6270981
-28.2230453 58.6333046 -70.1267242
-29.6001549 58.6646118 -70.6688995
-30.9636059 58.6888695 -71.2708740
-46.3843842 59.3248825 -82.7855759
-47.8491669 59.4180489 -84.5600128
28.9717922 60.9398537 -90.7617569
27.5581417 60.8137131 -88.2951660
26.1477165 60.7011185 -86.1586685
24.7342052 60.6058083 -84.2590637
23.3354683 60.5253220 -82.5691986
21.9337292 60.4468842 -81.0116730
20.5944538 60.3622093 -79.5887451
19.1958427 60.2945633 -78.2711182
-26.8336754 59.9155388 -68.8864441
-28.1951370 59.9476738 -69.3629379
-29.5785751 59.9767036 -69.9179840
-30.9198112 60.0121689 -70.4994659
-46.3502846 60.6372604 -81.7241669
-47.7952118 60.7349167 -83.4160385
-49.2835541 60.8238297 -85.2943420
28.9370422 62.2391014 -89.4201965
19.1595917 61.6103897 -77.4601440
17.8019333 61.5493469 -76.3250122
16.4177322 61.4957275 -75.2313385
-26.8250980 61.2245636 -68.2067719
-28.1794682 61.2571831 -68.6819611
-49.2222099 62.1431122 -84.1833496
30.3951454 63.6679764 -90.8772812
28.9006481 63.5398712 -88.2227173
19.1451817 62.9222221 -76.6793137
17.7886467 62.8588409 -75.5697861
16.3979416 62.8098526 -74.4966431
15.0508471 62.7522125 -73.5300446
13.6837521 62.6977844 -72.6158752
-25.4328594 62.5126495 -67.1564941
-26.8201714 62.5322723 -67.5907288
-28.1640034 62.5734406 -68.0520325
-49.1678047 63.4609833 -83.1789474
30.3318939 64.9782944 -89.6582336
28.8796730 64.8445053 -87.1678848
13.6467228 64.0221252 -71.9468307
-25.4219341 63.8261642 -66.5843506
-49.1273804 64.7877502 -82.3022003
30.2983093 66.2854233 -88.6112595
28.8668270 66.1498489 -86.2369232
13.6528244 65.3281097 -71.3840942
12.2916079 65.2809830 -70.5639191
-22.7120438 65.0866928 -65.3714294
-24.0661488 65.1087341 -65.6920624
-25.4138718 65.1398468 -66.0562668
-49.0925980 66.1109467 -81.5076447
31.7196312 67.7438812 -90.2961349
30.2721291 67.5978699 -87.6859283
28.8352890 67.4640045 -85.3812561
13.6362438 66.6430893 -70.8259811
12.2773705 66.5975723 -70.0194016
-22.6975517 66.4046860 -64.8758087
-49.0568924 67.4377365 -80.7737122
31.6867943 69.0603790 -89.4086838
30.2649441 68.9102173 -86.8910217
28.8156834 68.7789841 -84.6388474
13.6376104 67.9515915 -70.3219147
12.2713375 67.9100418 -69.5343552
10.9260035 67.8675766 -68.8125839
-22.6939011 67.7133331 -64.4413223
-49.0284576 68.7674179 -80.1179276
-50.4849167 68.8732224 -81.8356857
31.6465664 70.3792114 -88.5728302
10.9221048 69.1817932 -68.3932648
-20.0125656 68.9834442 -63.5401001
-21.3346367 69.0095062 -63.7682190
-22.6928272 69.0267258 -64.0492172
-49.0079460 70.0960388 -79.5392990
33.1220169 71.8656082 -90.6850891
31.6249084 71.6989212 -87.8808136
10.9098721 70.5005951 -67.9984970
9.5466728 70.4706573 -67.3509445
-19.9898224 70.3013992 -63.1584435
-21.3236561 70.3265076 -63.3979607
-22.6894207 70.3465271 -63.6877327
-48.9936485 71.4294357 -79.0350418
-50.4382706 71.5409088 -80.7048492
-51.9259338 71.6653671 -82.5875549
33.0871201 73.1920929 -90.0114365
31.6070366 73.0240707 -87.2857742
10.8978548 71.8147125 -67.6393814
9.5500069 71.7740479 -66.9711609
8.2432213 71.7503815 -66.3445282
-19.9809074 71.6194458 -62.8290863
-51.8791046 73.0089264 -82.0887985
-53.3536606 73.1474304 -84.1328125
33.0647812 74.5253220 -89.4631958
31.6059494 74.3538666 -86.7959595
10.8959131 73.1324539 -67.3346481
9.5467634 73.0918427 -66.6736298
8.1989202 73.0578003 -66.0600204
6.8388481 73.0253067 -65.4858398
5.5172596 72.9947281 -64.9863739
-18.6441593 72.9162598 -62.3500137
-19.9855614 72.9388123 -62.5644951
-51.8601685 74.3502197 -81.6634674
-53.3451805 74.4897537 -83.6853333
33.0305099 75.8596268 -88.9608383
31.5823498 75.6861725 -86.3452682
5.5034170 74.3168945 -64.7557068
4.1527357 74.2892075 -64.2841797
-14.6078968 74.1983414 -61.7553024
-15.9493771 74.2103882 -61.8498154
-17.3126030 74.2219467 -61.9759521
-18.6277733 74.2419434 -62.1351357
-19.9950352 74.2594681 -62.3398781
-21.3264141 74.2804718 -62.5709839
-22.6804657 74.3048935 -62.8383141
-48.9668732 75.4479599 -77.8928070
-50.3708763 75.5636749 -79.4728622
-51.8330688 75.6943970 -81.2779694
-53.3388863 75.8359070 -83.2893219
33.0438080 77.1970062 -88.5859299
31.5656605 77.0227890 -85.9828720
5.4906363 75.6375961 -64.5298004
4.1427374 75.6097946 -64.0511093
2.8119040 75.5834427 -63.6104164
1.4550406 75.5620193 -63.2005653
0.1193145 75.5454941 -62.8751755
-1.1957334 75.5285110 -62.6001587
-17.3141174 75.5460434 -61.7885857
-18.6325760 75.5624771 -61.9376144
-19.9892101 75.5827103 -62.1278381
-21.3274803 75.6045380 -62.3625488
-22.6825714 75.6295013 -62.6396713
-48.9395142 76.7922745 -77.5995331
-50.3733521 76.9109268 -79.2021408
31.5644436 78.3649216 -85.7163086
5.4872627 76.9577713 -64.3276062
0.1154158 76.8686295 -62.7259216
-1.2196144 76.8534470 -62.4221420
-2.5602331 76.8456726 -62.1520958
-7.9117651 76.8109970 -61.4282570
-9.2334127 76.8128738 -61.3326035
-10.5857544 76.8136673 -61.2888145
-21.3332253 76.9284668 -62.1939926
-22.6934853 76.9546890 -62.4738922
-48.9290085 78.1398621 -77.3696136
-50.3566971 78.2606964 -78.9656296
31.5387115 79.7089691 -85.4800720
5.4704895 78.2817917 -64.1764603
0.1108980 78.1906586 -62.5864220
-1.2257375 78.1750641 -62.2631454
-2.5566282 78.1617737 -61.9999390
-3.8836560 78.1524048 -61.7954712
-5.2380719 78.1452713 -61.6165886
-6.5706964 78.1403351 -61.4477310
-7.9224081 78.1358795 -61.2939415
-9.2555370 78.1358261 -61.2079391
-10.6050701 78.1404572 -61.1829491
-11.9300814 78.1458511 -61.1746101
-20.0021172 78.2321396 -61.8296318
-21.3178082 78.2554703 -62.0497475
-22.6906414 78.2816238 -62.3285294
-48.9286118 79.4918518 -77.2173080
-50.3510590 79.6148987 -78.8085022
31.5420265 81.0604782 -85.3559647
5.4706998 79.6095200 -64.0860291
4.1161709 79.5814133 -63.6188087
2.7969160 79.5571594 -63.2039070
1.4460973 79.5357132 -62.8262825
0.1095195 79.5169144 -62.4749413
-1.2158359 79.5004959 -62.1757622
-2.5641191 79.4884186 -61.9192009
-3.8932953 79.4678040 -61.6848488
-6.5720682 79.4598083 -61.3232117
-7.9262810 79.4601822 -61.1894302
-9.2523193 79.4614487 -61.1127892
-10.5939445 79.4649658 -61.0657997
-11.9399872 79.4704895 -61.0644875
-19.9992161 79.5604782 -61.7255554
-48.9296341 80.8483963 -77.1293030
-50.3534088 80.9739532 -78.7228317
31.5234299 82.4139252 -85.2687073
5.4744439 80.9389038 -64.0197906
4.1052761 80.9098358 -63.5429230
2.7912822 80.8848114 -63.1309624
1.4451878 80.8635406 -62.7527237
0.0917933 80.8440933 -62.4089928
-1.2286619 80.8285522 -62.1203766
-2.5587997 80.8151398 -61.8456116
-7.9281182 80.7887573 -61.1266937
-14.6349974 80.8206482 -61.0961189
-20.0064144 80.8912048 -61.6564789
-48.9392357 82.2098846 -77.1027908
-50.3553162 82.3365250 -78.6884460
-51.8570480 82.4844208 -80.5287781
-53.2993774 82.6382904 -82.4667587
32.9853020 83.9696655 -87.8942947
31.5342140 83.7783051 -85.3218536
-2.5767279 82.1428528 -61.8022842
-9.2725191 82.1190262 -61.0066147
-10.6180143 82.1247787 -60.9685211
-14.6393366 82.1503601 -61.0375366
-20.0011997 82.2238464 -61.6290817
-48.9267769 83.5714722 -77.0983200
-50.3657913 83.7033005 -78.7109985
-51.8528824 83.8538208 -80.5463028
-53.2991180 84.0121689 -82.5076218
32.9783401 85.3423920 -88.0095596
31.5271950 85.1461411 -85.4123001
-2.5751472 83.4785156 -61.7965813
-9.2624779 83.4483795 -60.9979820
-10.6102524 83.4559250 -60.9621429
-11.9511528 83.4617310 -60.9707260
-13.2850609 83.4724731 -60.9806900
-14.6185293 83.4815369 -61.0132790
-15.9644117 83.4962006 -61.1137390
-17.3354721 83.5183792 -61.2772369
-18.6546288 83.5371552 -61.4402847
-20.0049210 83.5594254 -61.6326790
-48.9623718 84.9436646 -77.1973801
-50.3789749 85.0757751 -78.7960052
-51.8412933 85.2268219 -80.6149597
-53.3117294 85.3931885 -82.6312561
32.9732819 86.7197266 -88.1871872
31.5266380 86.5190430 -85.5651016
-2.6003966 84.8071976 -61.8158913
-3.9168143 84.8031769 -61.6085930
-5.2843957 84.7908325 -61.4282799
-6.5939546 84.7925110 -61.2834549
-7.9477563 84.7862625 -61.1378784
-9.2673273 84.7833939 -61.0344086
-48.9620132 86.3155823 -77.3146667
-50.3970146 86.4542542 -78.9470596
32.9604797 88.1029053 -88.4394455
31.5259743 87.8987122 -85.8035126
-2.6005962 86.1487274 -61.9002724
-3.9203768 86.1409760 -61.6941643
-5.2844100 86.1331787 -61.5151901
-6.5979314 86.1313477 -61.3569107
-7.9527559 86.1283569 -61.2133484
-9.2834110 86.1231308 -61.1123314
-48.9713783 87.6925812 -77.5026321
33.0031586 89.5086594 -88.9126587
31.5350723 89.2885818 -86.1574860
-48.9935455 89.0785217 -77.7666397
-50.4377937 89.2251740 -79.4069061
32.9894066 90.9106903 -89.3896713
31.5362587 90.6846619 -86.5803070
-49.0118408 90.4681625 -78.0788574
-50.4595871 90.6221848 -79.7528152
33.0224113 92.3334198 -89.9931183
31.5432854 92.0880814 -87.0862579
-49.0306091 91.8637238 -78.4440155
-50.4861794 92.0243225 -80.1738892
33.0481491 93.7650070 -90.6785202
31.5432949 93.5016708 -87.6762772
-49.0615768 93.2662201 -78.8932419
-50.5022659 93.4313583 -80.6739502
31.5612373 94.9286346 -88.4056549
-49.1036301 94.6864777 -79.4481049
-50.5280609 94.8496628 -81.2534561
31.5780201 96.3691635 -89.2455368
-49.1221199 96.1017075 -80.0401154
-50.5809708 96.2830200 -81.9337311
-52.0874138 96.4954224 -84.0700836
30.2150612 97.5868149 -87.3750687
28.7381954 97.3652039 -84.9286499
-49.1766815 97.5350113 -80.7500839
28.7530670 98.8058243 -85.8076019
-49.2170410 98.9768906 -81.5333252
30.2585926 100.5236053 -89.5217743
28.7531929 100.2503433 -86.7904968
-46.3519859 100.0685501 -78.8350372
-47.7999115 100.2400131 -80.5379715
-49.2756424 100.4373474 -82.4309845
28.7631760 101.7191696 -87.9287033
-46.3849716 101.5099792 -79.6764832
-47.8330879 101.6890717 -81.4403381
28.8146706 103.2268982 -89.2699890
27.4014301 102.9838409 -86.7242279
25.9895935 102.7775421 -84.4403305
-43.5664024 102.6465302 -77.5213165
-45.0204849 102.8101807 -79.0378418
-46.4415779 102.9727707 -80.6597595
-47.9156342 103.1727448 -82.5061417
27.4209366 104.4711609 -88.0474243
25.9938087 104.2451324 -85.6043854
-43.6098747 104.0996704 -78.4591293
-45.0682983 104.2737122 -80.0509949
27.4657364 106.0002823 -89.6159821
26.0107079 105.7405167 -86.9685593
24.6058025 105.5312958 -84.7053223
23.2047100 105.3521576 -82.7665558
-43.6649246 105.5661163 -79.5067062
-45.1085777 105.7429581 -81.1632538
26.0422935 107.2594452 -88.5280228
24.6097412 107.0209656 -86.0728455
23.2299614 106.8401642 -84.0400848
-43.7246017 107.0518646 -80.6831360
-45.1868744 107.2415009 -82.4615860
26.1081257 108.8361282 -90.3380661
24.6452465 108.5500641 -87.6700211
23.2334461 108.3358307 -85.4542618
-40.9286308 108.2118530 -78.9075928
-42.3784485 108.3837891 -80.4027939
-43.7869720 108.5544662 -82.0072632
-45.2479477 108.7617035 -83.8894424
24.7167587 110.1397400 -89.5099258
23.2453918 109.8571701 -87.0498581
-40.9834785 109.7166824 -80.1956482
-42.4415359 109.8996811 -81.7877274
-43.8649368 110.0811615 -83.5069275
-45.3573341 110.3281250 -85.5133820
23.3068314 111.4477234 -88.9553757
21.8624058 111.1890717 -86.6449203
20.4851208 111.0005722 -84.6795654
-38.1983337 110.9046631 -78.7959290
-39.6341858 111.0598068 -80.1465988
-41.0550537 111.2319183 -81.6354599
-42.4990082 111.4165573 -83.3085327
21.9363480 112.7980194 -88.6226425
20.5135384 112.5514603 -86.4527359
-38.2627983 112.4188843 -80.2121811
-39.6995773 112.5881348 -81.6605759
-41.1169930 112.7647781 -83.2672958
-42.5840530 112.9850769 -85.0911102
20.5475082 114.1322403 -88.5197830
19.1011772 113.9009628 -86.2905197
17.7313023 113.7388916 -84.5043716
-35.4998741 113.6436920 -79.2080841
-36.9356728 113.8084106 -80.4705658
-38.3315887 113.9610901 -81.8205032
-39.7625961 114.1414108 -83.4116592
20.6060104 115.7928009 -90.9419250
19.1228352 115.4895172 -88.4594879
17.7441463 115.3033447 -86.4641113
-35.5797501 115.1941223 -80.8303223
-36.9903336 115.3452759 -82.1459122
-38.4027557 115.5251770 -83.6380920
19.1828957 117.1851501 -91.0505676
17.7786255 116.9337234 -88.7326965
16.3477306 116.6944580 -86.7053757
14.9962711 116.5313034 -85.0233002
-30.0415783 116.2164917 -78.2628937
-31.4114304 116.3214722 -79.1537476
-32.8415489 116.4666595 -80.2159195
-34.2240982 116.5975189 -81.3369064
-35.6563301 116.7662201 -82.6595917
-37.0708847 116.9363251 -84.1038361
16.3778324 118.3385773 -89.1473770
15.0042343 118.1300354 -87.2315598
-30.1135292 117.7795563 -79.9543152
-31.4759998 117.8923340 -80.9044952
-32.8979225 118.0352249 -82.0263977
-34.3042679 118.1919785 -83.2671585
-35.7316666 118.3675690 -84.7000198
-37.1821747 118.5918579 -86.3303680
15.0710068 119.8404999 -89.8760834
13.6241283 119.5822220 -87.9291687
12.2364397 119.4145966 -86.2715836
10.8633366 119.2789536 -84.8254089
9.4969044 119.1425629 -83.5056458
-30.1752415 119.3585739 -81.8352890
-31.5456810 119.4749222 -82.8640442
12.2603283 121.1030121 -88.8968430
10.8718147 120.9211121 -87.2712479
9.5014658 120.7564011 -85.7633972
-30.2352028 120.9630737 -83.9630356
-31.6314087 121.1149139 -85.1735001
-33.0686951 121.3158417 -86.5943222
10.8765907 122.6047668 -90.1809769
9.4946518 122.4207458 -88.4442291
8.1363392 122.2792587 -87.0416412
6.7384071 122.1521683 -85.7543640
5.3672032 122.0340500 -84.6426544
3.9937997 121.9553986 -83.7064362
-24.7187691 122.1016388 -82.4752960
-26.0988102 122.2154083 -83.2849426
-27.5019150 122.3298035 -84.2049255
-28.8939476 122.4674301 -85.2621841
-30.3281269 122.6452484 -86.5074921
8.1347427 123.9773026 -90.0683289
6.7375536 123.8315659 -88.5630341
5.3671751 123.7236481 -87.3065643
3.9888999 123.5914536 -86.1739120
-24.7880154 123.7533417 -84.8873367
-26.1687641 123.8703613 -85.8054428
-27.5862427 124.0098724 -86.9101868
4.0010514 125.3123016 -89.2167892
2.6343393 125.1774597 -88.0751266
1.2530117 125.0980835 -87.1183472
-0.1241781 125.0102692 -86.2816620
-1.4932033 124.9637604 -85.6107178
-13.7927532 124.8454590 -83.5338211
-15.1713657 124.8884430 -83.7297058
-16.5352936 124.9274063 -83.9870224
-17.9284668 124.9891434 -84.3594818
-19.2954350 125.0518417 -84.8035126
-20.6839085 125.1398010 -85.3759308
-22.0617962 125.2222290 -86.0315399
-23.4662151 125.3287201 -86.8355789
-24.8641644 125.4543915 -87.7773819
-26.2534409 125.6243515 -88.8728485
2.6502237 127.0449448 -91.6974716
1.2495749 126.8834076 -90.4869003
-0.1450327 126.7545395 -89.5133743
-1.5123856 126.6588135 -88.6522903
-13.8460875 126.5401077 -86.2634277
-15.2201777 126.5723343 -86.4746552
-16.5893517 126.6404953 -86.8158112
-17.9831581 126.7101593 -87.2485886
-19.3610210 126.7760773 -87.7828217
-20.7567997 126.8716354 -88.4536819
-22.1452503 127.0070724 -89.2591934
-23.5520096 127.1593628 -90.2584457
-1.5080274 128.5793762 -92.6474915
-2.8993626 128.4384766 -91.6869049
-4.2582698 128.3338928 -90.9677048
-5.6427712 128.3258057 -90.4081650
-7.0029502 128.2755585 -89.9711227
-8.3970699 128.2291870 -89.6803818
-9.7652340 128.2444000 -89.5028839
-11.1482773 128.2666016 -89.4010010
-12.5245800 128.2763672 -89.4487991
-13.9001560 128.3024597 -89.6539917
-15.2836952 128.3486938 -89.9193878
-8.4335556 130.2326660 -94.3648529
12.5784378 -66.2756805 131.1784363
12.0126390 -66.2694855 131.2845154
11.4455252 -66.3107224 131.1753693
9.2127180 -65.5948334 133.2211609
21.3294792 -64.9047165 132.9027557
20.7471676 -64.8471527 133.3612823
20.1565704 -64.7904968 133.7805328
19.5732384 -64.7450333 134.1132660
9.1957769 -64.7896652 135.3148041
8.6725998 -64.8562469 135.1453552
8.1711140 -64.8903275 134.9981995
7.6555562 -64.9210510 134.8113098
7.1206880 -64.9590073 134.5686188
6.5662575 -65.0101471 134.2574463
24.4599724 -63.6006775 134.6050873
23.8839264 -63.5235786 135.1037598
26.2115021 -63.0632706 134.6728210
0.5242674 -63.3944626 135.6062622
26.7349567 -62.3596420 135.9247894
26.1671658 -62.2947350 136.4484863
0.5405061 -62.6433144 137.2725220
-0.0581513 -62.7506294 136.7893982
-1.6465739 -62.2456856 136.9334412
-1.6277404 -61.5162926 138.4097443
-2.1396191 -61.6116753 137.9732056
32.1527786 -60.2029266 136.1043396
31.6242390 -60.1360588 136.8021851
31.0719090 -60.0635338 137.4948425
30.4518929 -60.0110016 138.1791687
-3.7543051 -60.4763222 139.1286926
-4.9498281 -59.9740410 139.1880341
34.2206879 -59.0797462 136.3462982
33.6138649 -58.9733925 137.1679535
-4.9398584 -59.2900581 140.3768158
-5.4991336 -59.3624840 139.8541260
-6.0192752 -59.4263496 139.3457642
-6.5165110 -59.4924774 138.8303528
-7.0353880 -59.5756607 138.2501984
34.7766724 -58.4896736 136.9186859
-6.9993968 -58.8930397 139.5170441
34.7134094 -57.7945518 138.3174744
-6.9774036 -58.2338600 140.6895142
-7.5059819 -58.3205261 140.1686707
-8.0694780 -58.4179878 139.5746002
-8.0297174 -57.7433968 140.7289124
36.9674530 -56.7951584 137.6737671
-8.0008183 -57.1031761 141.7765808
-8.6098766 -57.2034874 141.1389160
-9.2218132 -57.3024063 140.4694214
37.9794693 -56.2967377 137.4414673
39.0603676 -55.8039856 137.0271149
38.4638634 -55.7064629 137.9126587
37.9082603 -55.6238327 138.7016296
39.0124512 -55.1528206 138.2135620
19.7960205 -54.1948700 151.5358887
19.1704617 -54.2002525 151.7324982
18.6090984 -54.1863174 151.8707581
18.1256485 -54.1724548 151.9188690
17.6886349 -54.1801567 151.9176331
17.2419605 -54.1889534 151.9150391
16.7673721 -54.2242889 151.9177551
16.1904793 -54.2269440 151.9934998
39.5901031 -54.6114273 138.4163361
38.9458275 -54.5042114 139.3946533
18.1204128 -53.6073189 152.5050354
16.1460361 -53.6384239 152.5969849
22.0371532 -53.0988007 152.0512085
21.5391731 -53.0809517 152.1405182
13.7655144 -53.0972443 153.5223236
4.7494111 -53.3308296 152.4336090
4.1607285 -53.3690796 152.2593842
3.6799090 -53.3847122 152.1578522
3.2461333 -53.4089813 152.0648346
2.8467610 -53.3926582 152.0151672
2.3637815 -53.4186783 151.8619843
41.3310890 -53.6187553 137.7717438
13.7511616 -52.5050430 154.1057281
4.7234716 -52.7776527 152.9912872
2.3617115 -52.8666725 152.4615021
22.8991680 -51.9546890 153.0968781
22.4601288 -51.9758186 153.1345520
14.3102760 -51.9882927 154.6282959
13.7432966 -51.9637566 154.6220703
4.7209482 -52.2160683 153.5372925
2.3590412 -52.3134270 153.0432434
-13.4744120 -53.5440407 142.2749329
22.8912373 -51.4114151 153.6326294
13.7359915 -51.4274368 155.1182404
4.7313199 -51.6414261 154.0770264
-13.4344273 -52.9123878 143.1172028
-14.0511608 -53.0055275 142.4020844
42.2525177 -51.8713264 139.3864746
23.9069691 -50.8589249 153.8317871
23.3626671 -50.8512573 154.0575714
22.8733978 -50.8672485 154.1585846
13.7210712 -50.8724518 155.6214752
13.2448063 -50.8533211 155.6060791
12.8252878 -50.8764954 155.5567780
4.7152758 -51.1008339 154.5623627
43.9463196 -51.5252762 137.6411743
43.3207626 -51.4167252 138.6696625
42.7303581 -51.3249855 139.5989075
42.2137184 -51.2724915 140.3334351
23.8998432 -50.2999344 154.3507538
12.8190975 -50.3205376 156.0363007
4.7010512 -50.5576439 155.0346069
4.1540360 -50.5645981 154.8899536
25.1585617 -49.8078804 154.1987305
12.8163595 -49.7708893 156.4959564
3.6796074 -50.0007820 155.2377319
2.3820491 -50.0828285 155.1820984
1.8403300 -50.0789795 154.9577332
1.2196771 -50.1067276 154.6682434
-14.5632257 -51.2636566 144.0871277
44.4606514 -50.3701439 138.6326904
13.2458754 -49.2115021 156.9655762
12.8143768 -49.2447433 156.9244537
1.2396414 -49.5485382 155.1666565
-14.5481405 -50.6658707 144.8406677
44.4067039 -49.7613983 139.5849304
27.2144394 -48.7552452 154.4195862
13.2360878 -48.6748199 157.3966370
12.8094940 -48.6905518 157.3674927
1.2428790 -48.9939194 155.6478577
0.5867361 -49.0291214 155.3388214
-0.0637993 -49.0771065 155.0311584
-0.6480061 -49.1220360 154.7808228
-1.1214395 -49.1365547 154.6366119
-17.2450733 -50.4086075 142.3109131
-17.8129711 -50.4961014 141.5522308
-18.4094772 -50.5849304 140.7473145
45.6342163 -49.3481369 138.3737640
44.9911346 -49.2461967 139.4620361
44.3523254 -49.1613121 140.4967957
12.8017998 -48.1418266 157.7918854
-1.1171284 -48.5921974 155.0975800
-16.6462727 -49.7444191 143.8316040
-17.2125072 -49.8251686 143.0976563
-17.7831802 -49.9029503 142.3421631
46.1798706 -48.8318100 138.2838440
45.5638237 -48.7312355 139.3351746
4.7217164 -47.8026466 157.2996826
-1.1169114 -48.0398521 155.5499420
-16.6531048 -49.1808739 144.5128326
45.5035858 -48.1331215 140.2395325
-1.1274685 -47.5197029 155.9599609
-16.6171703 -48.5906410 145.2248077
-17.1963787 -48.6844330 144.5725403
28.0971088 -46.5546722 155.9836578
25.6732483 -46.5462341 156.5871887
25.0599022 -46.5127525 156.8587189
1.2378216 -46.8133354 157.3286285
-17.7531528 -48.1836739 144.5451660
46.5821724 -47.1038322 140.0270538
28.0543613 -45.9810638 156.4283600
27.1418285 -46.0275612 156.6154022
26.6809273 -46.0215645 156.6804352
26.1926136 -46.0153847 156.7627106
25.6672993 -46.0151863 156.9608002
25.0557880 -45.9775925 157.2404785
24.4036674 -45.9305992 157.5567627
13.6950350 -45.9789047 159.3867188
1.2258898 -46.2717476 157.7140961
-17.7089462 -47.5829430 145.1999664
-18.2807274 -47.6612473 144.5150146
-18.8933125 -47.7529411 143.7665405
25.0284843 -45.4332542 157.6399231
13.6798573 -45.4413147 159.7491913
-1.5297966 -45.8573151 157.1262512
-1.9588308 -45.8578911 157.0148773
-18.8831520 -47.1744347 144.3737946
47.6100502 -46.0699692 139.8149414
25.0326958 -44.9077148 158.0135803
13.6824265 -44.8901596 160.1069183
4.7025452 -45.1298523 159.2081757
4.1443782 -45.1309547 159.0806732
3.6706669 -45.1348000 158.9918060
3.2464147 -45.1301918 158.9497681
2.8410234 -45.1411285 158.9167480
48.7026405 -45.0626221 139.3518524
25.0295506 -43.8584061 158.7395630
24.3873234 -43.8181305 159.0380707
23.7714767 -43.7957764 159.3077393
23.2301769 -43.7966919 159.4823303
-19.9932365 -45.5907974 144.7617950
28.0117130 -43.3121185 158.2402649
25.6061249 -43.3487740 158.8125153
21.8553028 -43.3136864 159.8883972
4.7269363 -43.4966164 160.2345734
4.1816587 -43.5191917 160.1090393
3.6844141 -43.5494041 160.0417023
3.2431648 -43.5615234 160.0243530
-1.0796813 -43.7082977 158.6848907
28.0395794 -42.8111954 158.5410156
27.5426178 -42.8010483 158.7173309
27.0733109 -42.8038330 158.8003693
26.6031113 -42.8084373 158.8705444
26.0947056 -42.7992439 158.9704590
25.5713654 -42.8020592 159.1617432
21.8712406 -42.7864189 160.0056458
16.0376129 -42.7892799 161.1340332
4.7197313 -42.9741440 160.5514526
1.8009819 -43.0409622 160.0820465
1.2232111 -43.0658226 159.8513031
0.5782914 -43.1126289 159.5829926
-0.0355058 -43.1266174 159.3464355
-0.5933679 -43.1584053 159.1363983
-1.0832825 -43.1729240 159.0069122
-21.0256824 -44.5737000 144.5320282
-21.5736485 -44.6459923 143.8374176
49.8752480 -43.5193024 139.2995758
21.9122620 -42.2999382 160.2558136
16.0291233 -42.2512131 161.4423828
4.6978207 -42.4630013 160.8444366
-22.1258335 -44.1580391 143.6674805
17.4888458 -41.6885910 161.6795807
17.0321827 -41.7159882 161.6720886
16.5535851 -41.7157249 161.6863708
16.0143166 -41.7134743 161.7417297
4.7061653 -41.9368973 161.1446838
21.8865471 -41.2093887 161.0344391
17.9471455 -41.1612396 161.9475098
-22.0836105 -43.0199890 144.7908783
50.3591385 -41.8684578 140.2594147
49.7154579 -41.7787781 141.3705444
21.8886070 -40.6840706 161.1879730
18.9776325 -40.6269608 162.1048584
18.4378815 -40.6440620 162.1858521
17.9483528 -40.6385231 162.2185669
50.9186211 -41.3788414 139.8403473
50.8762207 -40.8054504 140.4647064
21.7660122 -39.5710411 161.9567566
21.2541466 -39.5517082 162.0381927
20.7482529 -39.5733414 162.1689453
20.1551800 -39.5957680 162.3278503
-23.1882668 -41.4814987 144.7948303
-23.1301308 -40.3525009 145.7703094
-23.7349110 -40.4329071 144.9982605
51.9251976 -39.2561378 140.2392273
-23.0962200 -39.7836380 146.2373199
52.4855499 -38.7769318 139.7602997
51.8879318 -38.6923141 140.8090363
-23.0889263 -39.2374535 146.6490631
-23.6677856 -39.3078613 145.9196320
-24.3028908 -39.3913651 145.0991364
52.9898720 -37.7261086 139.8444824
-24.2603073 -38.2842064 145.9598389
52.9649429 -37.1708717 140.3458557
53.5590820 -36.7008896 139.7257690
52.8953438 -36.6056252 140.9153442
-24.1997070 -37.1728172 146.7362671
-24.7793293 -37.2328262 145.9472809
-24.1628189 -36.6172371 147.1123962
-24.7215233 -36.6678200 146.3583374
54.1624451 -35.6843605 139.4936218
-24.1336441 -36.0669327 147.4701843
54.1190605 -35.1233139 139.9990845
-24.1301289 -35.5360756 147.7740479
54.7186089 -34.6083183 139.3697052
54.0633125 -34.5578842 140.5208435
-24.1087456 -34.9855461 148.1351776
-24.6843948 -35.0305748 147.3985291
54.0171165 -34.0055847 140.9955750
-24.0978527 -34.4484291 148.4718323
53.9907227 -33.4787865 141.3788452
-24.1067066 -33.9156647 148.7593231
55.1739960 -31.4568882 140.5743713
55.1100273 -30.9071541 140.9894257
19.4748535 -29.8123493 166.1042328
18.9147606 -29.8120174 166.1926422
18.3785019 -29.8179703 166.2654572
17.8815441 -29.8138561 166.3257751
11.1001520 -29.8817730 166.6079254
10.5782890 -29.8865929 166.6002197
10.0410948 -29.8980675 166.5838776
9.4770746 -29.9040737 166.5597687
8.9390526 -29.9028091 166.5260010
8.4436178 -29.9176178 166.4756622
5.8584533 -29.9655647 166.1802826
5.3185935 -29.9808140 166.1085510
-26.2958965 -31.4460812 147.3623352
55.0875931 -30.3726692 141.3109436
8.4393663 -29.4116383 166.6061249
-26.2811451 -30.9112968 147.6270294
-26.8496914 -30.9676056 146.8892670
-27.4615746 -31.0310020 146.0754089
26.8493671 -28.8093872 164.6524811
26.3487053 -28.8187866 164.7806091
25.8344231 -28.8451614 164.9046173
25.2791786 -28.8580894 165.0617218
24.7249527 -28.8624649 165.2165375
24.2081470 -28.8020515 165.3853302
23.6489983 -28.7952671 165.5428314
23.1205368 -28.7984257 165.6733398
21.5884399 -28.7948627 165.9704590
21.0585251 -28.7934666 166.0619354
8.4358206 -28.9019413 166.7365570
7.9361796 -28.9095783 166.6813507
7.4301481 -28.9188824 166.6249542
3.7199869 -28.9910507 166.1128235
3.2145066 -29.0040035 166.0147552
2.7076106 -29.0140915 165.9151459
2.1854568 -29.0259781 165.8065033
-27.4348068 -30.4899940 146.3269501
26.8887253 -28.3235474 164.7386475
26.4481335 -28.3424358 164.7234344
26.0162544 -28.3444786 164.4245453
21.5883179 -28.2929268 166.0588074
17.8637886 -28.3026752 166.6786041
2.1761200 -28.5193501 165.9308319
-27.4151134 -29.9516697 146.5614319
-27.9996319 -30.0085258 145.7527618
-28.5749893 -30.0636044 144.9520569
26.9407768 -27.8488579 164.7147980
26.5228882 -27.8157387 164.2301636
18.3760109 -27.7915344 166.7363434
17.8647060 -27.7949314 166.7888184
17.3698063 -27.7935810 166.8397369
16.8495693 -27.8007774 166.8889923
15.2665405 -27.8088608 167.0102844
12.6387892 -27.8313580 167.1111298
12.1372328 -27.8366089 167.1067810
11.6092253 -27.8415432 167.0992432
1.1246526 -28.0341225 165.8077850
0.5790118 -28.0490608 165.6693420
0.0473930 -28.0578976 165.5316925
-28.5694332 -29.5331593 145.1719513
15.2674856 -27.3004074 167.1234283
11.5976801 -27.3402004 167.2003784
0.0406004 -27.5528069 165.6461639
56.2474709 -27.8365231 140.4881744
27.8567429 -26.7852345 164.7801971
-0.4935172 -27.0535755 165.6113739
-1.0018129 -27.0638504 165.4666901
-27.3879433 -28.3572598 147.2124939
-27.9683762 -28.4078636 146.4329376
56.2069626 -27.2991924 140.7704163
27.8633919 -26.2847157 164.8832550
-27.3803501 -27.8270645 147.4198914
56.1785927 -26.7670879 141.0154266
27.8670177 -25.7819061 164.9759979
-2.0414069 -26.0809860 165.3612061
-28.5410595 -27.4041920 146.0325165
-29.1428566 -27.4604397 145.2096863
56.8131485 -26.3072472 140.0481720
56.1642151 -26.2399597 141.2266235
27.8533726 -25.2765903 165.0671844
-2.0293186 -25.5718193 165.4573059
-28.5173378 -26.8702927 146.2274323
31.0741940 -24.7962456 163.9596405
30.5623493 -24.8467884 164.1530609
29.4426441 -24.8357964 164.5558167
28.9430695 -24.7799129 164.7494965
-2.0340476 -25.0640125 165.5447235
-2.5671031 -25.0796032 165.3762512
-3.0889926 -25.0917606 165.2071075
-28.5010719 -26.3385105 146.4148102
31.1233025 -24.3280182 164.0034790
29.3964710 -24.2845669 164.6356964
-3.0824723 -24.5823612 165.2911224
31.1271992 -23.7862511 164.0800781
-3.0845456 -24.0767918 165.3660583
31.0575027 -23.2812767 164.1835022
-3.0922344 -23.5710316 165.4358368
-28.4887466 -24.7596302 146.8595581
-29.0781307 -24.8090706 146.0428619
-29.6816654 -24.8606892 145.2035065
57.3007393 -23.7197876 139.9546814
-3.0998497 -23.0668507 165.5043488
-3.6155343 -23.0756721 165.3266296
-4.1622005 -23.0937252 165.1348572
-4.7023282 -23.1089611 164.9406433
-5.2240543 -23.1215019 164.7458191
57.2840042 -23.1949100 140.1154938
-5.2422256 -22.6184998 164.7991486
57.2864609 -22.6726227 140.2350769
-5.2457209 -22.1121216 164.8533783
-28.4588203 -23.1830959 147.2257690
-29.0658131 -23.2311630 146.4052582
57.2712517 -22.1490498 140.3773193
-5.2430167 -21.6055336 164.9057312
-28.4647846 -22.6604061 147.3241425
57.2526207 -21.6264019 140.5132294
33.1502495 -20.7889271 163.5447998
31.0419712 -20.7672100 164.4543457
30.5891018 -20.7767448 164.3438721
-5.2552047 -21.1004772 164.9475861
-28.4790840 -22.1394615 147.4069214
57.2424469 -21.1051102 140.6228333
33.1380615 -20.2844315 163.5874176
31.0341949 -20.2650528 164.4877319
-5.2480068 -20.5940571 164.9906464
-28.4683170 -21.6159840 147.5064392
57.2485504 -20.5860004 140.6972656
33.1442184 -19.7848721 163.6144104
-5.2348108 -20.0875149 165.0274963
57.2556343 -20.0681686 140.7677612
33.1382523 -19.2809639 163.6399078
-4.6917396 -19.5672302 165.2634430
-5.2480054 -19.5839310 165.0493164
-5.2334142 -19.0788212 165.0790710
-5.7612386 -19.0927544 164.8759918
-6.2732329 -19.1055260 164.6772919
-6.7953758 -19.1196079 164.4666138
-7.3229499 -19.1331730 164.2450409
31.0661316 -18.2623386 164.5549927
-5.2297459 -18.5746040 165.1036530
32.0771408 -17.7673244 164.1321259
31.5565968 -17.7626705 164.3519592
32.0739021 -15.7634878 164.1425018
-6.2793241 -14.5733519 164.6093140
-6.8203979 -14.5857611 164.3887024
-7.3526998 -14.5984535 164.1716766
-6.2877979 -14.0709877 164.5724030
-6.2907186 -13.5687418 164.5355835
57.2393570 -13.3660688 140.6129608
-6.2952852 -13.0664034 164.4932861
57.2268639 -12.8538408 140.5258026
-6.2987514 -12.5637589 164.4451752
-28.4744701 -13.3230810 147.5039063
57.2150040 -12.3431072 140.4219055
-6.2851357 -12.0615358 164.3973694
-28.4909325 -12.8072834 147.4206848
57.2282944 -11.8328495 140.2491608
-4.7133036 -11.5299301 164.9144897
-5.2605844 -11.5389423 164.7207184
-5.7820849 -11.5489702 164.5314026
-6.2912250 -11.5596943 164.3362427
-28.4936066 -12.2917776 147.3388214
58.5305481 -11.3879337 137.5079193
-4.1898222 -11.0163317 165.0321350
58.5235329 -10.8741999 137.3844604
32.0667801 -10.2707891 163.6130371
31.5422058 -10.2679281 163.8402557
31.0079002 -10.2636194 164.0678406
-4.1893463 -10.5156269 164.9658356
57.2887840 -10.2946424 139.7768860
56.6530151 -10.2669067 140.9536591
56.0017433 -10.2394962 142.1103821
-4.1938663 -10.0150433 164.8962250
-28.4881287 -10.7491541 147.0132141
-29.0878906 -10.7781286 146.1838226
56.0273781 -9.7300882 141.9202423
-4.2065506 -9.5122194 164.8213043
-28.5088081 -10.2365942 146.8381958
29.9416542 -8.7654753 164.2315521
-5.2665486 -9.0320597 164.3559570
29.9309006 -8.2701778 164.1302795
29.4099216 -8.2682962 164.3245087
28.8861256 -8.2644100 164.5119781
28.3378906 -8.2629623 164.7066803
-5.2657371 -8.5312910 164.2645416
27.8029232 -7.7655215 164.7895813
-5.2823648 -8.0294523 164.1600342
27.8045940 -7.2695613 164.6811829
-3.1618142 -7.4937634 164.7864380
-3.6819212 -7.5022449 164.6139374
-4.2207818 -7.5077682 164.4334412
-4.7573562 -7.5152631 164.2479858
-5.2790618 -7.5305195 164.0585785
-28.5606689 -8.1743383 146.2436371
56.0974121 -7.1789632 140.9123230
27.8078594 -6.7714472 164.5698395
27.2832928 -6.7690930 164.7567596
-3.1726356 -6.9933934 164.6732178
-28.5790253 -7.6583591 146.0494690
56.1246109 -6.6661849 140.6516571
27.8123951 -6.2702069 164.4539642
-3.1715930 -6.4921479 164.5608521
-28.5892277 -7.1432996 145.8648682
56.1562767 -6.1532822 140.3738556
27.8134689 -5.7717309 164.3364258
-2.1215789 -5.9742689 164.7756195
-27.4644527 -6.5885110 147.1907349
56.1791420 -5.6406164 140.1096802
27.8058128 -5.2793751 164.2158966
-2.1209166 -5.4736500 164.6485748
-27.4713993 -6.0735807 146.9985199
-28.0392628 -6.0933838 146.2637939
27.8276730 -4.7732201 164.0726776
25.1516800 -4.7833710 164.8831940
22.0155716 -4.7817006 165.6484985
-27.4703083 -5.5584760 146.8040619
-28.0476151 -5.5752358 146.0531311
27.8114262 -4.2816205 163.9393616
27.2863293 -4.2802591 164.1144867
26.7728577 -4.2787204 164.2751923
26.2337132 -4.2835150 164.4361725
25.7064857 -4.2747235 164.5819092
25.1798515 -4.2756371 164.7282104
24.6500454 -4.2821927 164.8746948
24.1261845 -4.2825961 165.0124512
23.5857582 -4.2844272 165.1465454
23.0590725 -4.2806039 165.2679443
22.5383148 -4.2825985 165.3850555
22.0223217 -4.2827759 165.4997406
16.2295723 -4.3032408 166.3314514
15.7064648 -4.3061943 166.3674622
15.1856146 -4.3155560 166.4025269
14.6696424 -4.3154030 166.4272156
18.3230228 -3.2999730 165.8244019
10.4672260 -3.3508508 166.1860199
9.9395809 -3.3503733 166.1654205
9.4023027 -3.3557944 166.1433411
8.8803291 -3.3558609 166.1192017
8.3669157 -3.3555951 166.0984192
7.8900542 -3.3467908 166.0816498
1.0243986 -3.4321520 164.9415588
-27.5272617 -4.0144882 146.0864258
54.9888802 -3.0680285 140.7909546
4.1569929 -2.9020655 165.4184418
-26.3746967 -3.4701638 147.3335419
-26.9589577 -3.4849875 146.5837860
-27.5418301 -3.4985156 145.8261871
55.0154419 -2.5577188 140.4181061
13.0846043 -2.3360646 165.9196777
12.5604391 -2.3357584 165.9245605
12.0272951 -2.3323867 165.9201050
11.5000114 -2.3458707 165.9145813
6.7912107 -2.3857243 165.6259460
6.2536159 -2.3852189 165.5648499
5.7254086 -2.3857853 165.4963226
5.2160010 -2.3898926 165.4234772
4.6897025 -2.4013028 165.3442383
4.1618061 -2.4022603 165.2571564
-26.3913746 -2.9566152 147.0722504
-26.4352970 -1.4157547 146.2248840
55.1622276 -0.5019897 138.7901764
-26.4455032 -0.8975056 145.9237518
-26.4531822 -0.3880563 145.6033325
54.6230278 1.0466342 138.5893707
53.9719353 1.0408025 139.7449188
-24.2440186 0.6954142 147.7742462
-25.3240242 0.6468987 146.3491058
54.0078011 1.5591681 139.2871246
54.0498962 2.0783617 138.8099365
-25.4185314 2.7311213 144.8778687
-25.4693279 3.2660413 144.4341888
52.9016800 4.1228099 138.9565887
53.6023140 4.6507368 137.1740417
52.9401741 4.6407137 138.3991547
-23.2157536 4.8183970 146.2218781
-23.7616501 4.8128529 145.5423889
-24.3649940 4.8090510 144.7591248
53.0521011 5.6869092 137.1217804
-23.2416134 5.3394642 145.7874298
-23.2507248 5.8537731 145.3616028
-23.8162231 5.8545074 144.6670837
-23.2606220 6.3668156 144.9194641
51.9502106 7.2394047 137.4786682
-23.3085785 6.8979993 144.4050140
-22.2081451 7.9254384 144.8516541
-22.7785301 7.9348631 144.1403046
50.8188782 8.7928143 137.7235413
-22.2312546 8.4557447 144.3373260
-22.2575054 9.4799643 143.2435913
-21.1066628 9.9844303 144.1622467
-21.6776619 9.9769230 143.4286957
-21.1657219 10.5749178 143.4015503
48.5754128 11.3443966 138.2601471
-21.1588879 11.0381908 142.9012604
-21.7245407 11.0422049 142.1242981
49.2740784 11.9000311 136.3095856
48.5996628 11.8654909 137.5298767
-21.2121201 11.6059847 142.1936035
48.6778564 12.4117136 136.6977386
-20.1152515 12.0937777 143.1311798
-20.1386681 12.6232519 142.4983826
-20.7120972 12.6511383 141.7264709
47.5882835 13.4365282 136.9972992
-20.1534672 13.1377316 141.8759155
47.6395721 13.9739399 136.1098785
47.0880394 14.4897614 136.2644348
46.4598846 14.4562035 137.3393402
-19.0708065 14.1898155 141.9802399
46.5376091 15.0082626 136.4212952
45.3724022 15.5123053 137.5970306
-18.0178623 15.2381163 141.9333496
44.3033676 16.5543423 137.5882721
-16.9307861 16.2785378 141.8460236
44.3815079 17.6095867 135.6380157
-15.8518190 17.3220882 141.6423035
-15.8836126 17.8793678 140.8045654
43.2719269 18.6502800 135.4898529
42.6953621 18.6391525 136.3744202
42.0984993 18.5902958 137.3223419
-14.7832165 18.3706055 141.3186188
-15.3455734 18.3759041 140.6823883
42.1803970 19.1549015 136.2896118
-14.8077507 18.9057903 140.4906311
41.6437263 19.6747799 136.1402130
41.0150757 19.6198139 137.0536804
41.0636749 20.1748581 135.9502563
41.1586571 20.7343616 134.7222595
-12.6493158 20.4650688 140.4138336
-13.2026186 20.4784107 139.7992249
-13.7777557 20.5089626 139.1178436
38.8448639 21.6732540 135.9738617
38.9051552 22.2546978 134.7382813
-10.5350018 22.5889988 138.9386292
-11.0690985 22.5986233 138.3573151
-11.6296253 22.6299992 137.7024841
-10.5551777 23.1351261 137.8948975
35.0934563 23.7947865 136.6589661
34.5033531 23.7992001 137.3213501
-9.4483328 23.6563492 138.0613251
-10.0070944 23.6845493 137.4270172
-10.5814314 23.7178574 136.7568970
35.3192215 24.2339878 136.0067291
34.5184441 24.3276634 136.0986938
-6.2003040 24.6853466 139.0995789
34.1232185 25.9859924 132.5509491
33.5323296 25.9207287 133.3728485
-5.1197982 25.7508011 137.8613129
-5.6829190 25.7781868 137.3324890
33.6062851 26.5271130 131.6957397
-5.1496387 26.3319778 136.6260071
33.1015778 27.0701160 130.7485657
32.5170898 27.0175953 131.6434021
31.9177761 26.9529247 132.4974823
31.3206177 26.9123631 133.2871399
30.7479324 26.8928852 133.9820709
30.1984882 26.8898983 134.5667572
29.6100349 26.8606873 135.2312012
29.0635033 26.8655930 135.7716522
-2.9777272 26.8182259 137.2690887
-3.5187709 26.8332520 136.8315277
-4.0575285 26.8539371 136.3816681
29.1614227 27.4287930 134.3818970
-2.9838803 27.3763008 136.0100403
29.1475067 28.0594997 132.7902374
-1.8972416 27.8962307 135.5780945
-2.4432616 27.9182262 135.1334381
-1.9033158 28.4975281 134.1268616
27.0432510 29.1354599 131.7291565
26.4691715 29.1094303 132.3363495
25.9027271 29.0865498 132.8807678
25.3320560 29.0525417 133.4052887
24.7803726 29.0271854 133.8429718
0.2805450 28.9758339 134.3872528
-0.2771329 28.9979706 133.9734192
-0.8230186 29.0565205 133.4729767
24.8381138 29.6397381 132.1543732
0.2779012 29.6028557 132.7642365
24.3212872 30.2090263 130.7300415
23.7635860 30.1859379 131.2624359
23.2153244 30.1534214 131.7437897
22.6635208 30.1068420 132.1809387
2.4610734 30.0898533 132.6486053
1.9045852 30.1346397 132.2437439
22.7185116 30.7460613 130.1703796
21.0889435 31.2984676 129.2962341
20.5198765 31.2785778 129.7233734
19.9672394 31.2453899 130.0979919
19.4163246 31.1804161 130.4762115
8.9952135 31.1219273 132.0604858
8.4753962 31.1217537 131.9476318
6.2806773 31.1608276 131.0737762
5.7477221 31.1808529 130.8118286
5.2107549 31.2145481 130.5106049
4.6458664 31.2505684 130.1308441
4.0998554 31.2761040 129.7428741
19.4798489 31.8614159 127.9739227
9.0348377 31.7564507 129.9328308
6.7962341 31.7738514 129.0555267
6.3090286 31.8345966 128.7521362
16.2196426 32.4004745 126.9580612
15.6474705 32.4138260 127.1866760
15.1040134 32.4048233 127.4678040
14.5551224 32.4025154 127.6240845
14.0004015 32.3978386 127.7693481
13.4627905 32.3940430 127.8801422
12.9164772 32.3886681 127.9802170
12.3670225 32.3902779 127.9701080
-38.5487404 49.3863602 -84.1327820
-37.7895355 50.0452499 -82.7353058
-38.5031662 50.0710640 -83.3447495
-39.2384224 50.0817719 -83.9963760
23.9139786 51.7799683 -93.1117020
-36.3726463 51.2962570 -80.2248993
-37.0430107 51.3360329 -80.7216263
23.8929558 52.4260521 -92.0834274
23.8560848 53.0839233 -91.0373993
23.1487522 53.0189018 -89.8997345
-40.5277100 52.7837601 -82.3553772
-41.2518349 52.8162346 -83.0594635
-41.9854355 52.8503990 -83.8193283
-42.7247505 52.8826332 -84.6093826
-44.9109154 52.9528618 -87.0923538
25.9939938 53.8720818 -93.8430710
-32.8054085 53.1737175 -76.1184845
26.7002525 54.5637970 -94.1895218
25.9394417 54.5318794 -92.7806396
-32.7854996 53.8323631 -75.5797119
-46.2904625 54.3598061 -87.3629150
22.4158688 54.9067001 -86.4999237
27.3809834 55.9206009 -93.6364746
22.4007778 55.5594635 -85.7894058
-31.3563862 55.1026039 -73.8295822
22.3708515 56.2153206 -85.0753021
-47.6522827 56.4103699 -87.0016479
22.3826733 56.8634300 -84.4529648
-47.5880165 57.0903625 -86.2879562
-48.3719749 57.1175232 -87.3399887
-49.1244431 57.1635475 -88.4045410
28.7454472 57.9780693 -93.6677094
22.3353119 57.5217667 -83.7737427
28.6873894 58.6370659 -92.7513504
22.3333130 58.1678352 -83.2011642
21.7001705 58.1457367 -82.4066086
-28.5878658 57.6514130 -70.8725128
-49.0586319 58.4731178 -86.9816895
22.3074646 58.8241386 -82.6388474
21.6794510 58.7623177 -81.9186172
-49.0053368 59.1468277 -86.3109055
22.2911072 59.4805946 -82.1199112
21.6212482 59.3967056 -81.4056702
18.9185658 59.3587761 -78.4662857
-27.1838837 58.9413147 -69.5529022
-48.9692459 59.8080482 -85.7041779
-49.7298698 59.8404388 -86.7122421
30.1384163 60.6991005 -93.3210678
18.2032127 59.9029541 -77.6333847
30.0844460 61.3563461 -92.5185089
18.1425419 60.5845909 -77.1791916
17.4541759 60.5586624 -76.6127090
16.7513199 60.5319061 -76.0495224
16.0821495 60.4943161 -75.5297546
-25.8036537 60.2183418 -68.3783035
-50.3960114 61.2095375 -86.4706573
30.8376198 62.0653572 -93.3039932
30.0820007 62.0071869 -91.8387833
-25.8117008 60.8703270 -68.0447540
30.0528584 62.6577072 -91.1353073
15.3862209 61.7888260 -74.2744598
-24.4257431 61.5075073 -67.3116760
-25.0864983 61.5285950 -67.5010300
-25.7724552 61.5425377 -67.7064362
-24.4160995 62.1586647 -67.0085526
-24.4233608 62.8160782 -66.7175980
-50.2810631 63.8520699 -84.2971954
12.6507053 63.6445732 -71.4739151
-24.4296627 63.4649963 -66.4445419
-50.2520561 64.5221786 -83.8535767
31.4002457 65.4037781 -91.3337097
12.6304827 64.3092804 -71.1748428
-23.0619392 64.1130219 -65.8342438
-23.7468719 64.1193237 -65.9980774
-24.4192562 64.1274414 -66.1710892
-50.1885986 65.1899490 -83.3816528
-50.9897652 65.2301712 -84.3609009
31.4113693 66.0597229 -90.8495865
-50.1659698 65.8543243 -82.9732819
-50.9738350 65.8969650 -83.9579849
31.3736801 66.7176743 -90.3082428
11.2932281 65.5742035 -69.8521271
-21.6894588 65.3995895 -65.0168839
-50.1783905 66.5178375 -82.6123505
11.2886744 66.2325592 -69.5879974
-21.6961174 66.0508881 -64.7731094
-50.1583595 67.1808014 -82.2271194
11.2910261 66.8887253 -69.3422241
-21.6929474 66.7080688 -64.5380630
-50.1364365 67.8465500 -81.8744583
-50.9234009 67.8952560 -82.8379593
-51.6867142 67.9500198 -83.8083267
32.8510551 68.8445358 -91.8376007
9.8974619 67.5111008 -68.3795471
-21.6859207 67.3645096 -64.3247757
32.8079834 69.5065689 -91.3260880
9.9096546 68.1690521 -68.1802216
9.2285538 68.1541214 -67.8473816
-21.0174313 68.0124512 -63.9983826
-21.6719093 68.0270767 -64.1218872
32.7763939 70.1678772 -90.8662109
-50.0941811 69.8441849 -80.9292068
-50.8680954 69.8969040 -81.8434677
32.7635078 70.8289185 -90.4842377
-50.0853310 70.5116959 -80.6448975
8.5595970 70.1341629 -66.9774017
-18.9602890 69.9600983 -63.0774155
-53.0333481 71.4264832 -84.1929245
8.6073351 70.7518921 -66.7557373
-18.9625397 70.6108932 -62.8926125
-52.9963150 72.1006470 -83.9358826
-53.7832069 72.1729965 -85.0762177
-54.5756569 72.2457809 -86.2530365
-18.9723759 71.2710114 -62.7245598
-54.5390854 72.9178925 -85.9580917
-18.3538170 71.9568100 -62.4570580
-18.9584866 71.9325256 -62.5762711
-54.4961166 73.5914764 -85.6576538
-16.2659435 72.5633240 -62.1549530
-17.6730137 72.6079483 -62.2642250
34.2145767 74.9949417 -91.5678024
4.4840727 73.3069839 -64.5689774
3.8174140 73.2931976 -64.3414383
-15.6111383 73.2119370 -61.9981689
-16.2930813 73.2145538 -62.0466347
-16.9639130 73.2298508 -62.0973892
-17.6321793 73.2384033 -62.1630363
34.1804428 75.6633606 -91.2835693
3.1524682 73.9410782 -64.0009460
34.1914368 76.3348007 -91.0942307
3.1505597 74.6012878 -63.8855324
2.4871712 74.5875778 -63.6675072
-13.6028080 74.5181046 -61.6324081
34.1962700 77.0053864 -90.9014816
-12.9172611 75.1641464 -61.4731522
-13.6035051 75.1744385 -61.5137596
-14.2544785 75.1900635 -61.5525970
-14.9556923 75.1848373 -61.6021156
-15.6098490 75.1953735 -61.6517372
-16.3063812 75.1987381 -61.7177162
-51.4791718 76.6704636 -80.5941849
-52.2168579 76.7394409 -81.5261307
34.1518974 77.6711349 -90.6020660
-2.2433653 75.8534164 -62.3555603
-10.2690439 75.8159332 -61.4157753
-10.9303827 75.8240204 -61.3924942
-16.2682648 75.8662262 -61.6190491
-51.4837151 77.3456116 -80.4603653
32.6648788 78.1531143 -87.6092377
4.4770479 76.6054153 -64.0040970
1.1312046 76.5480118 -62.9936562
-3.5074692 76.5284042 -61.9872169
-16.2880173 76.4974899 -61.5353279
-20.3314400 76.5784760 -62.0415382
-51.5120926 78.0221863 -80.3683472
32.6581306 78.8242569 -87.4649200
4.4850049 77.2647324 -63.9182854
1.1125556 77.2090607 -62.9260101
-3.5271020 77.1663742 -61.9002151
-4.2278891 77.1953278 -61.8069878
-4.9280372 77.1847458 -61.7220421
-5.5940428 77.1588669 -61.6304321
-20.3464718 77.2414093 -61.9742432
-51.5090370 78.6996460 -80.2651291
32.7031059 79.5029373 -87.4355087
4.4408393 77.9285126 -63.8383751
1.1178974 77.8740692 -62.8719559
-51.4991264 79.3775253 -80.1750565
32.6923370 80.1779861 -87.3351440
4.4284172 78.5921021 -63.7873917
3.7778635 78.5794144 -63.5720558
3.1460729 78.5672684 -63.3732681
2.4717879 78.5562210 -63.1763382
1.7810249 78.5462112 -62.9899635
1.0970422 78.5359116 -62.8113556
-18.9696522 78.5477524 -61.6473427
