-10.9137106 -29.9469261 156.8263245
44.4285202 -27.4611092 154.0540161
42.1080856 -27.3429642 156.5395355
40.0173569 -27.2728310 158.3368988
37.7011147 -27.1848259 160.2238159
35.6635551 -27.1471272 161.4899597
33.3931389 -27.0835381 162.9244232
31.3322010 -27.0568466 163.8831635
12.3585396 -27.0531998 167.6865845
10.2517605 -27.0791893 167.5139618
8.1143131 -27.1253586 167.2376251
-2.2856889 -27.3950310 164.2169800
-4.4846044 -27.4911499 163.0851135
-6.5702386 -27.5736961 161.9340820
-8.6958923 -27.6742134 160.5519409
-10.8739729 -27.7887230 158.9173889
-12.9679012 -27.9099731 157.1363678
46.5285873 -25.4232941 153.7654724
44.3166237 -25.3191547 156.2318420
42.0189857 -25.2167892 158.5032349
39.9303818 -25.1601753 160.1737976
37.6294708 -25.0811081 161.9360504
35.5906754 -25.0497169 163.1336823
33.3352165 -24.9933224 164.4885559
31.2771797 -24.9733772 165.3996582
29.1229343 -24.9448433 166.3105469
16.5685692 -24.9416027 168.9833679
14.3623800 -24.9494648 169.0712891
12.3430214 -24.9809170 169.0411682
10.2407694 -25.0080643 168.8676453
8.1072731 -25.0485306 168.6087952
-2.2872005 -25.3043880 165.7032928
-4.4722004 -25.3884506 164.6470947
-6.5486426 -25.4629784 163.5625153
-8.6752567 -25.5568314 162.2525177
-10.8419781 -25.6599274 160.7230530
-12.9298649 -25.7664795 159.0733643
-15.1419373 -25.8988285 157.0136719
46.4144325 -23.2949677 155.8088989
44.2218475 -23.2067375 158.0760803
41.9282761 -23.1178246 160.2032013
39.8517570 -23.0690422 161.7727814
37.5634727 -23.0008583 163.4330139
35.5259514 -22.9760513 164.5673218
33.2780533 -22.9241600 165.8602142
31.2186871 -22.9062386 166.7413330
29.0746117 -22.8845978 167.6102905
26.9300842 -22.8657036 168.3781281
16.5274334 -22.8865013 170.1921082
14.3404722 -22.9004822 170.2637329
8.0954046 -22.9900723 169.8246155
-2.2883244 -23.2270241 167.0361938
-12.8994045 -23.6497536 160.7350006
-15.1062832 -23.7699394 158.8149414
50.9029427 -21.4137802 151.8324738
48.5869560 -21.2899609 154.9670410
46.3136024 -21.1897335 157.5639343
44.1325722 -21.1149216 159.6801758
41.8559113 -21.0392780 161.6715393
39.7761993 -20.9958553 163.1743774
37.5054207 -20.9369431 164.7425232
35.4565125 -20.9109840 165.8598480
33.2368469 -20.8727798 167.0663757
31.1656513 -20.8538780 167.9437256
29.0272884 -20.8353653 168.7767944
26.8969440 -20.8198223 169.4957428
16.4933968 -20.8453445 171.2655640
14.3305569 -20.8565845 171.3314514
8.0870333 -20.9434700 170.9108429
1.9184784 -21.0555515 169.6607056
-0.2873965 -21.1194611 168.8998566
-2.2914784 -21.1647930 168.2159729
-12.8834534 -21.5526924 162.1718140
-15.0750866 -21.6615791 160.3657227
-17.2064419 -21.7744675 158.3810120
50.7932053 -19.3005753 153.7252502
48.4934692 -19.1956978 156.6100464
46.2329826 -19.1064720 159.0538330
44.0510635 -19.0425110 161.0645599
41.7998352 -18.9771938 162.9394531
39.7047958 -18.9375572 164.4075623
28.9959526 -18.8011189 169.7904205
26.8655853 -18.7881718 170.4882050
24.8189049 -18.7908192 170.9934082
22.6487465 -18.7792892 171.5195923
20.6486588 -18.7934227 171.7976837
18.4645557 -18.7964020 172.1004944
16.4601154 -18.8135128 172.2247620
14.3143263 -18.8269577 172.2882690
8.0832233 -18.9068031 171.8842773
6.0586410 -18.9347572 171.5855560
3.8953133 -18.9834824 171.1040649
1.8975469 -19.0148907 170.6415405
-17.1719284 -19.6717987 159.8380280
-19.3829651 -19.7917633 157.5749664
50.6954803 -17.2089844 155.3148346
48.4074860 -17.1185303 158.0171661
46.1635284 -17.0437584 160.3211670
43.9869995 -16.9877396 162.2460175
41.7445908 -16.9295998 164.0494843
39.6487045 -16.8947773 165.4736023
28.9585724 -16.7758007 170.6920166
26.8360939 -16.7664814 171.3658905
24.7843266 -16.7671146 171.8777313
22.6246319 -16.7627525 172.3635559
20.6133785 -16.7726059 172.6577759
18.4497623 -16.7779541 172.9444580
16.4367905 -16.7925491 173.0737610
14.3050842 -16.8084297 173.1307373
8.0783052 -16.8818645 172.7422791
6.0395179 -16.9121513 172.4352417
3.9011393 -16.9507256 171.9906006
1.8850918 -16.9868584 171.5153809
-17.1481857 -17.5871811 161.0768433
-19.3488846 -17.6968803 158.9268036
52.8738136 -15.2301397 153.6667328
50.6055450 -15.1359606 156.6569519
48.3355293 -15.0581703 159.2179108
33.1289520 -14.7834511 169.8888855
31.0447235 -14.7720985 170.7254181
28.9252281 -14.7600842 171.4886627
26.8091412 -14.7533674 172.1428833
24.7489319 -14.7542562 172.6480255
22.6063557 -14.7521210 173.1103973
20.5818520 -14.7621889 173.4145203
18.4365349 -14.7662678 173.6830292
16.4094429 -14.7825565 173.8132782
14.2924719 -14.7967339 173.8743896
12.2418232 -14.8175726 173.8447571
10.1605873 -14.8395004 173.7099304
8.0715761 -14.8660173 173.4942169
6.0285110 -14.8938894 173.1884460
3.8977797 -14.9316349 172.7574615
1.8729049 -14.9641676 172.2847290
-0.2640243 -15.0099297 171.6449738
-2.3112473 -15.0527611 170.9579620
-17.1299553 -15.5179863 162.1432953
-19.3206921 -15.6151161 160.0951080
52.7941284 -13.1597672 154.9393005
50.5324554 -13.0787582 157.7847290
48.2736359 -13.0114183 160.2359314
33.1016006 -12.7748604 170.5920105
31.0082989 -12.7627029 171.4301300
28.8958282 -12.7537746 172.1744385
26.7870865 -12.7498293 172.8116150
24.7207527 -12.7485056 173.3182373
22.5876389 -12.7502499 173.7585754
20.5515347 -12.7573042 174.0695496
18.4254761 -12.7653408 174.3208008
1.8627920 -12.9516954 172.9531860
-0.2629954 -12.9928617 172.3273926
-2.3118639 -13.0323906 171.6538391
-17.1175728 -13.4590750 163.0630188
-19.2972755 -13.5473576 161.0838470
-21.4588146 -13.6423359 158.8693542
55.0883408 -11.1940088 152.6101379
52.7298126 -11.1040859 155.9950867
37.3120689 -10.8028526 169.1572876
35.2295303 -10.7856598 170.2200623
33.0684090 -10.7703094 171.2124329
30.9831467 -10.7614069 172.0284729
-2.3185859 -11.0209675 172.2443085
-4.4254508 -11.0635538 171.4373322
-6.5106244 -11.1105595 170.5315857
-21.4404030 -11.5763340 159.7770996
55.0199585 -9.1375475 153.6136017
52.6677666 -9.0596857 156.8598633
37.2864456 -8.8006010 169.7004700
35.1924973 -8.7859182 170.7556763
33.0447311 -8.7738028 171.7164612
-2.3213515 -9.0141449 172.7445526
-4.4309449 -9.0552216 171.9488068
-6.5118294 -9.0961704 171.0565643
-21.4258003 -9.5202456 160.5196381
54.9594269 -7.0907269 154.4249420
52.6181183 -7.0249810 157.5547791
37.2642822 -6.8047519 170.1426392
35.1671448 -6.7919593 171.1864929
-6.5099840 -7.0885372 171.4940643
-8.6076880 -7.1306000 170.4873810
-10.7299013 -7.1767502 169.3383789
-21.4162521 -7.4721727 161.1269226
-23.6095657 -7.5501075 158.7543335
54.9099884 -5.0538201 155.0527649
52.5810432 -4.9987025 158.0864868
37.2461090 -4.8137178 170.4855499
35.1437683 -4.8033352 171.5256348
-6.5161972 -5.0860758 171.8351135
-8.6056242 -5.1236444 170.8395233
-10.7238026 -5.1652656 169.7045288
-21.4078827 -5.4299011 161.6093750
-23.5958385 -5.5000291 159.2841034
54.8745041 -3.0240729 155.4999695
52.5523109 -2.9782233 158.4741669
37.2319336 -2.8261755 170.7337494
-8.6149149 -3.1215553 171.0879211
-10.7221270 -3.1586347 169.9709930
-21.4083195 -3.3944702 161.9518433
-23.5917702 -3.4561331 159.6659393
54.8470078 -0.9999895 155.7884827
52.5334396 -0.9623089 158.7224731
37.2164764 -0.8420299 170.8973846
-8.6205101 -1.1221747 171.2514954
-10.7262840 -1.1546004 170.1477661
-21.4075069 -1.3629084 162.1810455
-23.5948029 -1.4169376 159.9079742
54.8264389 1.0206600 155.9366913
52.5143013 1.0501673 158.8496857
41.4881706 1.1283373 168.5016022
39.3551712 1.1350980 169.8010406
37.2057571 1.1398350 170.9731598
-8.6271048 0.8749994 171.3299866
-10.7315750 0.8461930 170.2269287
-21.4151649 0.6654202 162.2826843
-23.5950756 0.6191633 160.0308075
54.8191414 3.0383472 155.9230652
52.5053864 3.0603056 158.8395386
41.4829903 3.1142623 168.4840851
39.3459320 3.1180325 169.7926025
-8.6320763 2.8704944 171.3200531
-10.7387562 2.8456504 170.2180023
-21.4188938 2.6917982 162.2816620
-23.6013374 2.6527951 160.0251465
54.8202515 5.0547552 155.7702637
52.5049858 5.0689769 158.7025604
41.4788666 5.0993881 168.3733826
39.3410797 5.0997953 169.6880493
-8.6387663 4.8649483 171.2229004
-10.7474976 4.8440661 170.1133881
-21.4316025 4.7168841 162.1568909
-23.6138554 4.6851969 159.8939362
54.8225174 7.0709972 155.4673767
52.5200615 7.0780253 158.4169922
41.4812965 7.0841570 168.1649170
39.3426361 7.0820427 169.4887390
-8.6495190 6.8595114 171.0303040
-10.7573261 6.8426518 169.9204254
-21.4391289 6.7421370 161.9245300
-23.6199989 6.7173138 159.6479340
54.8446198 9.0883846 155.0054321
52.5340042 9.0878639 158.0059662
41.4924011 9.0702200 167.8551941
39.3438034 9.0648146 169.1943512
37.2002411 9.0587425 170.3838806
-6.5658054 8.8673801 171.7499695
-8.6612253 8.8548927 170.7607117
-10.7680836 8.8415585 169.6344757
-21.4531746 8.7672310 161.5717010
-23.6421585 8.7505550 159.2597351
54.8732605 11.1081600 154.3757324
52.5614853 11.1000118 157.4396210
41.4978104 11.0571375 167.4618530
39.3529510 11.0490379 168.8065796
37.2117958 11.0408926 170.0067139
35.0902405 11.0322332 171.0635223
-4.4876318 10.8695221 172.2720947
-6.5758662 10.8603811 171.3895874
-8.6743145 10.8514862 170.3886261
-10.7806740 10.8418512 169.2525635
-21.4788609 10.7961140 161.0807648
-23.6657677 10.7857971 158.7361755
54.9128990 13.1308794 153.5576630
52.6019783 13.1158695 156.7187347
37.2271156 13.0247898 169.5300903
35.1014824 13.0133801 170.6044617
32.9733276 13.0032692 171.5503387
-4.4931116 12.8611193 171.8293915
-6.5860062 12.8552036 170.9383545
-21.5008030 12.8260441 160.4732056
52.6423416 15.1362820 155.8403168
37.2428055 15.0116367 168.9615631
35.1102562 14.9985733 170.0515900
32.9854851 14.9854679 171.0068359
30.8785572 14.9740238 171.8397980
-2.4235129 14.8594408 172.0806580
-4.5076828 14.8557034 171.2924805
-6.6038499 14.8548775 170.3849182
-21.5306168 14.8616714 159.7182922
52.6963310 17.1635246 154.7753296
50.4125366 17.1324348 157.6306458
48.1644249 17.1063309 160.0437317
33.0034561 16.9726486 170.3692474
30.8899555 16.9584637 171.2234497
28.7845459 16.9468002 171.9550781
26.6830559 16.9337807 172.5839844
24.5920238 16.9231415 173.1142426
22.5037079 16.9137001 173.5333862
20.4204025 16.9048576 173.8610992
18.3420944 16.8951778 174.1031799
16.2647114 16.8881378 174.2471466
14.1879663 16.8810463 174.3112793
-2.4361219 16.8545532 171.4623108
-17.2363319 16.8805046 162.9464264
-19.3865681 16.8900032 161.0202332
-21.5651779 16.9016438 158.8120728
52.7644272 19.1992474 153.4921722
50.4685059 19.1589642 156.4960327
48.2053185 19.1237965 159.0288391
33.0238647 18.9638386 169.6242676
30.9071579 18.9478741 170.4951019
28.7946758 18.9334927 171.2493744
26.6987305 18.9214535 171.8850861
24.5991821 18.9089375 172.4214325
22.5121994 18.8987656 172.8517609
20.4242897 18.8887272 173.1927185
18.3470650 18.8806725 173.4294281
16.2618523 18.8743782 173.5786438
14.1876936 18.8672619 173.6437988
12.1177883 18.8609123 173.6117554
3.8034544 18.8527164 172.5577240
1.7228644 18.8502884 172.0583649
-0.3581701 18.8523750 171.4555664
-2.4447258 18.8542023 170.7478180
-17.2642727 18.9134922 162.0235596
-19.4227352 18.9291229 160.0330811
-21.6033802 18.9495697 157.7371826
52.8407516 21.2427273 151.9541473
50.5367584 21.1954002 155.1510925
48.2640114 21.1523457 157.8152161
12.1127930 20.8524971 172.8454895
10.0382204 20.8498688 172.7227325
7.9559851 20.8496895 172.5007629
5.8804255 20.8473587 172.1914978
3.7971530 20.8478222 171.7752838
1.7138636 20.8511009 171.2634277
-17.3001118 20.9525909 160.9441071
-19.4640846 20.9769096 158.8757172
50.6148415 23.2413502 153.5707550
48.3316307 23.1902924 156.4079895
12.1148901 22.8522835 171.9753113
10.0326309 22.8494110 171.8475342
7.9537973 22.8480721 171.6296387
5.8731098 22.8491459 171.3057098
3.7878299 22.8534851 170.8811035
1.7033297 22.8574066 170.3587036
-17.3349171 23.0007668 159.7012634
-19.5066261 23.0332127 157.5391998
48.4126740 25.2405434 154.7619171
46.1645622 25.1865540 157.2947693
43.9350090 25.1393375 159.4617920
-13.0695477 24.9940681 161.9891357
-15.2143764 25.0246582 160.2562561
-17.3797112 25.0613461 158.2711487
48.5077820 27.3043537 152.8173828
46.2451439 27.2404518 155.5602264
44.0054779 27.1860886 157.8704834
-13.1087484 27.0498581 160.5480042
-15.2570400 27.0891037 158.7266083
-17.4289589 27.1340542 156.6188354
46.3427086 29.3138123 153.5221405
44.0904999 29.2478218 156.0280914
41.8644028 29.1892910 158.1459351
39.6687546 29.1423225 159.9598999
-13.1442261 29.1193085 158.9081726
-15.3059063 29.1666756 156.9638062
46.4539642 31.4079113 151.1119080
44.1894646 31.3296223 153.8794708
41.9478722 31.2630615 156.1810150
39.7413559 31.2039051 158.1376648
-13.1892138 31.2042427 157.0169830
44.2987556 33.4329453 151.3273926
42.0476532 33.3539276 153.8932800
39.8186188 33.2839394 156.0352478
37.6283112 33.2273293 157.8429871
35.4503288 33.1788445 159.3896637
-8.9328022 33.1980591 158.4432678
-11.0811882 33.2504616 156.7700806
-13.2427158 33.3113861 154.8163147
39.9283752 35.3944397 153.5586395
37.7121201 35.3228683 155.5636597
35.5281868 35.2655449 157.2507477
-8.9736195 35.3050461 156.2299500
37.8196869 37.4478951 152.8721008
35.6203232 37.3764420 154.7603607
33.4341354 37.3182068 156.3406372
31.2709236 37.2696991 157.6744385
-0.4871037 37.2301064 159.1260071
-2.6107068 37.2702675 158.0806885
-4.7333431 37.3183823 156.8426971
-6.8709297 37.3727875 155.3788910
-9.0148468 37.4383736 153.6533203
35.7299004 39.5232620 151.7913361
33.5261536 39.4527054 153.5889587
31.3537483 39.3946075 155.0760651
-0.5066069 39.3544617 156.6927032
-2.6324675 39.4027672 155.5427246
-4.7679262 39.4606743 154.1591492
-6.9140611 39.5289459 152.5096436
33.6387825 41.6220856 150.2520752
31.4504967 41.5523911 151.9959564
29.2683048 41.4967842 153.4042053
27.1104584 41.4464455 154.5794525
24.9565830 41.4095116 155.5162964
22.8182869 41.3821640 156.2538452
7.9688892 41.3642387 156.9786530
5.8479319 41.3889427 156.4650269
3.7258711 41.4230270 155.7749786
1.6010116 41.4636116 154.8991394
-0.5234632 41.5110893 153.8347473
-2.6612079 41.5724335 152.5219116
31.5741348 43.7565842 148.1441956
29.3695889 43.6897354 149.8529663
27.2013092 43.6298676 151.2271118
25.0320396 43.5847092 152.3151550
22.8820190 43.5460052 153.1765137
7.9804163 43.5302048 154.0034180
5.8455267 43.5632401 153.4110260
3.7201936 43.6015587 152.6307983
25.1316986 45.8114395 148.3294067
22.9716549 45.7677727 149.3847504
20.8074665 45.7341728 150.1666107
18.6592140 45.7127762 150.7069550
16.5242176 45.6986389 151.0520020
14.3827648 45.6965256 151.1785736
12.2563171 45.7023811 151.1188965
10.1168270 45.7216873 150.8446503
7.9894524 45.7485771 150.3806610
5.8584900 45.7855034 149.6885071
18.7434578 47.9908066 146.0968170
16.5913887 47.9726372 146.5397339
14.4413528 47.9698296 146.7009430
12.3076286 47.9758110 146.6371002
-34.2872429 75.3233185 -67.1473007
-37.0574570 75.4657211 -69.0432434
-39.8538284 75.6365051 -71.2993774
-42.6739655 75.8362732 -73.9901199
-34.2387161 77.8868179 -65.3746567
-36.9898872 78.0297623 -67.1744995
-39.7823219 78.1957932 -69.3023758
-42.5944138 78.3896713 -71.8150482
27.8962212 81.1278229 -76.9526825
25.0977402 80.8826294 -73.4637451
-31.4466400 80.3339539 -62.3775063
-34.1896439 80.4586487 -63.8433456
-36.9411240 80.6027679 -65.5794220
-39.7184448 80.7683945 -67.6053009
-42.5240936 80.9625244 -69.9990997
27.8434486 83.6801071 -75.0674744
25.0601864 83.4395294 -71.7837830
-28.6944046 82.8035736 -59.9015961
-31.4095421 82.9138107 -61.1048279
-39.6707001 83.3520279 -66.1701813
-42.4710388 83.5452957 -68.4701920
-45.2905884 83.7738495 -71.1849518
30.6095448 86.5404282 -77.3449707
27.8003006 86.2467194 -73.5037689
25.0282555 86.0092316 -70.3737259
22.2770042 85.8123398 -67.7308197
19.5468998 85.6452332 -65.4673080
-23.2775230 85.2101746 -57.0473633
-25.9746170 85.2914124 -57.8677979
-28.6739502 85.3875198 -58.8558388
-31.3915939 85.4975357 -60.0379486
-39.6327362 85.9443436 -64.9680634
-42.4169273 86.1395493 -67.1792755
-45.2460403 86.3678589 -69.8160629
30.5569992 89.1191177 -75.9063110
27.7644806 88.8290329 -72.2447052
19.5283699 88.2277069 -64.4661865
16.8183422 88.0863190 -62.5755997
-23.2616043 87.7993164 -56.2032013
-25.9612560 87.8820648 -57.0128021
-45.2016830 88.9775543 -68.6881714
-48.0533180 89.2495346 -71.7308731
30.5336113 91.7173996 -74.8151855
27.7353382 91.4269562 -71.2468643
19.5027027 90.8216705 -63.6357651
16.8000088 90.6779022 -61.7790871
14.1072865 90.5557556 -60.1712570
-23.2639160 90.3945694 -55.5159302
-25.9435043 90.4799652 -56.3014946
-45.1702957 91.5996704 -67.8050461
-48.0168610 91.8748932 -70.7678528
30.4969196 94.3331146 -73.9683304
27.7179298 94.0408630 -70.4913483
14.0921783 93.1563568 -59.5769577
11.3955460 93.0519867 -58.1921120
-20.5730286 92.9237823 -54.3402634
-23.2596931 92.9981995 -54.9641075
-25.9377251 93.0861740 -55.7422752
-45.1423187 94.2360687 -67.1243439
-47.9986992 94.5186615 -70.0667267
30.4774799 96.9682846 -73.3981400
27.7002068 96.6714020 -69.9695587
14.0830317 95.7677002 -59.1352234
11.3852568 95.6604919 -57.7640305
-20.5679054 95.5354767 -53.9320221
-23.2568645 95.6129227 -54.5644951
-25.9354267 95.7048874 -55.3499146
-45.1292648 96.8876343 -66.6618042
-47.9781570 97.1773682 -69.5762024
30.4594917 99.6236877 -73.0731735
27.6773891 99.3188171 -69.6553650
14.0668106 98.3916016 -58.8517113
11.3762665 98.2813721 -57.4829559
8.7118311 98.1893845 -56.3080750
6.0147657 98.1144867 -55.3107491
3.3723850 98.0574188 -54.5037155
0.7145813 98.0142365 -53.8372726
-20.5701828 98.1583710 -53.6736603
-45.1285629 99.5560303 -66.3997192
-47.9720535 99.8548965 -69.3126144
30.4551468 102.3001938 -72.9873962
27.6613102 101.9845428 -69.5486755
14.0630569 101.0295715 -58.7328224
11.3686066 100.9147415 -57.3487244
8.7022524 100.8220520 -56.1917992
6.0190172 100.7456970 -55.1954422
3.3681734 100.6853027 -54.3682327
0.6959737 100.6390915 -53.6919746
-1.9577384 100.6120300 -53.1901550
-4.6251936 100.5954437 -52.8212051
-7.2648544 100.5943604 -52.6008148
-20.5782013 100.7936401 -53.5538940
-45.1337852 102.2436523 -66.3512955
-47.9745178 102.5527191 -69.2733459
30.4501305 105.0019684 -73.1526794
27.6598778 104.6724854 -69.6669693
3.3539429 103.3276825 -54.3855476
0.6914659 103.2816467 -53.7133026
-9.9310293 103.2460785 -52.5010834
-17.9193268 103.3725967 -53.1046295
-20.5921478 103.4432602 -53.5817719
-45.1539307 104.9515915 -66.5073242
-47.9956245 105.2734680 -69.4669952
30.4531822 107.7301178 -73.5694885
27.6576900 107.3832245 -70.0096893
3.3618178 105.9839096 -54.5484772
0.6730187 105.9343338 -53.8623352
-9.9465246 105.9009705 -52.6601715
-17.9405460 106.0350189 -53.2727356
-20.6057072 106.1068726 -53.7555046
-45.1855240 107.6835403 -66.8836136
30.4623985 110.4916000 -74.2843399
27.6691704 110.1257172 -70.6086655
24.8962517 109.8201599 -67.5519104
22.1564617 109.5738831 -65.0101471
3.3372583 108.6579361 -54.8553925
0.6566973 108.6073380 -54.1632805
-1.9814242 108.5755997 -53.6419525
-4.6519094 108.5594482 -53.2688713
-7.3039427 108.5589905 -53.0510101
-9.9647121 108.5772705 -52.9718056
-12.6137447 108.5987549 -52.9987526
-15.2759418 108.6468201 -53.1995621
-17.9451466 108.7082977 -53.5605278
-20.6197090 108.7856369 -54.0558701
-39.6270790 109.8751755 -62.6491852
-42.4086876 110.1357803 -64.8647079
-45.2195282 110.4405746 -67.4803009
30.4800949 113.2923889 -75.3130798
27.6762371 112.8948746 -71.4475403
24.9048061 112.5749664 -68.3032150
22.1634731 112.3142624 -65.6908798
3.3293741 111.3461609 -55.3010139
0.6518098 111.2984009 -54.6163368
-1.9970353 111.2631912 -54.0908203
-4.6653671 111.2482300 -53.7100563
-7.3147368 111.2459030 -53.4752045
-9.9781904 111.2611542 -53.3914413
-12.6389904 111.2948685 -53.4557686
-15.3001413 111.3401642 -53.6654892
-17.9724770 111.4047699 -54.0231476
-20.6434269 111.4851837 -54.5245705
-39.6566849 112.6254425 -63.3148193
-42.4567909 112.9054108 -65.6175156
-45.2723618 113.2318115 -68.3419800
27.6998596 115.7052002 -72.6009827
24.9128723 115.3593063 -69.3105240
22.1702423 115.0804596 -66.5813751
-39.7095833 115.4111328 -64.2281494
-42.5127411 115.7067184 -66.6190109
-45.3347092 116.0552750 -69.4712524
27.7253990 118.5646820 -74.1360092
24.9378090 118.1868668 -70.6168823
22.1748352 117.8778076 -67.7253723
-39.7730103 118.2269974 -65.3834381
-42.5743866 118.5466156 -67.8957367
24.9578171 121.0580978 -72.2516861
22.1983929 120.7248840 -69.1773911
19.4649868 120.4475632 -66.6143112
16.7376022 120.2203903 -64.4583817
14.0366135 120.0302734 -62.6230583
11.3384571 119.8765564 -61.0605774
-34.2890511 120.5337372 -62.6622658
-37.0528297 120.7896118 -64.5646057
-39.8383560 121.0851593 -66.8117371
-42.6602325 121.4326935 -69.5089874
24.9954891 123.9946899 -74.3378296
22.2201843 123.6159363 -70.9788666
19.4780045 123.3144531 -68.2472610
16.7447224 123.0641479 -65.9442902
14.0366707 122.8589172 -64.0128479
11.3403587 122.6913605 -62.3829651
-34.3608894 123.3943405 -64.1660461
-37.1237221 123.6688766 -66.1779327
-39.9193649 123.9900131 -68.5826263
22.2503662 126.5781021 -73.2402267
19.4933834 126.2333603 -70.2258987
16.7577553 125.9588852 -67.7632065
14.0508652 125.7370148 -65.7175598
11.3310051 125.5438843 -63.9684753
-28.9481621 125.8309402 -62.6633720
-31.6816444 126.0466385 -64.1715469
-34.4361115 126.3013153 -65.9789047
-37.2189827 126.6045609 -68.1631241
19.5317268 129.2308960 -72.7311401
16.7826958 128.9187622 -70.0056534
14.0636730 128.6575623 -67.7478027
11.3424816 128.4555054 -65.8956757
-29.0155602 128.7468262 -64.5776138
-31.7652645 128.9886780 -66.2175522
-34.5250359 129.2687988 -68.1821442
-37.3226013 129.6065674 -70.5859146
16.8011684 131.9516449 -72.7550659
14.0776415 131.6581421 -70.2481384
11.3545485 131.4264526 -68.2179413
8.6535034 131.2423096 -66.5409927
5.9440737 131.0883026 -65.1455078
3.2588120 130.9782715 -64.0289764
0.5664648 130.8959351 -63.1422882
-23.6398392 131.3222504 -64.2382278
-26.3518181 131.5034180 -65.4151459
-29.1006565 131.7316284 -66.8962860
-31.8517666 131.9941101 -68.6949768
14.1004620 134.7521973 -73.3850479
11.3637714 134.4873657 -71.0799026
8.6590462 134.2635956 -69.1881638
5.9389253 134.0935516 -67.6618576
3.2446272 133.9628296 -66.4362793
0.5496249 133.8670349 -65.4637985
-23.7112656 134.3305969 -66.7450104
-26.4437180 134.5441284 -68.0748138
-29.1950607 134.7849121 -69.7015533
-31.9719200 135.1046753 -71.7807465
11.3724861 137.6512756 -74.6862183
8.6682243 137.3888245 -72.4695969
5.9495053 137.1908875 -70.7477264
3.2397609 137.0357971 -69.3787231
0.5322663 136.9269104 -68.3091583
-2.1603646 136.8467102 -67.5026932
-4.8563414 136.8113403 -66.9702759
-12.9354858 136.8778076 -66.7220688
-15.6368103 136.9631958 -67.1045456
-18.3526230 137.0834351 -67.7258224
-21.0678043 137.2343140 -68.6119385
-23.7991142 137.4292755 -69.7986908
-26.5435810 137.6726532 -71.3306046
5.9435921 140.4235077 -74.6937408
3.2309098 140.2295685 -73.0515213
0.5193897 140.0906067 -71.8056488
-2.1880219 139.9982300 -70.8961487
-4.8890657 139.9471588 -70.2702484
-13.0008993 140.0157776 -70.0294037
-15.7126360 140.1185913 -70.4995575
-18.4361076 140.2504120 -71.2199783
-2.2184627 143.3152618 -75.3071213
-4.9263792 143.2368469 -74.5215759
-7.6377945 143.2177277 -74.1282043
-10.3542862 143.2440796 -74.0518417
-13.0734701 143.3113098 -74.2925949
-15.7965994 143.4258728 -74.8737411
19.6358185 -46.7117996 140.1180725
18.5252914 -46.6863976 140.6061859
17.5086346 -46.6872292 140.9594727
15.3257475 -46.6823692 141.2789917
14.1949291 -46.6940575 141.3088379
13.1450367 -46.7153854 141.2229462
12.1014700 -46.7506981 141.0152283
23.8943405 -45.4721642 141.8540497
22.8472443 -45.4062424 142.5826263
21.8427925 -45.3676682 143.1054840
20.7473946 -45.3311272 143.6464996
19.5696545 -45.3039284 144.1513519
18.4603195 -45.2905273 144.5178986
17.4609966 -45.3065414 144.7001343
16.4286766 -45.3114471 144.8408356
15.3065681 -45.3001480 144.9674988
14.1402702 -45.3151741 144.9902039
13.1128502 -45.3372421 144.9126587
12.1121798 -45.3569221 144.7821503
11.0322294 -45.3950348 144.5616760
9.8951941 -45.4443550 144.2518463
8.7897577 -45.5171738 143.8665161
7.7780919 -45.5700073 143.4328308
6.7211704 -45.6349869 142.8389587
26.1415844 -44.2561417 143.6127319
24.9817429 -44.1816940 144.5140533
23.7996025 -44.1247559 145.3486786
22.7738800 -44.1060257 145.8883667
21.7872162 -44.0951309 146.2985382
20.6940269 -44.0787277 146.7248535
19.5155048 -44.0562248 147.1547394
18.4081917 -44.0418053 147.4649811
17.4339676 -44.0523453 147.6016388
16.4061623 -44.0667572 147.6950836
15.2725830 -44.0639954 147.8102264
14.0969458 -44.0835419 147.8212585
13.0731497 -44.1027069 147.7628937
12.1070738 -44.1188622 147.6611938
11.0287161 -44.1413231 147.4852142
9.8661575 -44.1728058 147.2234039
8.7560930 -44.2169266 146.8904877
7.7699952 -44.2512131 146.5427856
6.7430663 -44.2986984 146.0805969
5.6294870 -44.3577614 145.5145111
4.4757686 -44.4297218 144.8131714
28.1166306 -43.0506134 145.1883087
27.1191692 -43.0186958 145.9094238
26.0737228 -42.9796562 146.6227417
24.9215050 -42.9397659 147.3811340
4.4499035 -43.1885948 147.6249695
3.4225099 -43.2567635 147.0130463
2.4322119 -43.3163948 146.3537903
1.3332535 -43.4105835 145.5548096
32.5350494 -42.1229706 143.5483551
31.4897900 -42.0439911 144.6955109
30.3643265 -41.9619293 145.8360443
29.1669617 -41.8778229 146.9855804
28.0482235 -41.8278389 147.8830109
27.0646534 -41.8132935 148.4665833
26.0283279 -41.7799606 149.0690002
24.8669319 -41.7307739 149.7696838
4.4338384 -41.9896812 149.9525604
3.4223685 -42.0460663 149.4216766
2.4653585 -42.0833931 148.8873596
1.3779867 -42.1518478 148.1642609
0.2054390 -42.2414742 147.2952576
-0.9099730 -42.3541107 146.3532715
-1.9257851 -42.4560280 145.4367523
33.4848328 -40.9152489 145.3437805
32.4276886 -40.8430634 146.4744873
31.4123516 -40.8026886 147.3749695
0.2090783 -41.0369530 149.5865784
-0.9097068 -41.1109924 148.7664490
35.7948456 -39.9027176 145.0387115
34.6070251 -39.7925262 146.5238190
33.3934708 -39.6993256 147.9109039
32.3485985 -39.6513977 148.8666077
31.3455658 -39.6210289 149.6362762
0.2205597 -39.8679581 151.6027527
-0.9095247 -39.9365768 150.8385468
-1.8671511 -39.9930801 150.1643982
-2.8915632 -40.0771904 149.3591919
-4.0251408 -40.1770706 148.3269653
-5.2030177 -40.2938652 147.1125336
36.7712593 -38.7548447 146.2924957
35.6918831 -38.6772842 147.5550537
-3.9954076 -38.9692383 150.4131775
-5.1826644 -39.0655518 149.3064270
-6.2305598 -39.1648369 148.2886963
38.8603249 -37.7258453 145.8821106
37.7072830 -37.6288071 147.4357605
36.6895561 -37.5743217 148.5659790
35.6155319 -37.5163574 149.6685486
-3.9919889 -37.8283997 152.2265472
-5.1784315 -37.9144669 151.2135773
-6.2023425 -37.9768715 150.3181610
39.9990387 -36.6580582 146.4465027
38.7662582 -36.5427170 148.1770630
37.6254654 -36.4678268 149.5394592
25.8128262 -36.0829353 157.5632477
24.6514664 -36.0503845 158.0730133
23.4439583 -36.0279922 158.5629272
22.4657288 -36.0273933 158.7843475
21.5503101 -36.0467834 158.9022980
20.4812641 -36.0409584 159.1430054
19.2452774 -36.0192490 159.4617310
18.1380844 -36.0243492 159.6249084
17.2436333 -36.0356293 159.6640930
16.2758179 -36.0514183 159.6969757
15.1041203 -36.0520020 159.7795715
13.8933821 -36.0588989 159.8261108
-6.1916456 -36.8386574 152.1108398
-7.1871305 -36.9110909 151.2401428
-8.2754898 -36.9954834 150.1500854
-9.4371967 -37.1023788 148.8393097
41.0596962 -35.5762329 147.0479126
39.9061890 -35.4809647 148.6132813
38.6836929 -35.3897285 150.1517181
37.5406494 -35.3204384 151.3896637
25.7897720 -34.9899673 158.8125763
24.6163445 -34.9600525 159.3126526
23.4075966 -34.9232178 159.8179016
22.4312630 -34.9360313 160.0203247
19.2151127 -34.9413261 160.6775513
18.1078434 -34.9348373 160.8151550
17.2207203 -34.9473572 160.8387146
16.2614822 -34.9607391 160.8754883
15.0895405 -34.9679947 160.9532166
13.8742752 -34.9711838 160.9980469
-6.1732712 -35.7023277 153.7224121
-7.1563139 -35.7645340 152.9296570
-8.2436314 -35.8444824 151.9110413
-9.4088831 -35.9443130 150.6903381
42.0176773 -34.4858894 147.7292328
40.9733582 -34.4210358 149.0701447
39.8307800 -34.3445549 150.4649048
27.6651440 -33.8967896 159.4617462
26.7538853 -33.8968735 159.7039490
25.7752285 -33.9041023 159.9642639
18.0917549 -33.8569412 161.9408264
17.2000198 -33.8784866 161.9454651
13.8545218 -33.8945808 162.1010742
6.7612295 -34.0285797 161.2646332
5.5900364 -34.0701065 160.9273987
4.3632746 -34.1199646 160.5155029
3.3891089 -34.1532440 160.2210083
2.5035605 -34.1575317 160.0051880
1.4270267 -34.2174072 159.5768738
0.2317201 -34.2699585 158.9832916
-0.8927281 -34.3176079 158.4134979
-8.2225113 -34.7190514 153.4774475
-9.3694115 -34.7925339 152.3560791
43.0107880 -33.4154053 148.1993713
41.9409027 -33.3455544 149.6266785
40.8896065 -33.2829704 150.8565216
39.7644615 -33.2246666 152.0983887
27.6255722 -32.8091202 160.6084900
26.7190857 -32.8139877 160.7920837
13.8414183 -32.8181572 163.1244202
6.7569036 -32.9500046 162.3287048
5.5828786 -32.9936790 161.9910889
4.3723831 -33.0412979 161.5979462
3.3916214 -33.0833969 161.3441772
0.2192340 -33.1886063 160.1190948
-0.8860927 -33.2281685 159.5726318
-8.2003908 -33.6031189 154.9088135
-9.3533440 -33.6796341 153.8537598
-10.4711285 -33.7644081 152.7721710
45.3901367 -32.5136681 146.2771606
44.1596832 -32.3863792 148.2355652
42.9281769 -32.2861519 150.0077209
41.8576698 -32.2236137 151.3081665
29.9278831 -31.7990856 160.4449615
28.6952953 -31.7616501 161.1507721
27.5904732 -31.7330379 161.6635284
13.8139639 -31.7631683 164.0671234
12.8527222 -31.7755165 164.0360718
11.9771385 -31.7805653 164.0001984
6.7436008 -31.8771267 163.3226166
5.5718074 -31.9195023 162.9944153
0.2258022 -32.1025810 161.1595154
-0.8845611 -32.1507492 160.6403198
-10.4527264 -32.6505089 154.1954041
-11.4585361 -32.7155914 153.2357483
-12.5195446 -32.8069725 152.1228638
45.2785072 -31.3524933 148.2018280
44.0846596 -31.2609158 149.9647522
42.8422775 -31.1656799 151.6227264
41.7909851 -31.1137695 152.7990112
29.8990021 -30.7380619 161.4454803
28.6584187 -30.6875801 162.1614990
27.5597401 -30.6724682 162.6365356
12.8386154 -30.7138557 164.9392395
11.9615326 -30.7295742 164.8958130
6.7404118 -30.8175316 164.2459564
5.5807414 -30.8574409 163.9310608
4.3568387 -30.9000816 163.5185852
0.2277415 -31.0267735 162.1437073
-0.8818273 -31.0712433 161.6532288
-10.4360752 -31.5538464 155.4931030
-11.4454002 -31.6131401 154.5848694
-12.4890499 -31.6827164 153.5489807
-13.6009312 -31.7710762 152.3166351
46.3166771 -30.3150120 148.2597961
45.1949692 -30.2322845 149.8986206
44.0025406 -30.1502495 151.5238037
29.8606186 -29.6719837 162.3952026
28.6268940 -29.6318283 163.0920258
13.7884560 -29.6503010 165.8199768
12.8282537 -29.6623268 165.7903748
11.9561787 -29.6702499 165.7514191
6.7266884 -29.7673321 165.1185913
3.3851137 -29.8608494 164.1789246
0.2326819 -29.9599838 163.0718994
-0.8852834 -30.0106602 162.5871277
-12.4702625 -30.5882854 154.8529053
-13.5735817 -30.6680851 153.6934052
46.2316933 -29.2001266 149.8991394
45.1227722 -29.1266327 151.4013672
43.9335289 -29.0562782 152.9048004
29.8262539 -28.6140442 163.2870941
13.7965546 -28.5884476 166.6303864
12.8201971 -28.6086159 166.5981293
11.9293365 -28.6263618 166.5509338
6.7171435 -28.7060490 165.9571533
3.3852944 -28.8040657 165.0162964
0.2300903 -28.8958073 163.9408264
-0.8759171 -28.9497795 163.4710236
-12.4488649 -29.4957657 156.0482330
-13.5417175 -29.5640182 154.9618530
-14.7032318 -29.6518993 153.6823120
-15.7911682 -29.7472229 152.4544678
48.4017715 -28.2592545 148.0390320
47.2203827 -28.1644440 149.8977356
46.1552277 -28.1018009 151.3549500
29.7980957 -27.5688744 164.1160583
14.9769468 -27.5305061 167.3559265
13.7823935 -27.5539341 167.3706055
6.7186632 -27.6543674 166.7341614
5.5690002 -27.6865158 166.4312592
4.3561559 -27.7350998 166.0393677
0.2311698 -27.8471012 164.7504272
-0.8702099 -27.8944016 164.3128815
-14.6804819 -28.5630589 154.8948822
-15.7564335 -28.6388397 153.7219086
48.3126068 -27.1491432 149.5879822
47.1488457 -27.0690517 151.3093109
46.0900040 -27.0105114 152.6661987
29.7753582 -26.5277042 164.8972931
28.5463676 -26.4790497 165.5554352
27.4604244 -26.4823303 166.0166321
17.9854546 -26.4664669 167.9721832
17.0810280 -26.4943771 167.9669952
16.1121807 -26.5048218 167.9915771
14.9647007 -26.4996395 168.0556183
13.7817621 -26.5161629 168.0771179
6.7025728 -26.6139450 167.4598541
5.5523949 -26.6516228 167.1543427
-0.8639127 -26.8391819 165.1131287
-14.6491852 -27.4784050 156.0219574
-15.7275791 -27.5497360 154.8878479
-16.7951241 -27.6371574 153.7084045
49.4847336 -26.1529922 149.0004425
48.2440300 -26.0590401 150.9598389
27.4384918 -25.4383926 166.7190552
23.2087593 -25.4150944 167.8803253
17.9730034 -25.4242725 168.6555176
6.6848068 -25.5784111 168.1388855
5.5506353 -25.6094303 167.8506927
-0.8595545 -25.7977772 165.8453522
-16.7494507 -26.5376225 154.8370667
-17.8661957 -26.6241398 153.5252686
49.4031219 -25.0615807 150.3785706
48.1698418 -24.9762459 152.2138977
27.4160233 -24.3978329 167.3842163
26.5018272 -24.4151917 167.5491943
25.5095921 -24.4209824 167.7415466
24.3616734 -24.3960133 168.1350250
17.9641266 -24.4069061 169.2818604
6.6708808 -24.5510406 168.7790375
0.2492716 -24.7135963 166.9720764
-0.8533041 -24.7565460 166.5433502
-16.7214928 -25.4602776 155.8835449
-17.8301792 -25.5362072 154.6279602
50.5025444 -24.0547886 149.8322906
49.3436203 -23.9854240 151.6011047
48.1143036 -23.9059219 153.3267212
25.4895420 -23.3869953 168.3790588
24.3447647 -23.3700104 168.7592163
19.0356236 -23.3826485 169.7848206
17.9551811 -23.3737259 169.8807678
6.6700296 -23.5156116 169.4015656
3.3878701 -23.6023235 168.5698090
2.4771669 -23.6031914 168.4287720
1.4142815 -23.6336632 168.1001892
0.2461126 -23.6797714 167.6269531
-0.8403938 -23.7127399 167.2178192
-16.7081337 -24.3919945 156.8372803
-17.8068790 -24.4612999 155.6339264
-18.9358807 -24.5431366 154.2785187
-20.0675888 -24.6450691 152.7757111
51.5643654 -23.0595360 149.2791138
50.4420929 -22.9809647 151.0365448
49.2645721 -22.9070435 152.7469788
48.0523567 -22.8423538 154.3574524
25.4615555 -22.3629208 168.9798279
24.3242054 -22.3437538 169.3456879
19.0217400 -22.3501053 170.3302612
17.9446545 -22.3566170 170.4393311
6.6515160 -22.4875984 169.9690094
3.3822329 -22.5731487 169.1708374
2.4587653 -22.5775452 169.0082855
1.4108419 -22.6015167 168.6965332
0.2468491 -22.6478729 168.2430115
-0.8412903 -22.6831760 167.8386230
-16.6862793 -23.3282127 157.7274628
-17.7805595 -23.3909740 156.5776367
-18.9027252 -23.4625778 155.2763824
-19.9990025 -23.5334949 153.8929596
52.6327591 -22.0631409 148.5955200
25.4411774 -21.3423595 169.5480042
24.3121490 -21.3257790 169.8996735
23.1572876 -21.3094616 170.2518768
22.1740036 -21.3263016 170.4043274
21.2276001 -21.3391037 170.4846191
20.1767616 -21.3396835 170.6398621
19.0125771 -21.3284378 170.8522034
17.9394264 -21.3333569 170.9710388
6.6397557 -21.4642029 170.4924316
5.5301208 -21.4951935 170.2427826
4.3816338 -21.5230484 169.9479675
3.3852720 -21.5492249 169.7355347
-18.8764458 -22.3952847 156.1851959
52.5480690 -20.9790573 149.7799072
25.4024200 -20.3132095 170.1023254
24.2933121 -20.3073025 170.4259186
23.1474762 -20.3018150 170.7374115
22.1616707 -20.3043289 170.8904724
21.2021599 -20.3150864 170.9955292
20.1504192 -20.3179321 171.1578064
19.0054913 -20.3125858 171.3506775
17.9347897 -20.3151512 171.4680328
6.6176586 -20.4471321 170.9931030
5.5248456 -20.4728870 170.7587585
4.3879385 -20.4995728 170.4846039
3.3876219 -20.5184422 170.2695313
-18.8552608 -21.3386841 157.0404663
-19.9796467 -21.4092445 155.7521973
53.7505341 -20.0119400 148.7077484
52.4924622 -19.9153614 150.8356323
-21.0254860 -20.4151497 155.3165588
52.4336777 -18.8569984 151.8063965
-20.9978027 -19.3565521 156.1014099
-22.1265545 -19.4376450 154.7153778
53.6044083 -17.8749580 150.7566223
52.3761597 -17.8030720 152.6978760
-20.9744816 -18.3030968 156.8335266
-22.0955868 -18.3730812 155.4794312
54.7656288 -16.8967953 149.5653381
53.5561752 -16.8268585 151.6176758
52.3324890 -16.7602654 153.4861603
-20.9515190 -17.2544174 157.5205383
-22.0662117 -17.3207455 156.2035522
54.7044182 -15.8414268 150.4590149
-20.9445038 -16.2098122 158.1330261
-22.0472984 -16.2711964 156.8526764
55.8555527 -14.8683109 149.1839294
54.6468735 -14.7943172 151.2828064
-20.9217587 -15.1705704 158.7091370
-22.0309048 -15.2272949 157.4512482
-23.1248112 -15.2862110 156.1345825
55.7849655 -13.8157511 150.0111694
54.6058235 -13.7536488 152.0021362
16.9044857 -13.2704010 174.2886047
15.8849401 -13.2813225 174.3358154
14.8311110 -13.2889471 174.3703003
13.7361650 -13.2973566 174.3789825
12.7313471 -13.3066730 174.3614197
11.7322969 -13.3134289 174.3204041
10.6844854 -13.3299017 174.2438507
9.6180573 -13.3405819 174.1542053
8.5567493 -13.3542547 174.0538177
7.5646610 -13.3675470 173.9386292
6.5436535 -13.3824282 173.7828827
5.4933410 -13.3940239 173.5915527
4.4095173 -13.4140558 173.3752899
3.3828464 -13.4297895 173.1602325
-23.1026402 -14.2389154 156.7120361
-24.2422123 -14.3012991 155.2416840
56.9016533 -12.8364058 148.6475830
55.7285538 -12.7721195 150.7548218
54.5649872 -12.7183752 152.6549835
16.8930969 -12.2777195 174.5838318
15.8781080 -12.2799225 174.6414337
14.8227282 -12.2911100 174.6792145
13.7371960 -12.2977037 174.6806641
12.7247400 -12.3117685 174.6517944
3.3864856 -12.4263010 173.4702454
-23.0989838 -13.2019987 157.2370758
-24.2304955 -13.2608643 155.8080444
56.8458672 -11.7932711 149.3804474
29.4189415 -11.2569094 172.4386597
28.3355846 -11.2535381 172.7964325
25.2338181 -11.2502489 173.6441040
24.1687584 -11.2532587 173.8736572
23.0911465 -11.2518473 174.0920105
22.0821228 -11.2536659 174.2700958
21.0612984 -11.2559547 174.4267578
20.0096302 -11.2622070 174.5682983
18.9407406 -11.2651415 174.6984253
17.8876877 -11.2718449 174.7946014
16.8901176 -11.2768745 174.8610382
12.7184525 -11.3081417 174.9196777
3.3903708 -11.4217405 173.7673950
2.3686609 -11.4399729 173.5323486
1.3419497 -11.4517918 173.2626495
0.2700812 -11.4758301 172.9416504
-0.7916095 -11.4942560 172.6157227
-23.0786533 -12.1643782 157.7393951
-24.2054253 -12.2191591 156.3394928
56.7980423 -10.7518492 150.0343018
29.3987999 -10.2568169 172.7129822
28.3236237 -10.2552280 173.0625916
16.8807545 -10.2802486 175.1124268
15.8462172 -10.2887058 175.1738892
12.7131100 -10.3120356 175.1705627
0.2599796 -10.4737959 173.2177734
-0.7872553 -10.4913387 172.8937988
-23.0734138 -11.1289883 158.1692505
56.7666359 -9.7186222 150.5942078
31.4776802 -9.2656155 172.2328186
30.4484348 -9.2640142 172.6047974
29.3843822 -9.2566643 172.9718933
16.8702621 -9.2871103 175.3389282
15.8422661 -9.2883749 175.3975220
-0.7942699 -9.4897175 173.1486206
-23.0592918 -10.0965786 158.5661316
57.9719391 -8.7497349 148.9093628
56.7278137 -8.6875839 151.1141357
31.4612808 -8.2690601 172.4622803
30.4328461 -8.2679787 172.8363647
-0.7957591 -8.4870539 173.3790894
-23.0557442 -9.0690670 158.9338531
-24.1758060 -9.1155109 157.6212769
-25.2803516 -9.1640644 156.2317657
56.6883545 -7.6568170 151.5881805
33.5751495 -7.2842112 171.8085327
32.4844971 -7.2788320 172.2614136
31.4512863 -7.2727685 172.6591949
-0.7956701 -7.4895821 173.5792847
-1.8061512 -7.5049753 173.2383423
-2.8545072 -7.5251555 172.8738861
-3.8911648 -7.5393090 172.4923248
-4.9621925 -7.5607834 172.0678864
-25.2642670 -8.1297264 156.5960541
-26.4023399 -8.1849594 155.1207733
57.8861389 -6.6822462 149.8848724
56.6804657 -6.6360674 151.9531860
33.5645981 -6.2877407 172.0003052
32.4774742 -6.2843475 172.4463654
-0.7958831 -6.4929681 173.7656250
-1.8116035 -6.5062346 173.4294891
-2.8540695 -6.5229483 173.0688629
-3.8943768 -6.5394931 172.6822510
-4.9618745 -6.5588627 172.2624664
-25.2543030 -7.0987039 156.9165955
57.8697586 -5.6556196 150.2571869
56.6443100 -5.6121507 152.3182373
33.5483665 -5.2936788 172.1715698
-3.8980191 -5.5408883 172.8469849
-4.9581938 -5.5585613 172.4320831
-25.2494354 -6.0708151 157.1970215
-26.3640442 -6.1153326 155.7406921
57.8327789 -4.6303105 150.5886841
56.6269951 -4.5919957 152.6153870
33.5431595 -4.3021498 172.3112488
-3.9075503 -4.5443497 172.9843903
-4.9602933 -4.5592027 172.5708466
-25.2447395 -5.0435314 157.4400482
-26.3597164 -5.0853233 155.9890594
59.0750656 -3.6536708 148.5511780
57.8027344 -3.6077018 150.8596802
56.6132889 -3.5736539 152.8652039
35.6646309 -3.3161995 171.4719391
34.6033936 -3.3128357 171.9701233
33.5421219 -3.3102288 172.4369354
-4.9658065 -3.5621552 172.6869812
-5.9907784 -3.5767231 172.2649231
-7.0423613 -3.5957468 171.7978821
-25.2337875 -4.0177603 157.6558838
-26.3643208 -4.0577106 156.2093201
57.7842522 -2.5874949 151.0849609
56.5844650 -2.5550346 153.0874634
35.6510124 -2.3240342 171.5813599
-4.9673519 -2.5651972 172.7934875
-5.9924765 -2.5792871 172.3680878
-7.0376682 -2.5947242 171.9026947
-25.2398224 -2.9941475 157.8177795
-26.3588371 -3.0306087 156.3920288
57.7725830 -1.5690279 151.2569427
56.5866966 -1.5411086 153.2173462
35.6446571 -1.3325572 171.6605835
-6.0072055 -1.5829933 172.4382477
-7.0382571 -1.5974616 171.9788666
-25.2308350 -1.9707081 157.9682312
-26.3424397 -2.0042357 156.5454407
-27.4807148 -2.0416050 154.9971161
57.7630959 -0.5517616 151.3855896
56.5624695 -0.5258219 153.3551788
35.6420174 -0.3425134 171.7181244
-4.9665112 -0.5717956 172.9304504
-6.0047622 -0.5859115 172.4959564
-7.0420313 -0.5997639 172.0354919
-25.2373161 -0.9493451 158.0649719
-26.3453197 -0.9800569 156.6484070
-27.4812012 -1.0140293 155.1126099
57.7478218 0.4646526 151.4818115
56.5570221 0.4876862 153.4304657
35.6332588 0.6476851 171.7584229
-6.0083737 0.4105222 172.5350647
-7.0492868 0.3974481 172.0734558
-25.2334194 0.0716500 158.1375885
-26.3388901 0.0432615 156.7279663
-27.4783669 0.0121441 155.1948395
57.7436905 1.4796758 151.5147400
56.5534821 1.5003498 153.4627838
35.6328964 1.6368719 171.7675323
34.5644531 1.6378350 172.2637024
-6.0108571 1.4063365 172.5525055
-7.0542545 1.3937165 172.0896301
-25.2352962 1.0918957 158.1679077
-26.3549004 1.0652857 156.7405396
-27.4804325 1.0373529 155.2320557
57.7411957 2.4942665 151.5050049
56.5452614 2.5123560 153.4611664
37.7327728 2.6246912 170.7031403
36.6655998 2.6256585 171.2520599
35.6224747 2.6261778 171.7602844
34.5503044 2.6261902 172.2503967
-6.0149670 2.4017637 172.5436096
-7.0550580 2.3900988 172.0832214
-25.2381153 2.1114810 158.1625977
-26.3531647 2.0873263 156.7433929
57.7394180 3.5084405 151.4596710
56.5519943 3.5238850 153.4066010
37.7311554 3.6147521 170.6687012
36.6625786 3.6150892 171.2154846
-6.0218234 3.3969498 172.5141144
-7.0630980 3.3860748 172.0538025
-25.2466812 3.1308668 158.1205597
-26.3592072 3.1089735 156.7044067
-27.4987335 3.0860755 155.1825562
57.7412758 4.5221162 151.3700562
56.5486946 4.5351048 153.3333740
37.7317734 4.6050010 170.6114655
36.6647453 4.6044674 171.1583405
-6.0232277 4.3921471 172.4683685
-7.0706978 4.3819647 172.0076752
-25.2450123 4.1494923 158.0607147
-26.3597450 4.1300521 156.6398010
-27.4920063 4.1100187 155.1202393
57.7548637 5.5359192 151.2152710
56.5575409 5.5463591 153.1973267
37.7300644 5.5945406 170.5416260
36.6609802 5.5942097 171.0945129
-6.0301704 5.3870869 172.4003296
-7.0716152 5.3777108 171.9421539
-25.2662926 5.1688175 157.9365387
-26.3656807 5.1511736 156.5353088
-27.4969349 5.1340628 155.0125122
57.7546501 6.5492344 151.0387878
56.5690994 6.5574903 153.0130615
37.7353287 6.5846334 170.4488220
36.6656570 6.5837345 171.0021667
35.6084366 6.5808010 171.5195313
34.5526390 6.5809360 172.0128784
-6.0260091 6.3818083 172.3140411
-7.0728207 6.3733168 171.8476563
-25.2623425 6.1879878 157.8156586
-26.3757553 6.1728344 156.3989716
59.0204239 7.5610180 148.5287170
57.7655334 7.5629177 150.7978516
56.5764275 7.5685897 152.7934875
37.7306252 7.5741572 170.3332520
36.6624298 7.5727015 170.8853607
35.6182098 7.5709643 171.3970947
-4.9950438 7.3842554 172.6281281
-6.0287924 7.3774872 172.2003021
-7.0879555 7.3704081 171.7251587
-25.2757893 7.2066312 157.6433258
-26.3940506 7.1948299 156.2210693
57.7896423 8.5795755 150.5083771
56.5881958 8.5808992 152.5304718
35.6133499 8.5589724 171.2667847
-3.9544501 8.3864775 172.9017639
-4.9977469 8.3787651 172.4969940
-25.2780113 8.2263603 157.4435425
-26.4089127 8.2172832 155.9911194
57.8123741 9.5949755 150.1719055
56.6053810 9.5932064 152.2229614
35.6171341 9.5488777 171.1060333
34.5439720 9.5449362 171.6036682
33.4974022 9.5428333 172.0591736
-1.8709769 9.3924103 173.5017548
-2.9172728 9.3852186 173.1350861
-3.9525905 9.3784275 172.7547913
-5.0104189 9.3743401 172.3391724
-25.2976112 9.2464905 157.1859741
-26.4132996 9.2383194 155.7337189
57.8432922 10.6121044 149.7843781
56.6180420 10.6056290 151.8813324
33.4967232 10.5312538 171.8743439
32.4298401 10.5265217 172.3174896
-2.9265027 10.3781891 172.9617004
-25.3115959 10.2671938 156.9036102
56.6339302 11.6201077 151.4818115
33.4963417 11.5209637 171.6751709
32.4371185 11.5164499 172.1129150
31.3932800 11.5068998 172.4797974
-1.8798194 11.3762636 173.1257935
-2.9301217 11.3730278 172.7636108
-25.3177681 11.2876577 156.5961914
57.9020576 12.6527138 148.8540039
56.6726151 12.6363125 150.9909973
31.3889790 12.4967451 172.2663574
-0.8552932 12.3746710 173.2367401
-1.8887537 12.3719101 172.9055481
-2.9368801 12.3673210 172.5443726
-23.1273289 12.3139496 158.9104919
-24.2405853 12.3122807 157.6096039
-25.3429394 12.3106346 156.2275238
56.6963425 13.6538019 150.4931641
31.3937817 13.4895592 172.0412140
30.3370056 13.4849148 172.4318848
29.2871552 13.4815359 172.8118744
16.7878170 13.4277248 175.1859131
15.7395391 13.4260836 175.2356415
-0.8613777 13.3690472 173.0008087
-1.8883950 13.3655386 172.6707001
-2.9377277 13.3640270 172.3049011
-23.1461945 13.3345633 158.5426788
-24.2565765 13.3346710 157.2241669
56.7460938 14.6769123 149.9024658
55.5403481 14.6583328 151.9064178
54.3614655 14.6478615 153.7217407
29.2862358 14.4707489 172.5488892
24.0688705 14.4454317 173.9514771
20.9378471 14.4321041 174.5223236
18.8611069 14.4245691 174.7625732
17.8166676 14.4185944 174.8666382
16.7850876 14.4134102 174.9388428
15.7389832 14.4099274 174.9828186
14.7108479 14.4084396 175.0154724
13.6652555 14.4069939 175.0322266
4.3320761 14.3767633 174.0787201
3.3092690 14.3727446 173.8704224
0.1845136 14.3673553 173.0580444
-0.8593110 14.3627567 172.7457275
-23.1541843 14.3530388 158.1486816
-24.2659760 14.3568668 156.7988892
55.5679703 15.6746550 151.3346863
54.3927422 15.6624193 153.1828613
29.2973938 15.4617405 172.2624817
28.2456589 15.4553690 172.6011200
27.1987267 15.4501333 172.9026031
26.1645832 15.4457817 173.1746521
25.1043510 15.4385805 173.4457397
24.0748978 15.4335451 173.6837769
23.0198708 15.4301834 173.8968201
21.9813328 15.4261827 174.0772247
20.9365768 15.4212141 174.2359161
19.8972397 15.4155836 174.3786926
18.8640327 15.4123688 174.5018921
17.8151855 15.4075794 174.6015167
16.7908611 15.4055281 174.6644592
15.7413254 15.4010239 174.7124786
14.7121315 15.3959274 174.7504730
13.6659069 15.3907070 174.7603912
12.6396341 15.3980484 174.7566528
3.3047333 15.3649578 173.5942383
0.1816371 15.3632059 172.7865601
-0.8645689 15.3578901 172.4658966
-23.1744747 15.3755007 157.7033997
-24.2772274 15.3765669 156.3402100
-25.3842239 15.3844776 154.9017944
56.8456192 16.7296562 148.5516052
55.6093636 16.6948242 150.6798401
54.4190941 16.6784286 152.6028900
12.6364813 16.3831635 174.4617920
11.5924206 16.3786373 174.4369507
10.5561924 16.3761520 174.3649597
9.5257301 16.3706245 174.2746277
3.2994471 16.3642769 173.2992249
0.1747202 16.3597908 172.4891510
-0.8716303 16.3569164 172.1583557
-23.1979790 16.3989067 157.2131958
-24.3182182 16.4112225 155.8122406
55.6472168 17.7168484 149.9614410
54.4421539 17.6939392 151.9642029
12.6363716 17.3751640 174.1475983
11.5937042 17.3727741 174.1056213
10.5527287 17.3669434 174.0406342
9.5195665 17.3637295 173.9566956
5.3732696 17.3578815 173.3973389
4.3307614 17.3563480 173.2008362
3.2978938 17.3589020 172.9840088
2.2484198 17.3663044 172.7537994
1.2009648 17.3618870 172.4611816
0.1706401 17.3510723 172.1569519
-0.8777362 17.3544407 171.8284607
-23.2110424 17.4223900 156.6939697
55.7050400 18.7479191 149.1523132
54.4935265 18.7175026 151.2155609
10.5557289 18.3645134 173.7048340
9.5223598 18.3565865 173.6240845
8.4753819 18.3605461 173.5188599
7.4581380 18.3544464 173.3904724
6.3960590 18.3550129 173.2295227
5.3771086 18.3491402 173.0613861
-23.2436619 18.4514542 156.1040649
54.5263901 19.7403526 150.4398193
10.5503874 19.3564510 173.3489380
9.5199947 19.3533325 173.2695923
8.4778347 19.3506012 173.1622314
7.4497271 19.3510532 173.0275269
6.3952656 19.3512058 172.8700562
5.3651099 19.3545990 172.6916809
-23.2690659 19.4821148 155.4732819
