57.2180061 38.7550354 158.3677368
56.0007820 38.6617813 160.3014832
-18.7700615 38.4742737 166.4060364
-19.8702393 38.5275421 165.1243134
56.0427933 39.6945572 159.4881592
-18.7915764 39.5033226 165.7817078
-19.8859596 39.5621834 164.4838257
56.0930634 40.7337112 158.5822754
-18.8112755 40.5408669 165.1105652
-19.9134350 40.5990524 163.7809143
56.1641960 41.7875099 157.5652313
54.9838104 41.6959724 159.5247345
53.7950745 41.6181107 161.3458710
-16.6774921 41.4693985 166.8194427
-17.7571735 41.5244446 165.6459351
-18.8277321 41.5771065 164.3993073
-19.9434242 41.6466827 163.0155945
55.0537491 42.7517776 158.5262451
53.8518486 42.6602821 160.4147949
-16.7061443 42.5069504 166.1031494
-17.7876320 42.5633545 164.8970490
53.9065094 43.7031174 159.4181519
-16.7270355 43.5495186 165.3350983
-17.8175220 43.6104889 164.0845337
53.9705658 44.7623978 158.3128662
-16.7489395 44.5956230 164.5061340
-17.8479347 44.6635475 163.2055511
54.0773201 45.8470039 157.0536346
52.8912506 45.7395020 158.9769592
51.7085762 45.6494751 160.7299500
-14.6313772 45.5297699 165.9644775
-15.6937227 45.5856934 164.8449707
-16.7712154 45.6463776 163.6138153
52.9803581 46.8223228 157.7566376
51.7757378 46.7112541 159.5790863
-14.6468592 46.5772552 165.0969086
-15.7175903 46.6370354 163.9280701
-16.8014908 46.7065163 162.6404572
51.8565369 47.7823334 158.3153076
50.7057877 47.6931419 160.0236511
49.5607033 47.6206360 161.5825806
-14.6670237 47.6347618 164.1507721
-15.7385559 47.6984024 162.9406891
51.9485664 48.8780212 156.9524841
50.7755890 48.7632141 158.7478333
49.6124306 48.6757774 160.4188080
-14.7002077 48.6976166 163.1170654
50.8613205 49.8576927 157.3337097
49.6874580 49.7498627 159.0989838
-12.5708075 49.6299362 164.3901520
-13.6365185 49.6949005 163.2593384
-14.7296743 49.7722778 162.0028229
49.7664948 50.8375969 157.6611938
-12.5967102 50.7000465 163.2903900
-13.6564569 50.7649841 162.1174927
49.8580246 51.9399071 156.0468445
48.6861954 51.8237610 157.8848877
47.5326385 51.7440720 159.5088196
-10.4903488 51.6444550 164.3029327
-11.5453930 51.7060356 163.2539673
-12.6336937 51.7894363 162.0545654
-13.6918888 51.8607407 160.8338623
48.7854996 52.9482307 156.2407227
47.6247520 52.8421135 157.9680481
-10.5008402 52.7212296 163.1275330
-11.5590210 52.7851486 162.0208435
-12.6528769 52.8669586 160.7743530
47.7405167 53.9728813 156.2852020
46.5599556 53.8464699 157.9674072
45.4354973 53.7601051 159.4474487
-8.3888359 53.6759949 163.9264374
-9.4478664 53.7397919 162.9351959
-10.5298462 53.8118706 161.8441162
-11.5924549 53.8879128 160.6760559
46.6688995 54.9869194 156.2273865
45.5079956 54.8619308 157.8334656
-8.4120970 54.7608871 162.6483459
45.6171265 56.0036087 155.9743958
44.4495850 55.8787537 157.6171875
43.3341026 55.7989578 159.0396729
-6.2949514 55.7213020 163.2429352
-7.3697758 55.7882843 162.2799683
-8.4365463 55.8573990 161.2478180
44.5434799 57.0274124 155.6909332
43.4141960 56.9186287 157.2492676
-6.3159924 56.8202057 161.8364105
-7.3922691 56.8917770 160.8086853
-8.4627857 56.9721642 159.7121277
43.5367355 58.0992813 155.2106171
42.3687515 57.9647827 156.7859802
41.2581978 57.8750381 158.1446381
40.1323700 57.8013535 159.3946228
39.0259972 57.7393608 160.4982147
-2.0933349 57.6805344 163.7791138
-3.1654973 57.7423973 163.0009308
-4.2055082 57.7985382 162.1948547
-5.2804108 57.8652725 161.2880554
-6.3423152 57.9400864 160.2974854
-7.4192648 58.0232086 159.1999054
41.3484459 59.0184097 156.1632996
40.2093964 58.9256668 157.5462952
39.0901413 58.8519135 158.7763672
-2.1056647 58.7918091 162.3216858
-3.1780200 58.8525925 161.5048523
-4.2318029 58.9199257 160.6336823
40.3049583 60.0921783 155.4238129
39.1598587 59.9828873 156.8217316
2.0943663 59.7004318 163.4839478
1.0360854 59.7500420 162.8747864
-0.0077228 59.7972527 162.2259827
-1.0697683 59.8533058 161.5000916
-2.1149468 59.9095116 160.7278595
-3.1958225 59.9854279 159.8363495
39.2928009 61.2036247 154.5066071
2.0902538 60.8149338 161.9320831
1.0375959 60.8689728 161.2810059
-0.0132121 60.9210701 160.5697021
-1.0744503 60.9757385 159.7770081
38.2774239 62.3018417 153.3757477
37.1429100 62.1659698 154.7820129
36.0310249 62.0712776 156.0410156
34.9221573 62.0054703 157.1169891
33.8311615 61.9503860 158.0626678
32.7288742 61.8933334 158.9532928
2.0817914 61.9469032 160.2044830
1.0260172 62.0049210 159.4964294
36.1543503 63.3141251 153.4983521
35.0145760 63.1958313 154.7581940
33.9148521 63.1150513 155.8326416
32.8104630 63.0428238 156.8423920
2.0784705 63.1031418 158.2481995
1.0179365 63.1663208 157.4572449
34.0303307 64.3580017 153.1960449
32.9005280 64.2331848 154.3493347
31.8132057 64.1635666 155.3553162
30.7156181 64.1119003 156.2414246
29.6137486 64.0599899 157.0297241
28.5364456 64.0142365 157.7162323
27.4709568 63.9795761 158.3205566
26.4085026 63.9478531 158.8472595
10.5258160 63.9262238 160.2400513
9.4649611 63.9514313 159.9341888
8.4094524 63.9872093 159.5659790
7.3769002 64.0206299 159.1621552
6.2999897 64.0685654 158.6648102
5.2516441 64.1127472 158.1258850
4.1877661 64.1622467 157.5030975
3.1437843 64.2132111 156.8125000
2.0707772 64.2840958 155.9940186
33.0259895 65.5335999 151.2432709
31.9059372 65.3995209 152.4938354
30.7993832 65.3200684 153.5632019
29.6991062 65.2719803 154.4563141
28.6083107 65.2211075 155.2729034
27.5333996 65.1632690 156.0099335
26.4662132 65.1215591 156.6130981
10.5367498 65.0891342 158.1921082
9.4832811 65.1223755 157.8421173
8.4291430 65.1647034 157.4274445
7.3819351 65.2005463 156.9822083
6.3051682 65.2513351 156.4264374
5.2622294 65.2936401 155.8139191
4.1928515 65.3602142 155.0795746
27.6112499 66.3797913 153.2289276
26.5384064 66.3229370 153.9368286
25.4452114 66.2885742 154.5683289
24.3664913 66.2561035 155.0976410
23.2916718 66.2372589 155.5331268
22.2361412 66.2192612 155.9048462
14.7958241 66.1958237 156.6984558
13.7366753 66.2118378 156.5661163
12.6783781 66.2315216 156.3742981
11.6161528 66.2553558 156.1159973
10.5551300 66.2867203 155.7819214
9.5050173 66.3183594 155.3946228
26.6433640 67.6547852 150.5521851
25.5377007 67.5729370 151.3643951
24.4502258 67.5026093 152.0246277
23.3598347 67.4650345 152.5904236
22.3071747 67.4279099 153.0535126
14.8363476 67.4130173 153.9846497
13.7666569 67.4322891 153.8209686
12.7192612 67.4576340 153.5955811
11.6511488 67.4901962 153.2946320
10.5843735 67.5449066 152.8998413
9.5309563 67.5984497 152.4331818
22.4096622 68.8001633 149.3041382
21.3217239 68.7678757 149.8105316
20.2391109 68.7224960 150.1554260
19.1563492 68.6728439 150.4390259
18.0853729 68.6646805 150.6229553
17.0293636 68.6623840 150.6918030
15.9423189 68.6985931 150.6646423
14.8858347 68.7398376 150.5705872
13.8198099 68.7762375 150.3801575
-33.4292107 91.7062378 -61.8845673
31.2408104 93.9077301 -76.8487396
29.8371754 93.7014618 -74.3639526
28.4073124 93.5131683 -72.1084824
-30.6929512 92.7538300 -59.0490875
-32.0889931 92.8289871 -59.9301910
-33.4324570 92.9323273 -60.8181763
-34.8207207 93.0219040 -61.8032761
32.6553421 95.3387604 -77.9466858
31.1782455 95.1100769 -75.1154175
29.8081188 94.9029388 -72.8220139
28.3756905 94.7268829 -70.6776047
-30.6717873 93.9944611 -58.0901871
-32.0456085 94.0818634 -58.9119492
-33.3986320 94.1739273 -59.7834473
-34.7872772 94.2660828 -60.7744675
-36.1789017 94.3709564 -61.8339615
-37.5557251 94.4834137 -62.9651604
-38.9636917 94.6039200 -64.2311172
-40.3347321 94.7408600 -65.5683746
-41.7884026 94.8867645 -67.1385956
-43.1880913 95.0510712 -68.7710800
32.5872231 96.5349579 -76.1770477
31.1349545 96.3112869 -73.5480499
29.7576752 96.1145020 -71.3766251
28.3422356 95.9449768 -69.3804016
-27.9350166 95.0978470 -55.7954903
-29.3089409 95.1710510 -56.4742851
-30.6557579 95.2463531 -57.1992912
-32.0226059 95.3280029 -57.9970894
-33.3834991 95.4149399 -58.8621140
-34.7552261 95.5132675 -59.8094482
-36.1492538 95.6168594 -60.8458557
-37.5128441 95.7314148 -61.9359512
-38.9169693 95.8503418 -63.1590919
-40.2945137 95.9821777 -64.4634552
-41.7324600 96.1289673 -65.9601135
-43.1408768 96.2833252 -67.5346680
32.5299759 97.7412796 -74.5962143
28.3112698 97.1767273 -68.1938400
-26.5757980 96.2818985 -54.3985977
-27.9145985 96.3507996 -55.0010376
-29.2969265 96.4186707 -55.6707840
-41.6966782 97.3729095 -64.9001999
-43.0942497 97.5271378 -66.4111557
33.9420280 99.1853867 -75.8807068
32.5035629 98.9544907 -73.2365570
28.2911263 98.4084549 -67.1289520
-25.2132244 97.4781418 -53.1041298
-26.5523663 97.5387497 -53.6571007
-27.8950882 97.6049805 -54.2509804
-29.2663250 97.6792297 -54.8973312
-41.6524696 98.6255951 -63.9193344
-43.0559998 98.7745819 -65.4046402
33.8685036 100.4087677 -74.4715042
32.4735146 100.1778946 -72.0127945
28.2653084 99.6504822 -66.1479111
26.9166908 99.5074921 -64.6054077
-23.8769951 98.6732178 -51.9311066
-25.1876907 98.7362671 -52.4138794
-26.5405712 98.7981415 -52.9640121
-41.6237869 99.8794479 -63.0326576
-43.0017395 100.0316238 -64.4516144
35.2957306 101.8785706 -76.0359039
33.8367920 101.6307678 -73.2594986
32.4366417 101.4106445 -70.8929749
28.2328110 100.8925095 -65.2363739
26.8656158 100.7570114 -63.7267990
25.4892082 100.6319122 -62.3276138
24.1316013 100.5152740 -61.0505409
22.7754841 100.4085770 -59.8723183
-22.5066280 99.8840637 -50.8539658
-23.8509483 99.9368896 -51.2937126
-25.1745872 99.9982452 -51.7736092
-26.5332527 100.0560455 -52.3249435
-41.6062241 101.1375580 -62.2240601
-42.9663620 101.2903366 -63.5947609
-44.4107819 101.4530258 -65.1858444
35.2543144 103.1054993 -74.7852097
33.7939148 102.8633041 -72.1353226
32.4054680 102.6489716 -69.8861237
22.7592812 101.6656952 -59.1718292
21.4274940 101.5569687 -58.0783463
-21.1492844 101.0961914 -49.8871689
-22.4924469 101.1468964 -50.2739143
-23.8407173 101.2010193 -50.7066612
-44.3675308 102.7141266 -64.3559113
33.7799683 104.1060715 -71.1745682
32.3899689 103.8933868 -69.0053177
22.7357502 102.9254532 -58.5084457
21.3873978 102.8248062 -57.4420853
20.0618782 102.7369156 -56.4344826
-19.8141079 102.3183746 -49.0177803
-21.1348495 102.3610764 -49.3512421
-22.4843502 102.4098587 -49.7374878
-23.8313122 102.4649811 -50.1669464
-44.3404388 103.9812012 -63.6128616
35.1760979 105.5876770 -72.7115860
33.7413177 105.3563080 -70.2730713
32.3556671 105.1497498 -68.1786575
20.0253353 104.0033188 -55.8913422
18.6664047 103.9221954 -54.9864426
17.3428726 103.8455124 -54.1506691
-21.1320400 103.6283493 -48.8575897
-44.3301849 105.2569504 -62.9588966
-45.7228279 105.4290695 -64.5233154
-47.1691666 105.6229477 -66.3202896
-48.6151886 105.8346252 -68.3005142
35.1458206 106.8431091 -71.8798218
33.7176285 106.6114273 -69.4939041
32.3378830 106.4102173 -67.4545288
20.0344162 105.2678375 -55.3901863
18.6524658 105.1903229 -54.4770393
17.3343983 105.1112366 -53.6603813
15.9723978 105.0427856 -52.8595238
-19.8038177 104.8515320 -48.0723877
-21.1255913 104.8988419 -48.4043808
-44.2861862 106.5304871 -62.3108978
-45.6971359 106.7046509 -63.8753510
-47.1340218 106.9011002 -65.6390610
-48.5916824 107.1136932 -67.6004639
36.5390244 108.3684540 -73.7381134
35.1202545 108.1044159 -71.1245880
17.3165417 106.3823013 -53.1897812
15.9584732 106.3126068 -52.4056549
-18.4563980 106.0805893 -47.3565636
-19.7909737 106.1237488 -47.6492615
-21.1158657 106.1700211 -47.9885941
-47.1232872 108.1827011 -65.0488358
-48.5743523 108.3898010 -66.9421692
36.5170822 109.6327133 -73.0151672
35.0935898 109.3711166 -70.4341431
17.3070698 107.6521454 -52.7645798
15.9450197 107.5833282 -51.9942627
14.6468191 107.5186996 -51.3114166
-17.1477947 107.3122635 -46.7238426
-18.4502201 107.3539276 -46.9745865
-19.7875996 107.3989868 -47.2776833
-21.1145763 107.4449158 -47.6244049
-47.0890045 109.4688110 -64.4941406
37.9946823 111.2081070 -75.3821564
36.4821091 110.9031982 -72.3408966
35.0684586 110.6438370 -69.8290329
14.6302814 108.7954025 -50.9430466
13.2877245 108.7368622 -50.2860107
-15.7949657 108.5556183 -46.1635094
-17.1306896 108.5941467 -46.3835220
-18.4517174 108.6297760 -46.6453781
-19.7900696 108.6768036 -46.9506912
-21.1166801 108.7230530 -47.2878494
-47.0752029 110.7615509 -64.0375443
-48.5121613 110.9718094 -65.8696365
36.4699287 112.1831436 -71.8005524
35.0572510 111.9257660 -69.3338089
14.6242065 110.0714569 -50.6112862
13.2713194 110.0143585 -49.9629250
11.9467793 109.9607849 -49.3675919
-15.8044605 109.8337250 -45.8702316
-17.1420135 109.8704681 -46.0923958
-21.1087685 110.0037537 -46.9668884
-47.0723877 112.0606232 -63.6545639
-48.5084038 112.2718658 -65.4629440
37.9152985 113.7771301 -74.2420120
36.4554749 113.4710083 -71.3386765
35.0492897 113.2144012 -68.9093704
11.9330807 111.2415314 -49.0844955
10.6193447 111.1931305 -48.5360870
9.3069611 111.1457138 -48.0220184
-13.1176405 111.0514984 -45.2183418
-14.4960594 111.0814514 -45.4113121
-15.8081245 111.1150742 -45.6035767
-17.1377506 111.1518631 -45.8172035
-21.1047764 111.2865829 -46.6944962
-47.0522537 113.3647995 -63.2973328
-48.5035858 113.5768967 -65.1085968
37.8997192 115.0678177 -73.7786102
36.4453011 114.7659912 -70.9513855
35.0379105 114.5088043 -68.5430145
11.9291792 112.5240250 -48.8357277
10.6141958 112.4747162 -48.2864685
-11.8437281 112.2970734 -44.8604584
-13.1492786 112.3333740 -45.0021095
-14.4824142 112.3669434 -45.1750679
-15.8011494 112.3996964 -45.3601761
-17.1409664 112.4375000 -45.5781975
-18.4391842 112.4770203 -45.8297958
-19.7912064 112.5237732 -46.1331902
-21.1078186 112.5732269 -46.4636078
-47.0360527 114.6726227 -62.9972687
-48.4970741 114.8871918 -64.8041458
37.9065933 116.3715973 -73.4526138
11.9204769 113.8093567 -48.6160278
10.6074753 113.7602692 -48.0733452
6.6165628 113.6447601 -46.7121010
5.3137732 113.6148605 -46.3397331
-13.1551628 113.6201477 -44.8043365
-14.4915543 113.6514130 -44.9699936
-15.7838840 113.6854019 -45.1458817
-17.1398029 113.7250443 -45.3869629
-18.4507542 113.7675247 -45.6476288
-47.0369911 115.9882736 -62.7782669
37.8795929 117.6829224 -73.1916885
11.9179401 115.0983276 -48.4392242
10.5980616 115.0509109 -47.9088974
9.2628059 115.0073395 -47.4159622
7.9595284 114.9544830 -46.9763870
5.3023224 114.8899231 -46.1708298
3.9795387 114.8777924 -45.8315964
2.6700203 114.8556519 -45.5319519
1.3360995 114.8400574 -45.2792206
0.0176840 114.8265228 -45.0433769
-1.2920640 114.8149033 -44.8320847
-2.6203661 114.8094940 -44.6751785
-7.8888674 114.8276367 -44.3766479
-17.1415119 115.0167389 -45.2214699
-18.4602051 115.0593719 -45.4804688
-47.0370331 117.3105545 -62.6188545
-48.4729538 117.5291824 -64.3995743
37.8538513 119.0058975 -73.0293732
9.2574110 116.3005066 -47.2898064
3.9798660 116.1684494 -45.6882553
2.6701584 116.1466980 -45.3913002
-1.3110306 116.1038361 -44.6913643
-6.5697765 116.1103821 -44.2805481
-7.8808122 116.1222610 -44.2637367
-15.7954102 116.2696609 -44.8486938
-17.1466160 116.3112793 -45.0851135
-18.4502907 116.3532639 -45.3372536
-47.0288086 118.6360168 -62.4915085
-48.4636421 118.8599625 -64.2934723
-49.9079819 119.1043396 -66.2678375
37.8474617 120.3422546 -72.9945221
9.2423811 117.5962906 -47.1824188
3.9724488 117.4613724 -45.5698318
2.6389985 117.4368973 -45.2742157
-1.2965783 117.4041214 -44.6109657
-2.6264415 117.3950500 -44.4378242
-13.1727304 117.5038300 -44.4266472
-14.4946156 117.5337982 -44.5763206
-15.8055439 117.5682220 -44.7576790
-17.1545868 117.6095886 -44.9874458
-18.4513111 117.6522141 -45.2445793
-47.0251884 119.9675140 -62.4208908
-48.4712524 120.1983261 -64.2537384
37.8575935 121.6806564 -72.9666824
9.2445326 118.8944550 -47.1073914
5.2817030 118.7817535 -45.8224182
3.9791856 118.7639694 -45.5110397
2.6670048 118.7419128 -45.2231216
-1.3002971 118.7014618 -44.5558357
-2.6378465 118.6955948 -44.3827896
-3.9532206 118.6943665 -44.2581596
-5.2805872 118.7004547 -44.1852417
-10.5425777 118.7525482 -44.1688499
-11.8707228 118.7791901 -44.2639198
-13.1599150 118.8029175 -44.3749046
-47.0340881 121.3094177 -62.4343987
37.8579292 123.0284500 -73.0250320
9.2495384 120.1990967 -47.0700150
7.9363461 120.1604462 -46.6203461
6.5981531 120.1225891 -46.1836319
5.2784123 120.0865936 -45.8065834
3.9788237 120.0679092 -45.4901047
2.6602514 120.0427704 -45.1896057
-1.3110483 120.0055389 -44.5202789
-2.6456139 119.9955902 -44.3435478
-3.9331899 119.9955139 -44.2154007
-5.2861428 119.9990005 -44.1340141
-6.5717626 120.0076447 -44.0882492
-7.9037046 120.0200043 -44.0653114
-9.2111397 120.0350266 -44.0837250
-10.5485649 120.0562744 -44.1481133
-11.8774481 120.0831070 -44.2358818
-13.1765900 120.1096649 -44.3423920
-47.0437088 122.6583023 -62.5047035
37.8924446 124.4015503 -73.2724533
36.3884926 124.0541687 -70.3504333
34.9876175 123.7734909 -67.9058228
-47.0520897 124.0134811 -62.6281967
36.3973083 125.4193497 -70.5833359
34.9812737 125.1272430 -68.0889969
-47.0658836 125.3756943 -62.8195267
36.4169922 126.8022614 -70.9341660
34.9940643 126.4994507 -68.3860016
-47.0912781 126.7519684 -63.0888405
-48.5368958 127.0095673 -65.0117722
36.4167862 128.1885376 -71.3382721
35.0032196 127.8785248 -68.7453156
-47.1157913 128.1331787 -63.4120522
-48.5668488 128.3989258 -65.3699036
34.9972000 129.2665863 -69.1636353
-47.1354065 129.5234680 -63.8012619
-48.6098137 129.8058624 -65.8386688
35.0227814 130.6726074 -69.6981888
-47.1637497 130.9294128 -64.2835846
35.0555191 132.0776672 -70.2092285
-44.3444633 131.8423157 -61.2409630
-45.7633095 132.0811768 -62.9394913
-47.2025337 132.3449860 -64.8320313
35.0985985 133.5344543 -71.0242004
-44.3671875 133.2486572 -61.7631645
-45.7726479 133.4888000 -63.4841766
-47.2564163 133.7798309 -65.4582977
35.0967560 134.9878235 -71.9404831
33.6298561 134.6316071 -69.2761002
32.2531624 134.3504639 -66.9850159
-44.4059563 134.6715698 -62.3894157
-45.8117027 134.9224701 -64.1558533
33.6337929 136.0783386 -70.1557693
32.2517128 135.7798615 -67.7417755
-44.4437332 136.1073456 -63.1086311
-45.8492241 136.3687439 -64.9279709
33.6798820 137.5664368 -71.1971436
32.2724800 137.2373047 -68.6667252
-41.6615677 137.0700684 -60.5925217
-43.0418663 137.2930145 -62.1294518
-44.4930763 137.5630493 -63.9207420
33.7567863 139.0899658 -72.3994370
32.3067398 138.7208710 -69.7320099
-41.7051086 138.5149841 -61.3636513
-43.0875015 138.7476807 -62.9611664
32.3311615 140.2191772 -70.8697662
30.8749905 139.8746185 -68.3540039
29.5120354 139.6114807 -66.2460861
-41.7465515 139.9717560 -62.2254868
-43.1300011 140.2165070 -63.8959846
-44.5930710 140.5185852 -65.8171997
30.9079914 141.3795319 -69.5665588
29.5272331 141.0872040 -67.3159485
-41.7975197 141.4516602 -63.2179718
-43.1904831 141.7117310 -64.9755249
30.9891205 142.9399109 -70.9309006
29.5873051 142.6136780 -68.5222473
28.1499519 142.3169861 -66.3964996
26.7838116 142.0794830 -64.5755005
-39.0236473 142.4558868 -61.0970535
-40.3990936 142.6739655 -62.5748672
-41.8445778 142.9438934 -64.3117981
29.6338482 144.1362610 -69.8522263
28.1497154 143.8050385 -67.6172638
26.7949963 143.5614319 -65.7067184
-39.0697060 143.9406738 -62.1539078
-40.4596634 144.1814728 -63.7276382
-41.9100800 144.4738464 -65.5429382
28.1950417 145.3655090 -69.1122971
26.8194294 145.0830078 -67.0210114
-36.3195457 144.9925842 -60.4531708
-37.6962166 145.2043304 -61.7941132
-39.1271210 145.4545746 -63.3378334
-40.5321503 145.7198792 -65.0065689
28.2365875 146.9373474 -70.7601776
26.8402386 146.6143799 -68.4925156
-36.3725929 146.4974670 -61.6109352
-37.7568741 146.7259827 -63.0324478
26.8701458 148.2007294 -70.2198792
25.4695396 147.8972626 -68.0038376
24.0805435 147.6450043 -66.0859146
-36.4258156 148.0294952 -62.9092560
-37.8001633 148.2597961 -64.4243317
25.5121117 149.5052338 -69.7804489
24.1126518 149.2141113 -67.7029953
-36.4848633 149.5839844 -64.3718414
-37.8659935 149.8409729 -66.0128937
24.1429863 150.8266907 -69.5249710
22.7454910 150.5451813 -67.5660400
21.3781548 150.3125916 -65.8493195
-30.9694462 150.2767029 -60.6035233
-32.3642960 150.4687195 -61.7561378
-33.7448730 150.6771545 -63.0084343
-35.1483002 150.9118958 -64.4319305
-36.5573883 151.1795502 -66.0482788
22.7985268 152.1838989 -69.5131226
21.4009418 151.8999329 -67.6072769
-31.0164223 151.8292084 -62.0489197
-32.4366341 152.0507202 -63.3150864
-33.8194695 152.2752686 -64.6661987
-35.2086639 152.5214233 -66.1914063
-36.6254311 152.8149719 -67.9617920
21.4364681 153.5576324 -69.6392059
20.0604820 153.2746887 -67.7761154
18.6789207 153.0674438 -66.1658783
17.3219948 152.8763580 -64.7713699
15.9542437 152.7022095 -63.4819641
14.6225252 152.5448761 -62.3390427
13.2507286 152.4047394 -61.2931900
-28.3290100 153.0294495 -61.4210434
-29.7233200 153.2189331 -62.5119629
-31.0909939 153.4254761 -63.7001152
-32.4891586 153.6471558 -65.0371933
21.5043373 155.3012543 -72.0879669
20.0847626 154.9515076 -70.0225601
18.6838608 154.6936493 -68.1943054
17.3403015 154.4852448 -66.6544113
15.9607677 154.2772369 -65.1992340
14.6331539 154.1168823 -63.9733086
13.2624712 153.9799805 -62.8711090
-28.3874912 154.6279144 -63.0888062
-29.7856941 154.8307190 -64.2672424
-31.1450176 155.0437622 -65.5408707
-32.5575790 155.3037872 -67.0242844
20.1623173 156.7482300 -72.7253113
14.6482830 155.7422028 -65.8624573
13.2875242 155.5892029 -64.6612854
-25.6966743 155.8805084 -62.8275719
-27.0717316 156.0650940 -63.8515549
-28.4337749 156.2419281 -64.9693298
-29.8501110 156.4705658 -66.2808228
14.6591969 157.4057617 -68.0379181
13.3001690 157.2289734 -66.6966553
-25.7406578 157.5152893 -64.7599640
-27.1202755 157.7184143 -65.9387131
-28.4850464 157.9870911 -67.3852005
14.6879768 159.1535187 -70.6301193
13.3100643 158.9172974 -69.0833588
11.9438124 158.7421722 -67.7544861
10.5910177 158.5903625 -66.5897827
9.2427750 158.4508667 -65.5477142
7.9037700 158.3278046 -64.6365280
-20.3489723 158.5562286 -63.3749619
-21.7022800 158.6924286 -64.1109543
-23.0719070 158.8462830 -64.9605713
-24.4453659 159.0252686 -65.9446564
-25.8089008 159.2257996 -67.0435257
13.3699121 160.7860413 -72.0084152
11.9760542 160.5455780 -70.4676666
10.6045074 160.3104248 -69.0870056
9.2549782 160.1583405 -67.9136200
7.9137998 160.0187378 -66.8905869
-20.4091644 160.2540436 -65.5721283
-21.7483139 160.3911438 -66.3801651
-23.1356888 160.5806885 -67.3819733
-24.5148468 160.7836304 -68.4822540
9.2565079 161.9524231 -70.7770615
7.9140897 161.7877045 -69.5871353
6.5339894 161.6343994 -68.5443115
5.1994247 161.5144348 -67.6640091
3.8305740 161.4232788 -66.9011993
2.5067351 161.3352203 -66.2423782
-15.0172987 161.4816284 -65.4316025
-16.3631668 161.5790405 -65.9244156
-17.7470284 161.7020569 -66.5437851
-19.0835838 161.8294373 -67.2560654
-20.4610558 161.9990692 -68.1284485
6.5368795 163.4657135 -71.7010574
5.1853275 163.3139038 -70.6442566
3.8246145 163.1927948 -69.7349396
2.4940200 163.0917358 -68.9467087
-15.0649853 163.2526398 -68.1202011
-16.4133873 163.3617859 -68.6910400
-17.7987556 163.5098267 -69.4204941
-19.1554909 163.6802063 -70.2835846
3.8402839 165.1654816 -73.3331833
2.4972408 164.9794617 -72.3651199
1.1265650 164.8742523 -71.6306534
-0.2308095 164.7831268 -70.9781189
-1.5841511 164.7229614 -70.4856873
-2.9306772 164.7026520 -70.1074295
-4.2715545 164.6674500 -69.7838135
-5.6374063 164.6883545 -69.6349030
-6.9760013 164.6944733 -69.5579376
-8.3340025 164.7261353 -69.6010132
-9.6774111 164.7623138 -69.7254333
-11.0384769 164.8293762 -69.9908676
-12.3972569 164.9037170 -70.3397141
-13.7545643 165.0131836 -70.8226776
-15.1230459 165.1422119 -71.4201279
-4.2844114 166.6990204 -73.6902313
-7.0050426 166.6561127 -73.4390335
-8.3704376 166.7134552 -73.4500275
-9.7120667 166.7918549 -73.5965500
21.3967991 -28.4643364 146.3594055
20.8497505 -28.4572620 146.6089020
20.2792797 -28.4430256 146.8674469
19.7256832 -28.4450760 147.0198364
19.1779671 -28.4368877 147.2130890
18.6340981 -28.4301548 147.3608398
18.1077690 -28.4387436 147.4251556
17.5944824 -28.4401455 147.4750824
17.0596313 -28.4524193 147.4627991
16.5316772 -28.4584160 147.4379425
15.9993639 -28.4663029 147.4191437
15.4529076 -28.4739265 147.3845825
14.8987570 -28.4749546 147.3436279
14.3370762 -28.4922028 147.2142029
23.4493580 -27.8525677 147.7171936
26.1925297 -27.2973804 147.9343414
25.6668625 -27.2717342 148.3390961
25.0923023 -27.2412376 148.7692566
24.4994106 -27.2057686 149.1957092
23.9227238 -27.1576767 149.5884247
23.3742161 -27.1334515 149.8821869
6.3182397 -26.8640213 149.1259460
28.1671543 -26.0758266 150.2853088
27.6483841 -26.0453758 150.6741333
8.9283018 -26.1340981 152.5961151
6.3641438 -26.2498684 151.0549316
5.8042607 -26.3090820 150.6506348
5.2503452 -26.3707924 150.2069244
32.0573730 -25.6737633 147.9348907
28.6257610 -25.5117626 151.5527802
3.6189160 -25.8521175 150.5252991
32.4774323 -25.0407906 149.4022064
31.9765186 -24.9964504 149.9380493
29.2133942 -24.9035988 152.6443787
28.6152935 -24.8831882 153.0846558
3.6106613 -25.2098827 152.1147156
3.1150653 -25.2676563 151.7365570
2.6280997 -24.7068119 152.7808228
34.0927620 -23.9747410 150.8283691
2.6420996 -24.0897732 154.1237030
2.1178312 -24.1431751 153.7096558
1.5590459 -24.1994534 153.2439270
36.8144112 -22.9570160 150.4568787
36.3366127 -22.8984299 151.1508942
35.7992172 -22.8158817 151.9734955
35.2846031 -22.7435532 152.7231598
0.4687931 -23.0730667 154.8158875
-0.1447515 -23.1423111 154.2343903
38.2721901 -21.8315830 151.3628082
-1.6683776 -22.0460262 155.1791229
-2.1645584 -22.0883827 154.7188721
-2.6926260 -22.1469383 154.1722260
-4.9474030 -21.7250576 152.7088776
40.0135918 -20.8134441 151.4899445
39.3971214 -20.7493820 152.3949738
-4.9279265 -21.1222553 153.9377899
-4.9200497 -20.5682602 155.0183258
-4.8852563 -19.9804592 156.1227264
41.4720154 -19.1537971 153.2074890
-4.8711281 -19.4072609 157.1571960
42.4764099 -18.6795750 152.9647217
41.9119682 -18.6189709 153.7544250
41.4174309 -18.5981789 154.3730621
-4.8769703 -18.8571167 158.1229706
-5.4461107 -18.9005165 157.5083313
42.3834000 -18.0788078 154.2218170
43.5527992 -17.6225395 153.5462646
42.9271584 -17.5677376 154.4805756
42.3411369 -17.5282249 155.2886658
-5.9278564 -17.8325787 158.8665466
-6.4036717 -17.8459835 158.4099426
-6.8820028 -17.8666019 157.9414978
-7.4079990 -17.9171410 157.3948517
-7.9973316 -17.9905987 156.7400208
45.2697792 -16.6322575 152.9177094
44.6741867 -16.5703392 153.8660126
45.7556190 -16.0907784 153.2035065
26.6631126 -15.6365900 168.2231445
26.2719040 -15.6532536 168.2277527
21.9337749 -15.6421328 169.3475037
21.5037746 -15.6628284 169.3450623
21.0398026 -15.6847296 169.3696442
20.5074024 -15.6822357 169.4594879
19.9198608 -15.6778746 169.5679474
-9.0627651 -16.3701115 158.1195984
-9.6402006 -16.4031639 157.3954620
46.2413979 -15.5653296 153.4680176
45.6920471 -15.5275345 154.2920227
26.6623554 -15.0993719 168.7685089
-9.0360804 -15.8142061 158.9380341
26.6896267 -14.5960617 169.2626343
19.8929977 -14.6776896 170.5952301
19.2636223 -14.6475477 170.7111664
18.6349831 -14.6182594 170.7970428
-9.0299549 -15.2785368 159.7155304
-10.6792936 -15.3462458 157.8244019
-11.1835175 -15.4054480 157.2364197
-11.7525635 -15.4836035 156.5431213
46.6558952 -14.4909697 154.7879181
26.6665897 -14.0581398 169.7999268
18.6352749 -14.1308031 171.2648773
-9.0146685 -14.7500944 160.4689789
-9.6052074 -14.7827835 159.8229980
-10.1498404 -14.7904959 159.2259064
-10.6713390 -14.8289299 158.6199341
-11.1623240 -14.8613462 158.0733490
29.8954716 -13.6025753 169.0753326
27.4963512 -13.5744648 170.2606659
27.0227451 -13.5487127 170.3196869
48.3715668 -13.4651089 154.0575867
47.6742287 -13.4627180 155.0458527
29.8814487 -13.0812120 169.5355377
29.8480797 -12.5443754 170.0059509
18.5945644 -12.5988159 172.6846924
18.0357628 -12.5884495 172.6958618
17.5794926 -12.5903835 172.6813049
7.8085427 -12.7063503 171.6222992
7.3978047 -12.7124472 171.5883484
6.9264631 -12.7179079 171.5082855
6.4049544 -12.7215195 171.3467712
-12.2073069 -13.3349991 159.1388702
-12.1576090 -12.7760067 159.8848267
-12.7377949 -12.8326073 159.2156219
50.0082626 -11.9822350 153.6651154
30.9266548 -11.5848446 170.5002136
16.7343159 -11.5713615 173.5074615
8.6650114 -11.6870852 172.6092072
8.2185421 -11.6744184 172.5452728
-13.2745953 -12.3263359 159.2610016
50.5403137 -11.4760427 153.5719910
49.9541359 -11.4316397 154.5885315
17.1445427 -11.0582447 173.9282379
16.7267208 -11.0684929 173.9142303
-13.2339125 -11.7675734 159.9685364
-13.8351421 -11.8170509 159.2506714
51.0337906 -10.9682560 153.5468597
31.6931114 -10.5009537 171.3834229
31.2825298 -10.4930267 171.4060211
-14.4017363 -11.3141642 159.1843414
18.5477047 -10.0260859 174.7380676
18.0069675 -10.0273762 174.7590485
17.5440941 -10.0324116 174.7467499
-14.3804445 -10.7796593 159.8173981
50.8917389 -9.8711681 155.4370728
8.6684713 -9.6288671 174.2377777
51.4062920 -9.3762007 155.3446198
50.8395309 -9.3370295 156.2469177
8.6552477 -9.1374702 174.5952606
6.3590579 -9.1861305 174.3315125
51.9261436 -8.8826113 155.2308044
6.5240355 -8.5930786 174.8711395
30.7326641 -7.9377422 173.5036469
30.2286530 -7.9412317 173.6038513
29.7122822 -7.9971962 173.8288727
28.5156288 -7.9215255 174.4425201
-15.9280624 -8.6817207 160.3709869
51.8086090 -7.8068018 156.7930298
5.7863021 -7.6496148 175.1855621
5.1628861 -7.6536140 174.9297791
2.1956828 -7.7091851 174.0857544
-16.4442062 -8.2418804 160.3125458
53.0351028 -7.3610854 155.4225922
52.3645821 -7.3108010 156.5345306
51.7522507 -7.2772708 157.5151215
24.9775715 -6.9823999 175.8246918
20.8336868 -6.9976320 176.5014191
8.6458788 -7.1238537 176.0116577
2.2081056 -7.1940179 174.4494934
52.9664803 -6.8273306 156.1603394
31.5991707 -6.4978333 174.4741669
29.0882092 -6.4854212 175.1900635
25.4924679 -6.4928041 176.0827026
24.9648762 -6.4626975 176.1415100
20.8237038 -6.5106187 176.8173370
-16.4154491 -7.1895676 161.4489441
52.9068146 -6.2843895 156.8786774
29.6525040 -5.9911714 175.2638245
29.0815582 -5.9882793 175.5225067
25.4812508 -5.9820280 176.3943329
3.0919852 -6.2010493 175.3374939
-16.3913345 -6.6609478 161.9754486
-16.9447613 -6.6966171 161.3203125
-17.5284805 -6.7370725 160.6132660
25.4770565 -5.5026097 176.6886292
20.8044834 -5.4997830 177.4703217
8.6810989 -5.6001401 177.0033417
8.2119274 -5.6026974 176.9330750
7.7720971 -5.6263032 176.9149933
7.4349723 -5.5774393 176.9790344
3.1060169 -5.6852145 175.6561279
55.2793732 -5.3557711 153.8527222
31.5569496 -4.9813452 175.4775543
31.1021042 -4.9975829 175.5514221
30.6471386 -5.0020752 175.6222229
30.1542091 -4.9955258 175.7232666
25.4646950 -4.9971976 177.0005951
20.7938557 -4.9994965 177.7838898
8.6784048 -5.1061873 177.3041992
5.7786579 -5.1226349 176.7889557
5.1633916 -5.1419506 176.5629730
4.5668478 -5.1595950 176.3499603
4.0229149 -5.1725750 176.1719818
3.5560608 -5.1698065 176.0631409
3.1174324 -5.1647015 175.9735565
-17.4597626 -5.6722536 161.6906738
25.4441376 -4.5001440 177.3067474
20.7871799 -4.5175476 178.0817719
8.6664200 -4.6129446 177.5844421
55.1895981 -4.3074903 155.2778778
22.6203289 -3.9906502 178.3087311
22.1474037 -3.9957125 178.3553467
21.7021351 -3.9975269 178.3653717
21.2548923 -4.0143137 178.3536530
20.7809048 -4.0222383 178.3691101
8.6466341 -4.1172099 177.8638000
8.1775198 -4.1157331 177.7805634
-18.5330296 -4.6687298 161.2487793
-19.1292095 -4.6922064 160.4254608
55.1362953 -3.7753298 155.9665527
-18.4946060 -4.1299143 161.7430725
55.6667900 -3.2819602 155.6127014
55.0995064 -3.2590663 156.5922852
-18.4873085 -3.6209917 162.1767120
55.0584946 -2.7404227 157.2059021
-18.4659576 -3.0982208 162.6697083
55.5762253 -2.2435224 156.8673401
55.0182724 -2.2235396 157.7801208
-18.4427013 -2.5829093 163.1392670
-20.6234283 -2.1322074 160.5989685
56.0752945 -1.2315221 157.0213013
-20.6558952 -1.6643819 160.8508148
-19.5332909 -1.0684738 162.8895721
-20.0546761 -1.0819811 162.1389771
-20.5599709 -1.0967758 161.3711700
-21.0949249 -1.1089422 160.5401306
-19.5376587 -0.5727627 163.2612762
-19.5212326 -0.0575034 163.7131042
57.1194954 0.7826344 157.1045837
-19.5287704 0.4507524 164.0955963
-20.0943813 0.4308326 163.3953552
-20.6009274 0.4236969 162.7470856
57.6777306 1.7997863 156.8722992
57.0048485 1.8225907 158.0552826
58.3123360 2.2810543 156.1383209
58.2547150 2.7995253 156.6448822
-21.6885185 2.4296191 162.7259521
-21.6737041 2.9458885 163.0441742
-21.6527500 3.4561408 163.3569489
-22.2182522 3.4371903 162.6256866
-22.7797241 3.4197659 161.8933258
58.1495247 4.3312125 157.9080505
10.8329268 4.3315716 182.0623169
10.2979431 4.3243046 181.9941559
9.7684841 4.3228750 181.9190826
9.2147598 4.3142352 181.8324280
-21.6339970 3.9687545 163.6646118
-22.1995831 3.9528155 162.9375763
59.3437843 4.8223157 156.0221100
58.7158661 4.8345823 157.2033234
58.1093445 4.8418560 158.2985992
-21.6129475 4.4808493 163.9749603
-22.7405186 4.9562082 162.8117523
-22.7026539 5.4740558 163.1089935
59.8676147 6.3356538 156.0350647
59.2447052 6.3463798 157.1993103
20.0482941 6.3367438 182.8662109
19.5265865 6.3337154 182.9118958
18.9923344 6.3295360 182.9465637
18.4592209 6.3306403 182.9703217
14.9079924 6.3119988 182.9765778
14.3727331 6.3098168 182.9673462
13.8359499 6.3061943 182.9465942
13.3185501 6.3060126 182.9156342
8.6940956 6.2765794 182.4007721
8.2069159 6.2761545 182.3189697
7.7254181 6.2744422 182.2396393
7.2129407 6.2399302 182.1472778
5.1407914 6.2046723 181.6850586
59.2188606 6.8527474 157.5564117
14.9093256 6.8034735 183.1244507
60.4406433 7.3343010 155.5814362
32.3833160 7.3631144 180.5826721
31.8718452 7.3541379 180.7587128
31.3627415 7.3578820 180.9210815
30.8676891 7.3563318 181.0650024
26.6949921 7.3433976 182.1748199
25.1894684 7.3385792 182.4584351
24.6699562 7.3372440 182.5531311
24.1465244 7.3349795 182.6452332
23.6155148 7.3326688 182.7340240
23.0805492 7.3284678 182.8145599
22.5492630 7.3217421 182.8846893
17.9258270 7.3041015 183.2681732
17.4284515 7.3032684 183.2672577
16.9398823 7.2999163 183.2664490
16.4418468 7.2970772 183.2675476
15.9311333 7.2957368 183.2697754
15.4200296 7.2942924 183.2703094
4.0691886 7.2270160 181.7226715
60.3938065 7.8469305 155.9631348
30.8653221 7.8430605 181.1974335
7.7133493 7.7434435 182.6308746
4.0732393 7.7168727 181.8572235
-23.8250141 7.4799886 162.5115204
-24.3963299 7.4655333 161.6941071
33.4728241 8.3425722 180.4514923
32.9419479 8.3348818 180.6555634
30.3985672 8.2969971 181.4346161
29.8436813 8.2796106 181.5887909
8.1976128 8.2358646 182.8663635
7.7154136 8.2333593 182.8013306
4.0695138 8.2082195 181.9841766
-23.7894402 7.9982319 162.7935791
60.9526711 8.8516560 155.4346313
60.3462448 8.8602629 156.5781403
33.4578781 8.8339872 180.5912628
4.0669498 8.6992483 182.1098785
-23.7657452 8.5102396 163.0648956
60.9324188 9.3579950 155.7355957
60.3165474 9.3653517 156.8921814
2.0488179 9.1775570 181.6507416
60.2682228 9.8715229 157.2337952
2.0479524 9.6701899 181.7664795
60.2571907 10.3751659 157.4797668
2.0538399 10.1615896 181.8828278
1.5267750 10.1609516 181.7185669
1.0246660 10.1595364 181.5602417
0.5015145 10.1522942 181.3895874
-0.0291581 10.1542368 181.2095795
60.8480644 10.8749695 156.6144409
60.2487221 10.8791599 157.7015228
1.5271481 10.6481037 181.8331604
35.5144348 11.2807026 180.3344269
-23.7509689 11.0395212 164.0264130
35.5131073 11.7681656 180.4297943
0.5004231 11.6267633 181.7168274
-0.0385248 11.6229515 181.5260773
-23.7588520 11.5444393 164.1811066
35.4974823 12.2573643 180.5260773
0.4936996 12.1148491 181.8155060
-24.8852596 12.0420046 162.8042297
62.0339394 12.8927441 155.0551147
61.3739052 12.8943844 156.3259583
35.4903526 12.7457142 180.6133728
-24.8654442 12.5512667 162.9591522
62.0165749 13.3968191 155.2589264
61.3577766 13.3967981 156.5239716
35.4958611 13.2334023 180.6889496
-24.8595848 13.0574760 163.1002502
61.3392868 13.8998718 156.7285767
35.4955254 13.7204351 180.7605438
35.0214195 13.7105055 180.9548798
61.3361740 14.4015675 156.8921661
36.4929390 14.2163601 180.4094238
36.0042992 14.2099390 180.6178589
35.4900322 14.2080889 180.8320465
61.3152847 14.9048843 157.0729675
36.4854965 14.7033806 180.4823151
61.3081055 15.4072657 157.2108154
37.5695267 15.1950169 180.0608215
-23.7302036 15.0765781 165.0702820
61.2959480 15.9092283 157.3379822
35.9896965 15.6732502 180.8184662
35.4851112 15.6693439 181.0300293
-23.7199974 15.5805645 165.1793213
61.2736664 16.4121113 157.4612579
35.9738617 16.1622734 180.8700409
35.4753113 16.1579189 181.0797119
-1.5682445 16.0360756 181.6084595
-2.0786612 16.0365086 181.4014435
-2.6056254 16.0351658 181.1881409
-3.1251864 16.0346966 180.9744110
61.9147339 16.9229794 156.3566895
61.2725143 16.9149532 157.5357361
37.5528984 16.6592808 180.2272034
37.0067444 16.6561394 180.4732971
36.4943581 16.6516590 180.6930695
35.9670181 16.6494656 180.9155579
35.4735909 16.6444817 181.1245117
-3.1177785 16.5266972 181.0293121
35.4716454 17.1324577 181.1667633
-3.1423433 17.0157928 181.0647888
-3.6536176 17.0164604 180.8414612
-4.1605244 17.0176392 180.6172638
-24.8304329 17.1016407 163.8839264
-25.4018459 17.1060009 163.1099091
35.4631271 17.6210480 181.2069855
-4.1619282 17.5092144 180.6564941
-24.8389969 17.6066399 163.9289093
35.4517021 18.1080475 181.2433929
-4.1569695 18.0001335 180.6924286
-24.8431435 18.1116829 163.9761047
35.4616737 18.5944710 181.2685242
-3.6439233 18.4900265 180.9599304
-4.1479750 18.4917545 180.7246094
-24.8519878 18.6166801 164.0058746
37.5341721 19.0980968 180.3831024
-3.1617179 18.9573994 181.2233734
-24.8519917 19.1217346 164.0391235
37.5390663 19.5861645 180.3957672
-3.1623805 19.4627361 181.2609863
-24.8343735 19.6267509 164.0883484
37.5537796 20.0742989 180.3961792
35.4578590 20.0574970 181.3106232
-24.8373909 20.1320419 164.1016541
37.5474548 20.5624828 180.3997345
36.9867401 20.5568905 180.6538391
36.4615898 20.5528336 180.8817444
35.9571190 20.5489292 181.0940552
35.4588089 20.5449390 181.3032379
-24.8385239 20.6374416 164.1053314
35.4575386 21.0321407 181.2976074
-24.8573360 21.1433334 164.0735168
-24.8594761 21.6490002 164.0541687
36.4620285 22.0166168 180.8535919
35.9491081 22.0117645 181.0758209
-24.8562126 22.1547127 164.0350952
36.4550934 22.5044594 180.8448792
-24.8631039 22.6610050 163.9955444
-24.8612404 23.1670456 163.9579163
-24.8591423 23.6733913 163.9092712
36.4386978 24.4534512 180.7428894
61.2827721 25.4642372 157.3904419
-23.7602615 25.1640816 165.1873322
-24.3298302 25.1792583 164.4349213
-24.8669701 25.1936817 163.6995697
-25.4209995 25.2089939 162.9351044
61.2829208 25.9676094 157.2686005
-2.1273286 25.3612881 181.3700409
-23.7607670 25.6703968 165.1212616
61.2923584 26.4746113 157.1273804
36.4621658 25.9241657 180.5823059
-23.7498646 26.1747417 165.0552826
61.3104477 26.9809513 156.9714355
36.4759254 26.4160519 180.5210571
-0.5941296 26.3337822 181.8380432
-1.0987982 26.3369904 181.6534271
-23.7859936 26.6857491 164.9022217
-24.3294373 26.7002144 164.1984863
61.3209152 27.4880524 156.8303528
36.4684410 26.9038734 180.4622192
-0.0712269 26.8219032 181.9606934
61.3449287 27.9985867 156.6665955
36.4677773 27.3917427 180.3920746
35.9608192 27.3876152 180.6144104
35.4436722 27.3812141 180.8372955
0.4543836 27.3094711 182.0794678
-0.0886687 27.3158646 181.8869476
60.1226234 28.4427395 158.7247772
-23.7942505 28.2078743 164.5380249
-24.3715649 28.2293720 163.7838287
60.1345596 28.9473019 158.5300446
32.2947006 29.3057766 181.7055511
31.7865696 29.3081093 181.8782959
-23.8383980 29.7377052 164.0876312
1.9677383 29.7589760 182.1379242
-23.8369961 30.2470150 163.9262695
28.6709156 30.2489128 182.5765991
28.1592407 30.2476158 182.7310944
1.9599392 30.2530060 182.0381165
-23.8391628 30.7585754 163.7582397
60.2174568 31.4927597 157.3842621
28.1606827 30.7381535 182.6304016
1.9623499 30.7441101 181.9386597
-22.7281590 31.2227345 165.0218506
60.2477798 32.0080910 157.1040802
30.2434025 31.2981930 181.9108429
29.6729450 31.2881794 182.0741425
28.1677151 31.2321014 182.5173798
27.6375885 31.2274075 182.6436310
27.1115685 31.2208405 182.7586060
26.6041279 31.2136230 182.8591614
25.4044094 31.2529297 181.7717743
25.0525455 31.2672882 181.1946411
2.9995499 31.2274113 182.1407318
2.4911957 31.2311363 181.9912872
1.9657927 31.2373295 181.8329010
-22.7332687 31.7309933 164.8393555
-23.2754230 31.7520466 164.1506348
60.2752991 32.5247574 156.8127289
26.1467133 31.7090092 182.8248901
25.7451897 31.7149620 182.2967834
25.3524837 31.7412376 181.7401886
25.0103893 31.7117939 181.1918945
18.3791485 31.6711903 183.8202667
2.9956191 31.7218494 182.0266418
60.3180504 33.0434647 156.4790039
26.1166573 32.1906776 182.7267761
25.7459335 32.1821861 182.4294586
25.3539562 32.1700859 182.0361938
24.9443684 32.1633759 181.5810394
23.9959106 32.2366829 183.0949097
22.9993992 32.1770859 183.2793427
22.4760189 32.1725540 183.3594055
19.4123058 32.1632271 183.6480713
18.8892193 32.1690598 183.6741180
18.3801804 32.1638336 183.7024994
16.8517551 32.1862144 183.8049774
16.4271755 32.2012672 183.8768005
3.9982798 32.2097397 182.1906586
3.5001926 32.2128029 182.0531158
2.9906623 32.2173157 181.9076080
26.0588379 32.6634483 182.6390991
25.6041126 32.7288208 182.7011414
25.0709000 32.7330856 182.8133698
24.5605984 32.7463226 182.8927307
7.3760195 32.6095619 183.3288422
5.0579062 32.6927681 182.3405762
26.1071453 33.1774178 182.5054169
25.5798931 33.1735573 182.6107483
25.0530930 33.1685295 182.7098083
24.5445023 33.1667519 182.7958527
9.6659393 33.1566887 183.0674133
9.1410341 33.1647415 182.9904633
8.6315174 33.1669197 182.9174194
8.1214323 33.1698570 182.8450775
7.6767144 33.1819801 182.7808228
7.1380186 33.2278709 182.6766357
6.5799603 33.2439690 182.5601807
6.0520225 33.1890144 182.4507446
5.5648189 33.1814728 182.3315582
5.0606623 33.1823883 182.2081451
-22.7695827 33.7780037 163.9820862
60.3686562 34.5876274 155.4696655
59.7196655 34.5376701 156.7073059
59.0739441 34.4861259 157.8845520
14.7960205 33.6360512 183.3585052
59.0974045 35.0039825 157.5475159
14.7878780 34.1317329 183.2188568
14.2881346 34.1291084 183.2060699
13.7570324 34.1308479 183.1836090
13.2406073 34.1303978 183.1515808
11.7142296 34.1404877 183.0233459
11.1908016 34.1441956 182.9746552
10.6788092 34.1418571 182.9229736
10.1759777 34.1411934 182.8612213
59.1222610 35.5208473 157.1744690
59.8218422 36.0994835 155.5317383
59.1783218 36.0458870 156.7566528
-22.8152275 35.8398285 162.9285583
-21.7239418 36.2932358 164.0925598
-22.2808762 36.3278999 163.3672333
-22.8331795 36.3611794 162.6399078
-21.7287998 36.8137207 163.8217010
-21.7524147 37.3362503 163.5191803
-20.6617851 38.3068352 164.3122864
-21.2316895 38.3452911 163.6013489
-20.6619873 38.8221817 164.0113983
57.6133537 39.4960785 157.4918976
56.9448509 39.5194473 158.2998962
-20.6898937 39.3464355 163.6630249
56.9568405 40.0298615 157.8083344
57.6395454 40.6174049 156.1418762
56.9900208 40.5533142 157.3100433
-20.7464123 40.9149704 162.5570679
57.0646515 41.6117020 156.2475433
57.1202774 42.1540756 155.6524353
56.5443687 42.6251259 156.2318115
55.9446297 42.5649605 157.2680359
-18.5691299 42.3439369 164.1665497
-19.1366749 42.3823547 163.4682922
-19.6970062 42.4160538 162.7659760
56.0094681 43.1109962 156.7071991
-18.5891113 42.8663063 163.7653809
54.7978134 43.5136642 158.2275238
-18.6208553 43.4003181 163.3293457
55.4583359 44.1070671 156.5669861
54.8331757 44.0442619 157.6569061
56.1313171 44.7188950 154.7842102
55.5211143 44.6587563 155.9304504
54.8802719 44.5846710 157.0689087
-18.6448631 44.4535942 162.4552155
54.9500275 45.1385155 156.4326172
-17.5939751 45.4351273 162.8486023
-18.1325684 45.4769630 162.1805725
-17.6072407 45.9711037 162.3622284
-17.6224594 46.5010223 161.8593597
-18.1632309 46.5463791 161.1674652
-17.6496296 47.0418816 161.3244324
52.7295532 47.5964127 157.2512665
-16.5437164 47.4881897 162.2244873
-17.0980225 47.5280571 161.5317841
53.4145927 48.2260323 155.4841309
52.7782631 48.1430740 156.5631561
52.8565903 48.7109451 155.8170471
-15.4965105 48.4829979 162.4631042
-15.5086708 49.0202637 161.9109039
-16.0614471 49.0703430 161.2411652
51.7335815 49.6805077 156.3102722
-15.5319729 49.5647316 161.3266754
51.8094368 50.2507706 155.4932098
51.2632675 50.7448158 155.6845245
50.6504631 50.6616783 156.6563416
-14.4797287 50.5594826 161.4533386
50.7356873 51.2416267 155.8100128
-14.5180092 51.6550713 160.1730194
50.8324280 52.3565941 153.9718781
50.2942657 52.8629570 154.1016846
49.6601410 52.7666206 155.2005157
-13.4347944 52.6474800 160.1891022
49.7361946 53.3577347 154.2599487
-12.4046984 53.6775169 160.0720215
47.5207748 54.8092651 155.4131622
-9.1935253 54.5382004 162.2337799
-9.2007351 55.0803680 161.5584869
-9.7492418 55.1287079 160.9910583
46.4864655 55.8464279 155.1722565
-9.2115469 55.6316490 160.8322754
-9.7777672 55.6868553 160.2312164
-9.2320957 56.1918488 160.0697174
46.0289116 56.9400177 153.9107208
45.4085922 56.8449821 154.8851013
45.4865303 57.4588432 153.7789459
44.9515038 57.9791641 153.5975952
44.3548241 57.8937378 154.5285339
-8.2317915 57.8135605 158.7390442
43.3653030 58.9743996 153.9869690
42.7498016 58.8978424 154.8298340
42.1601830 58.8106880 155.6357269
42.2230453 59.4167480 154.5037994
42.3003578 60.0430679 153.2709808
41.7308693 59.9641762 154.0936584
41.1562576 59.8914108 154.8734894
-3.9755087 59.7533340 159.6059875
41.2417297 60.5282631 153.6396637
-3.9935656 60.3345222 158.6821899
40.7109222 61.0690918 153.1731415
40.1189880 60.9890022 154.0095215
-1.8685672 60.7436447 159.6198730
-2.3987355 60.7831764 159.1834106
-2.9427631 60.8269539 158.7028656
-3.4860466 60.8721161 158.1931152
-4.0040836 60.9046593 157.7084045
-4.0040164 61.4718323 156.6402435
0.2584825 61.7546005 159.4283295
-0.2817149 61.7877464 159.0059662
-0.8125540 61.8075714 158.5681763
0.2451657 62.3381119 158.4455566
38.1060028 63.2290421 151.6026001
37.5094109 63.1374855 152.4779205
36.9766922 63.0958939 153.1431885
0.2440587 62.9209633 157.4053955
0.2322232 63.5113716 156.2736206
35.3999481 64.2015228 152.3978119
34.8239098 64.1199799 153.0677948
1.2737757 64.0334854 155.9667206
0.7497699 64.0757294 155.5267487
0.2295945 64.1247864 155.0716095
1.2544227 64.6725998 154.6743469
33.8822899 65.3281555 151.0731049
3.4038544 65.0994110 155.1759186
2.8773031 65.1478958 154.7564697
2.3369541 65.2057343 154.3012238
1.7873262 65.2692337 153.8140564
3.4056523 65.7402496 153.8124542
32.3081284 66.4820175 149.4929047
31.7460136 66.4277954 150.1985931
31.1771622 66.3615112 150.8838806
30.6125698 66.3173218 151.4700165
30.0580273 66.2830658 151.9983521
28.9777985 66.2112656 152.9750977
28.3934193 66.1808472 153.4216614
8.6950817 66.0456924 155.7301788
8.1747513 66.0678024 155.4987488
7.6560917 66.0922089 155.2548981
7.1238031 66.1279449 154.9588470
6.5919924 66.1525269 154.6472321
6.0513911 66.1785812 154.2946472
5.5335779 66.2027512 153.9615479
4.9977331 66.2448349 153.5915680
4.4469213 66.3059082 153.1704559
3.9129310 66.3599625 152.7556763
28.4373837 66.7872391 151.7821350
8.6965981 66.6697922 154.3320465
5.5349727 66.8661346 152.4259186
28.5206394 67.4935837 149.8579865
27.9744320 67.4277802 150.3769684
27.4295387 67.3579254 150.8446808
27.5143681 68.1000977 148.7621460
25.3638306 68.6481171 148.4692078
24.8245010 68.6154099 148.9120331
24.2769260 68.5703125 149.3231659
23.7178860 68.5150833 149.6908264
23.1685886 68.4442368 150.0162201
13.0094137 68.4384384 151.1890869
12.4925032 68.4704514 151.0577545
11.9552288 68.5131454 150.8584137
11.4142675 68.5529404 150.6364899
23.2576847 69.2268066 147.6094971
20.1084957 69.8478928 146.6817627
19.5411606 69.8394775 146.8350677
18.9861374 69.8318176 146.9516907
18.4400005 69.8178711 147.1227417
17.9202290 69.8263931 147.1360016
17.4119949 69.8337250 147.0932465
16.8276958 69.8197250 147.3183289
16.4327049 69.7354126 147.6859741
29.5865231 91.5562057 -76.7725296
28.8549042 91.4449844 -75.5809479
-32.5115318 90.6711121 -62.0399513
-33.1590652 90.7265320 -62.4908867
29.5565453 92.1375122 -75.9201660
28.8338509 92.0472641 -74.7185745
-32.4905586 91.3030243 -61.4877930
30.2241611 92.8826752 -76.1438751
29.5337238 92.7430801 -75.0584488
28.7798557 92.6561966 -73.8079834
28.0950394 92.5575790 -72.7356033
27.4415493 92.4535446 -71.7507553
-31.0633564 91.8361282 -60.0213051
-31.7472572 91.8856659 -60.4532700
-32.4543076 91.9310226 -60.9333458
-34.4442520 92.1183929 -62.3475761
27.4381084 93.0570450 -71.0221634
-29.7137966 92.3678207 -58.7250404
-35.8929100 92.7740173 -62.8625031
32.3375549 94.3750381 -78.5749817
27.3819294 93.6518784 -70.2874603
-29.6953030 92.9946823 -58.2250557
-35.8676834 93.4061966 -62.3328552
-36.5582733 93.4574432 -62.8813934
-37.2464981 93.5135727 -63.4533234
-37.9383888 93.5738449 -64.0572357
-38.6514473 93.6305313 -64.7176056
-39.3479996 93.6934280 -65.3874664
-40.0321426 93.7613907 -66.0715485
