-28.6691952 165.6173859 -49.0605621
-31.3915787 166.0248108 -51.2122879
21.8133011 168.2617645 -54.0763893
19.1155682 167.8824921 -51.6357574
16.4239826 167.5911102 -49.6702995
13.7592583 167.3488770 -48.0199089
11.0991850 167.1631622 -46.6732407
8.4500303 167.0112610 -45.5540810
-2.1176581 166.7920380 -43.2398033
-15.3273935 167.2444763 -44.5578308
-17.9870186 167.4360657 -45.3994904
-20.6534176 167.6656342 -46.4786263
-23.3345509 167.9373627 -47.7950974
-26.0324669 168.2660675 -49.4262657
-28.7536221 168.6534576 -51.4028587
19.1498260 170.9926758 -54.4206085
16.4549084 170.6574249 -52.2223816
13.7791405 170.3767242 -50.3820877
11.1056671 170.1656342 -48.9144783
8.4555187 170.0025024 -47.7130623
5.7943363 169.8756409 -46.7561035
3.1549823 169.8044739 -46.0490379
0.4993889 169.7554016 -45.5315742
-2.1383028 169.7511597 -45.2352905
-15.3782530 170.2307129 -46.6714706
-18.0472317 170.4390869 -47.6045303
-20.7168026 170.6962280 -48.7930260
-23.4107323 171.0006561 -50.2668571
-26.1162853 171.3693542 -52.0923309
16.4829865 173.8417206 -55.3967552
13.8099384 173.5285950 -53.3303642
11.1135464 173.2738647 -51.6519203
8.4570742 173.0803375 -50.3230171
5.7964144 172.9439850 -49.2759705
3.1370249 172.8520813 -48.4975967
0.4822577 172.7964478 -47.9419136
-2.1587257 172.7866058 -47.6091690
-15.4349384 173.3173676 -49.2604218
-18.1058064 173.5458832 -50.2973900
-20.7915745 173.8334351 -51.6342392
11.1401272 176.5266724 -55.1197662
8.4678898 176.2952576 -53.5716019
5.7938118 176.1301727 -52.3884392
3.1333146 176.0125427 -51.4969025
0.4644682 175.9522247 -50.8853455
-2.1806474 175.9300232 -50.5145111
-4.8445754 175.9600067 -50.3956757
-7.4929509 176.0266724 -50.5185318
-10.1533861 176.1419067 -50.8897667
-12.8207788 176.3077698 -51.5279274
-15.4937849 176.5153656 -52.4269791
-18.1883469 176.7905731 -53.6655693
5.7920942 179.4974213 -56.4071426
3.1268902 179.3503265 -55.3303032
0.4528745 179.2621002 -54.5912552
-2.2089415 179.2375336 -54.1809769
-4.8788977 179.2595520 -54.0501938
-7.5391335 179.3427734 -54.2318459
-10.2101307 179.4749146 -54.6750793
-12.8900185 179.6645050 -55.4454269
0.4301909 182.8400879 -59.7058868
21.4055176 -9.3989515 154.3678741
20.3482590 -9.4011974 154.5742035
19.2525444 -9.4016542 154.6524048
15.0165606 -9.4581108 153.8574219
25.6389427 -8.2569427 157.0472107
24.5206966 -8.2230701 157.5999756
23.3773384 -8.2149391 158.0596619
22.3534832 -8.2145290 158.3345184
21.3671303 -8.2233543 158.4870453
20.3064098 -8.2295494 158.5974121
19.1740723 -8.2308598 158.6924591
18.0957966 -8.2535038 158.6919250
17.1013126 -8.2634907 158.5776215
16.0764904 -8.2658901 158.3586121
14.9912739 -8.2706623 158.0873413
13.8827877 -8.2953758 157.7128754
12.8574228 -8.3143358 157.2867279
11.8418665 -8.3592892 156.7590637
10.7735901 -8.4200697 156.0844574
31.9442825 -7.2515020 156.0369873
26.6005993 -7.1404915 159.9792786
25.5864925 -7.1455164 160.3778534
24.4520760 -7.1350827 160.8540649
23.2844372 -7.1336603 161.2432098
22.2839565 -7.1479006 161.4198761
21.3338451 -7.1501665 161.5380707
20.2713985 -7.1503634 161.6503296
19.1066837 -7.1610875 161.7067566
18.0227661 -7.1746812 161.6853333
17.0652275 -7.1811042 161.6004944
16.0709896 -7.1885262 161.4482422
14.9592495 -7.1995549 161.2190094
13.8185883 -7.2108002 160.9182587
12.8115396 -7.2225180 160.5748901
11.8386936 -7.2333345 160.1664429
10.7748337 -7.2552447 159.6239777
9.6571960 -7.2884235 158.9960785
8.5835876 -7.3659964 158.2675934
32.8608170 -6.1196895 158.7611084
31.8272076 -6.0963149 159.6262817
30.8543930 -6.0857172 160.2957306
29.7612457 -6.0679955 161.0515594
28.5663986 -6.0644832 161.8379517
27.4821854 -6.0692987 162.3932953
26.5328121 -6.0748310 162.7395630
8.5530767 -6.2275429 161.2482452
7.5841236 -6.2674065 160.6321106
6.5460930 -6.3249950 159.8706360
36.1748924 -5.1380000 158.3101196
35.1275101 -5.1200972 159.4602509
33.9523697 -5.0943432 160.6325684
32.7613411 -5.0430956 161.7005005
31.7467136 -5.0344377 162.4129028
30.7901421 -5.0389252 162.9404297
29.7018166 -5.0271826 163.5844421
28.5021553 -5.0198379 164.2644348
27.4028702 -5.0132318 164.7739258
26.4810276 -5.0187750 165.0499573
8.5259304 -5.1675858 163.7097321
7.5790596 -5.1787696 163.1959991
6.5827894 -5.2015662 162.5655060
5.4649858 -5.2467585 161.7615051
4.3298111 -5.3026667 160.8488312
38.1778946 -4.0653467 158.9497223
37.0402069 -4.0365386 160.2939453
36.0541916 -4.0294442 161.2569580
35.0239601 -4.0215101 162.1711121
4.3157382 -4.2024932 163.2644653
3.3046393 -4.2448306 162.4831543
39.2800941 -3.0297353 160.2515106
38.0503387 -2.9949737 161.7532196
36.9375992 -2.9844890 162.8859863
35.9757690 -2.9834671 163.6687164
34.9507484 -2.9804783 164.4478912
4.3262739 -3.1433415 165.4298401
3.3167000 -3.1619544 164.7223206
2.3533509 -3.1886163 163.9839935
1.2874088 -3.2420101 163.0701294
41.3226395 -2.0233490 160.2826996
40.2980804 -1.9910465 161.5149231
39.1840057 -1.9798594 162.7651672
2.3603988 -2.1406960 166.0080109
1.3023829 -2.1620452 165.1727295
0.1606158 -2.1926358 164.1549072
-0.9296836 -2.2312286 163.0924988
-1.9322667 -2.2875509 162.0541534
42.2519531 -0.9699845 161.5192566
41.1999359 -0.9539225 162.7831879
40.2143555 -0.9560393 163.7906952
39.0943375 -0.9379646 164.9194946
2.3607597 -1.1121438 167.8081665
1.3102266 -1.1319726 167.0421295
0.1665552 -1.1525638 166.1099854
-0.9219067 -1.1714194 165.1508484
-1.8971838 -1.1974643 164.2258911
-2.9260120 -1.2461822 163.1512451
44.5661163 0.0010806 160.4699097
43.3567924 0.0446292 162.1984558
42.1430283 0.0722075 163.7852325
41.1139793 0.0770030 164.8792877
-1.8876238 -0.1539281 166.1398010
-2.8942788 -0.1765870 165.1760254
44.4385643 1.0650460 162.8265686
43.2554054 1.0810400 164.3510284
42.0475769 1.0988326 165.7557220
41.0232620 1.0987558 166.7261047
-1.8766775 0.8660213 167.8435059
-2.8879619 0.8482841 166.9377899
-3.9810953 0.8256456 165.8571625
-5.1285191 0.7746503 164.6250916
46.4502792 2.0641603 162.1494751
45.4182396 2.0776770 163.5166321
44.3608246 2.0811045 164.8066101
43.1689034 2.0987716 166.2054443
-3.9643533 1.8574947 167.5466614
-5.0996075 1.8315333 166.3903046
-6.1422257 1.7997171 165.2728577
46.3326645 3.0979524 164.2198944
45.3292618 3.1009657 165.4237366
44.2701149 3.1029518 166.5874023
43.0861778 3.1170900 167.8714905
-3.9498601 2.8719652 169.0719910
-5.0827613 2.8552527 167.9930115
-6.1092744 2.8410695 166.9632721
-7.1389155 2.7957435 165.8710480
47.3805161 4.1042557 164.5494995
46.2428093 4.1099386 166.0120239
45.2476311 4.1076436 167.0848236
-6.0947170 3.8574016 168.4766235
-7.1009126 3.8366361 167.4625092
49.6841049 5.0857763 162.8493500
48.5296059 5.1011028 164.5614166
47.2861824 5.1169500 166.2772064
46.1606750 5.1206722 167.6088867
45.1752892 5.1169839 168.5838318
-6.0807085 4.8708334 169.8706207
-7.0777998 4.8588085 168.9060974
-8.1370974 4.8351727 167.8010101
49.5807838 6.1057854 164.6657410
33.3085785 6.1260128 177.7768860
32.1309319 6.1280193 178.3740997
31.1658382 6.1240611 178.6323547
30.2763252 6.1128340 178.7670441
29.2155190 6.1124153 179.1020203
27.9993553 6.1168375 179.5985107
26.9342690 6.0967727 179.9039154
23.9545689 6.0929089 180.3081818
-8.1080894 5.8563066 169.1828918
-9.2314835 5.8250213 167.9726563
50.5388565 7.1123018 164.8762512
49.4942551 7.1059265 166.2690277
33.2736855 7.1103420 178.7145996
32.0856133 7.1185718 179.3140259
29.1519203 7.0994868 179.9817657
27.9680958 7.1108012 180.5060883
23.9300270 7.0795908 181.1665497
-8.0920811 6.8619108 170.4565125
-9.1900291 6.8537073 169.3121490
-10.2829800 6.8335333 168.0385284
51.5323448 8.1119394 164.9376526
50.4417114 8.1164589 166.4536743
49.4084015 8.1066732 167.7274475
35.3712387 8.0864515 178.6474915
34.4068985 8.0784388 178.9959564
33.2356300 8.0985384 179.6042480
27.9451847 8.0764017 181.3620758
26.8684616 8.0769920 181.6311035
26.0037289 8.0675631 181.6505432
25.0572891 8.0519695 181.7207336
23.9088860 8.0653563 181.9906921
-10.2655725 7.8436470 169.3852539
-11.2960339 7.8366256 168.2170410
52.6773720 9.1063824 164.6052551
51.4359131 9.1142521 166.4556122
50.3609467 9.1152964 167.8615417
49.3410034 9.1044168 169.0425415
35.3411331 9.0761251 179.5222473
34.3634491 9.0665731 179.8598633
26.8550987 9.0631876 182.4294739
25.9709129 9.0433874 182.4325256
25.0230999 9.0374508 182.5216827
23.8825417 9.0361128 182.7737579
-10.2611637 8.8434000 170.5650482
-11.2766094 8.8437090 169.4582367
-12.3488588 8.8209743 168.2070618
53.8019638 10.1064262 164.1604919
52.5803833 10.1096630 166.0775452
51.3630829 10.1080265 167.8076172
35.2923279 10.0595417 180.3492432
34.3205757 10.0489788 180.6716919
26.8329906 10.0354509 183.1716309
25.9510307 10.0190716 183.1820831
24.9986401 10.0140018 183.2770233
23.8544197 10.0146322 183.5304260
22.6891441 10.0310974 183.7589417
21.7543335 10.0121031 183.7680969
10.6149988 9.9644403 183.0678558
9.4295826 9.9481678 182.6915894
8.3481045 9.9389839 182.3821564
7.4799833 9.9424515 182.2341919
6.5439539 9.9456739 182.0321503
5.4144588 9.9383087 181.5687408
-12.3156958 9.8392830 169.4085999
-13.4027109 9.8315430 168.0829620
54.8498573 11.1036100 163.7882996
53.7087822 11.1052637 165.6197205
52.4923325 11.1041231 167.4381409
51.2924767 11.1034117 169.0469818
35.2667236 11.0320673 181.1110687
34.2976227 11.0217304 181.4243164
33.1310196 11.0338221 181.9998016
31.9707317 11.0306835 182.5430298
31.0337372 11.0357170 182.7568970
27.8731461 11.0153360 183.6165466
26.8164482 11.0067635 183.8834534
23.8485851 10.9774628 184.2419586
22.6801109 10.9904375 184.4314728
21.7331123 10.9823437 184.4572449
10.6209354 10.9501457 183.7861481
9.4147196 10.9228182 183.3934174
8.3475208 10.9140673 183.0942078
7.4689488 10.9221354 182.9646301
6.5390143 10.9246044 182.7681580
5.4114032 10.9177170 182.3078003
-12.2899923 10.8399563 170.5415649
-13.3750601 10.8394499 169.2826080
54.7415657 12.1085854 165.2736359
53.6238136 12.1000061 166.9670410
33.1115952 12.0003023 182.7086792
31.9391918 12.0056562 183.2457275
30.9946632 11.9978170 183.4645691
30.0882912 11.9820538 183.5753479
29.0438728 11.9766579 183.8478088
27.8577366 11.9864807 184.2855225
26.7904816 11.9668436 184.5747070
22.6682453 11.9616156 185.0802612
21.7142868 11.9518480 185.1132050
10.5943537 11.9158754 184.4353638
5.4170127 11.8942451 183.0168457
-12.2770081 11.8344202 171.5761566
-13.3470602 11.8382769 170.3657074
-14.4720211 11.8239574 168.9536591
54.6616211 13.0976954 166.5865021
53.5583496 13.0860653 168.1610107
33.0891876 12.9713449 183.3876038
31.9174004 12.9797878 183.9127960
30.9662685 12.9718456 184.1210632
30.0653133 12.9478436 184.2295532
29.0098095 12.9498968 184.5208435
27.8363438 12.9581976 184.9331512
22.6601810 12.9385138 185.7089539
21.7017746 12.9203453 185.7340393
10.5812349 12.8892527 185.0676270
5.4090347 12.8698664 183.6789551
-12.2575846 12.8288918 172.5416107
-13.3301086 12.8334932 171.3633728
-14.4458027 12.8296156 170.0084229
55.6567001 14.0996122 166.2095337
54.5871277 14.0848618 167.7791443
53.4758301 14.0727692 169.2859497
28.9750443 13.9190168 185.1548462
27.8132668 13.9266472 185.5478210
26.7625618 13.9050131 185.8371582
22.6515541 13.9051504 186.2929688
21.6924706 13.8950567 186.3304749
10.5586681 13.8593369 185.6712952
6.4927778 13.8462124 184.7159119
5.3949089 13.8451538 184.2996216
-14.4149208 13.8293591 171.0185699
56.7701759 15.0921097 165.5110474
55.5802155 15.0877209 167.3841705
54.5189629 15.0679970 168.8639832
53.4064407 15.0617247 170.3100281
28.9517136 14.8851833 185.7513733
27.7924728 14.8937712 186.1256104
23.7647705 14.8655519 186.6899872
22.6441002 14.8659477 186.8504486
21.6789436 14.8604469 186.9034576
10.5584984 14.8359699 186.2513123
9.3940258 14.8139048 185.9200439
8.3459435 14.8154850 185.6590881
7.4447927 14.8180380 185.5037994
6.4887590 14.8266354 185.2949371
5.3951550 14.8165817 184.8926086
-14.3953667 14.8225222 171.9439697
-15.4691133 14.8094587 170.6743774
57.9399757 16.0968075 164.5271912
28.9235458 15.8566332 186.3195801
27.7863750 15.8513260 186.6492615
26.7368870 15.8460169 186.8759460
25.8226032 15.8425751 186.9510956
24.8507538 15.8293142 187.0408325
23.7508984 15.8364649 187.2314758
-14.3847046 15.8138800 172.8014679
-15.4316330 15.8200111 171.6084595
57.8503723 17.0892582 165.7036438
28.9058914 16.8144550 186.8455505
27.7687168 16.8224869 187.1635284
26.7222500 16.8182793 187.3822021
25.7971382 16.8034668 187.4646606
24.8205299 16.7994328 187.5750885
23.7262039 16.7948685 187.7479401
-14.3690681 16.7980537 173.5939026
-15.4138060 16.8092098 172.4351349
-16.4804420 16.8131256 171.1755066
58.9771614 18.0928154 164.7119751
57.7876816 18.0716763 166.7646332
-16.4574547 17.8058891 171.9808807
-17.5416489 17.8114166 170.6324768
58.9022827 19.0789604 165.8006592
57.7163811 19.0505428 167.7544250
-16.4383278 18.7957935 172.7290192
-17.5219803 18.8042049 171.4075623
58.8246078 20.0603676 166.7983398
57.6556587 20.0308533 168.6468658
24.7483101 19.6849403 188.9881287
23.6823444 19.6812592 189.1324158
22.6007442 19.6847458 189.2576904
21.6175690 19.6778202 189.3117523
16.5629578 19.6587410 189.3427124
15.5795012 19.6642075 189.2882690
14.5272980 19.6622066 189.1939697
13.4450617 19.6603737 189.0724640
12.4580212 19.6579361 188.9580231
11.5059471 19.6586838 188.8370361
-16.4233055 19.7828903 173.4181671
-17.4936771 19.7991829 172.1460266
-18.5917091 19.8099480 170.7505646
59.9148788 21.0612392 165.7709045
58.7696190 21.0359249 167.6644897
57.6010017 21.0080833 169.4566956
24.7368641 20.6461277 189.4046173
23.6698380 20.6433907 189.5470734
22.5916538 20.6424809 189.6647034
21.6085854 20.6350193 189.7172394
16.5455284 20.6219540 189.7482147
15.5650835 20.6221828 189.6929779
14.5102844 20.6199017 189.5983734
13.4318581 20.6199837 189.4792023
12.4469891 20.6154766 189.3615723
11.4890118 20.6197472 189.2412109
-16.4159718 20.7697067 174.0626068
-17.4762688 20.7856922 172.8337097
59.8390923 22.0464592 166.6656342
28.7982178 21.6242123 189.1055450
27.7089043 21.6214981 189.3477783
26.6782150 21.6189194 189.5370483
25.7167530 21.6097927 189.6685791
24.7137470 21.6051140 189.7991791
12.4443884 21.5797749 189.7553406
11.4782600 21.5813541 189.6301270
10.4616566 21.5808449 189.4580841
9.3916197 21.5816193 189.2296753
8.3524275 21.5791950 189.0044861
7.3904281 21.5850372 188.8038177
-16.4030628 21.7529716 174.6673737
-17.4618797 21.7729168 173.4656525
-18.5645447 21.7864075 172.1422119
59.7821503 23.0230942 167.4689636
28.7795982 22.5874863 189.4810791
27.7022896 22.5732040 189.7096863
10.4533777 22.5443916 189.8315735
9.3835335 22.5433502 189.6002655
8.3485270 22.5477905 189.3839874
7.3893633 22.5487213 189.1762543
-16.3889542 22.7375031 175.2266235
-17.4619942 22.7572098 174.0257263
-18.5437012 22.7774773 172.7324982
-19.6671314 22.7894897 171.3112488
59.7204895 24.0020638 168.2140656
32.8516769 23.5699959 188.7879333
31.7721539 23.5618095 189.1164856
30.7755661 23.5556965 189.3747711
29.7960510 23.5461082 189.6019592
28.7586422 23.5447464 189.8426361
8.3450413 23.5049706 189.7402039
7.3870602 23.5108376 189.5233612
6.3810310 23.5119419 189.2649994
5.3421087 23.5174427 188.9737854
-18.5231857 23.7661743 173.2980347
60.8333130 25.0115757 167.0236053
59.6888351 24.9775276 168.8544922
32.8298950 24.5272369 189.1324615
31.7633934 24.5202351 189.4489136
7.3670521 24.4664631 189.8457947
6.3707452 24.4738770 189.5959015
5.3388534 24.4802170 189.3097229
-18.5165672 24.7502098 173.8079376
-19.6091290 24.7712288 172.4730377
60.7757607 25.9929543 167.6765900
59.6390953 25.9537220 169.4766998
36.9256897 25.5229702 188.0135803
35.8897171 25.5090065 188.4115601
34.8909798 25.5023155 188.7676392
33.8670082 25.4919090 189.1095886
32.8130188 25.4869156 189.4414673
31.7526169 25.4753094 189.7525635
5.3364768 25.4421253 189.6270599
4.2766562 25.4444847 189.2959137
3.2809138 25.4516869 188.9820557
-18.5057163 25.7347260 174.2882080
-19.5986176 25.7607327 172.9642029
60.7222977 26.9707451 168.2817383
59.5977554 26.9273796 170.0355072
36.9145355 26.4791813 188.3126068
35.8739357 26.4690323 188.7093201
34.8750877 26.4598961 189.0489044
4.2784338 26.4069805 189.5980530
3.2843816 26.4150467 189.2822876
-18.4934769 26.7197723 174.7368317
-19.5822086 26.7472210 173.4254608
63.1873055 28.0529938 164.3838654
61.9225578 27.9984779 166.7138672
60.6895981 27.9461308 168.8045502
59.5621223 27.9011402 170.5337067
36.8992462 27.4373398 188.5930023
35.8544235 27.4297428 188.9799347
3.2754502 27.3757935 189.5500641
2.2859638 27.3848152 189.2123260
1.2582431 27.3911419 188.8359222
0.2176592 27.3998032 188.4272308
-0.8221580 27.4086647 187.9933472
-18.4877586 27.7031212 175.1361847
-19.5741539 27.7333775 173.8401184
-20.6433239 27.7620583 172.5058899
61.8808746 28.9749756 167.2458344
60.6493301 28.9224014 169.2996216
59.5214691 28.8764229 170.9990845
36.8918571 28.3927937 188.8394165
3.2751446 28.3359051 189.8018646
2.2786932 28.3468094 189.4601440
1.2481651 28.3532906 189.0843201
0.2205319 28.3653412 188.6840515
-0.8192710 28.3750439 188.2541809
-18.4805222 28.6860275 175.4985199
-19.5692329 28.7186184 174.2171783
60.6288109 29.8971424 169.7245789
59.4957809 29.8504429 171.4023132
38.9873657 29.3769512 188.2071991
37.9375267 29.3645172 188.6580200
36.8757401 29.3507652 189.0719757
0.2106801 29.3268147 188.9144592
-0.8212564 29.3372154 188.4873505
-18.4704323 29.6709557 175.8346558
-19.5687790 29.7032566 174.5525360
-20.6169281 29.7386360 173.2509155
63.0300064 30.9909077 165.9876251
61.8120804 30.9296970 168.1529083
60.5890045 30.8733177 170.1346741
59.4728470 30.8235321 171.7596588
38.9702415 30.3348885 188.4258728
0.2140145 30.2933292 189.1316833
-0.8257889 30.3040981 188.6997223
-18.4768486 30.6541672 176.1197662
-19.5629120 30.6885471 174.8663330
-20.6097679 30.7259636 173.5809021
62.9900589 31.9709339 166.4130859
61.7744370 31.9073315 168.5466614
38.9548912 31.2927704 188.6218109
0.2066023 31.2550602 189.3162079
-0.8284199 31.2680969 188.8877716
-20.6023178 31.7132530 173.8656006
-21.7052193 31.7539539 172.4287109
62.9482040 32.9521523 166.7966156
61.7519302 32.8852463 168.8796997
38.9445190 32.2503357 188.7968597
37.9012184 32.2344971 189.2571411
0.2009625 32.2189445 189.4838562
-0.8333502 32.2324409 189.0576782
-20.6026630 32.7006760 174.1085968
62.9288101 33.9318619 167.1042328
61.7248306 33.8632545 169.1808167
40.9834061 33.2395554 188.0013885
39.9574547 33.2237091 188.4908295
38.9204407 33.2095528 188.9621582
0.2044546 33.1828003 189.6472473
-0.8197458 33.1974945 189.2229614
-20.6023216 33.6880760 174.3271027
62.9045868 34.9129066 167.3758087
61.6971474 34.8418541 169.4392853
40.9688835 34.1997948 188.1444550
39.9544830 34.1822968 188.6270142
38.9226112 34.1663971 189.0906372
-0.8264463 34.1616859 189.3578186
-20.6071930 34.6764641 174.5051880
62.8842239 35.8948822 167.5966187
61.6869850 35.8218079 169.6296844
40.9622231 35.1589317 188.2628784
-0.8329940 35.1270790 189.4673462
-1.8341298 35.1437569 189.0173950
-2.8561919 35.1609077 188.5459290
-20.5915871 35.6647949 174.6735229
-21.6924343 35.7151871 173.2639313
64.1054077 36.9602852 165.5082092
62.8630333 36.8777008 167.7825775
61.6813736 36.8030663 169.7820129
40.9530258 36.1184311 188.3583832
-2.8635569 36.1283302 188.6354675
-20.6005516 36.6547279 174.7797699
-21.6998806 36.7076035 173.3703461
64.0918274 37.9482727 165.6389160
40.9462280 37.0791740 188.4315948
39.9288826 37.0609398 188.9163361
38.8949585 37.0431290 189.3878174
-2.8621926 37.0963669 188.7070618
-20.6022987 37.6451988 174.8628082
-21.6922932 37.6996841 173.4771118
64.0781479 38.9369316 165.7372589
40.9461098 38.0399666 188.4871063
-0.8339964 38.0262985 189.6741486
-1.8427770 38.0450859 189.2276306
-2.8722436 38.0650253 188.7535248
-20.6039505 38.6367722 174.9137878
-21.7010002 38.6935577 173.5276031
64.0720520 39.9274979 165.7769470
40.9394226 39.0015602 188.5223389
-1.8423147 39.0131836 189.2634125
-2.8726189 39.0341148 188.7861328
64.0802155 40.9215126 165.7409973
40.9459877 39.9644775 188.5259247
39.9203796 39.9447327 189.0190125
-1.8460362 39.9821014 189.2733917
-2.8770099 40.0041199 188.7937317
64.0772705 41.9158936 165.6976624
62.8267288 41.8138885 167.9807434
61.6411285 41.7270241 169.9721985
40.9343719 40.9272957 188.5215759
39.9106102 40.9071465 189.0144653
-1.8534513 40.9524879 189.2559967
-2.8784881 40.9749603 188.7816010
-3.9010944 40.9984131 188.2891235
-4.9343977 41.0230103 187.7649231
-20.6114311 41.6183243 174.8913116
-21.7113438 41.6832123 173.4942932
62.8392487 42.8077316 167.8920441
61.6509323 42.7181778 169.8680267
40.9341049 41.8918228 188.4904175
39.9098396 41.8709793 188.9806976
38.8792610 41.8510628 189.4624329
-3.8971195 41.9708557 188.2617493
-4.9380069 41.9965439 187.7274780
-20.6165543 42.6153793 174.8137207
-21.7164936 42.6828728 173.4068604
62.8467216 43.8024292 167.7566986
61.6574821 43.7103233 169.7398071
38.8732910 42.8143883 189.4007416
-3.9059644 42.9450912 188.2035217
-4.9442415 42.9718933 187.6688232
-20.6169548 43.6136093 174.7123718
-21.7191124 43.6840630 173.2909698
62.8582077 44.8029175 167.5382385
61.6627808 44.7047729 169.5789795
38.8655777 43.7798805 189.3268433
37.8362503 43.7623138 189.7743530
-0.8519031 43.8450317 189.5422668
-1.8591385 43.8668289 189.1074677
-2.8948433 43.8942719 188.6242523
-3.9071589 43.9200592 188.1262817
-4.9429345 43.9478073 187.5956116
-20.6387825 44.6156998 174.5634155
62.8737564 45.8040962 167.2876740
61.6756935 45.7012825 169.3638763
38.8689957 44.7480431 189.2358093
37.8283234 44.7267456 189.6903381
-0.8607088 44.8181839 189.4432220
-20.6521454 45.6180496 174.3863831
62.8882751 46.8084946 167.0270386
61.6871719 46.7016373 169.1015015
38.8743668 45.7159309 189.1292267
0.1675406 45.7688408 189.7592010
-0.8670362 45.7937737 189.3293762
-20.6474018 46.6221848 174.1860657
61.7086678 47.7065430 168.7807465
60.5172653 47.6051788 170.7099304
59.3888702 47.5224609 172.3711853
38.8723183 46.6843719 189.0012360
37.8367462 46.6637192 189.4450073
0.1657864 46.7438927 189.6271515
-0.8606080 46.7682114 189.2061615
-20.6615963 47.6294098 173.9345093
-21.7726746 47.7148972 172.4836731
62.9750366 48.8372917 166.2712555
61.7400894 48.7150879 168.4363708
60.5453148 48.6095314 170.3779297
59.3998222 48.5202026 172.0811005
38.8705368 47.6530228 188.8504791
37.8363838 47.6341934 189.2883759
1.1743666 47.6966438 189.8682709
0.1609659 47.7206039 189.4783783
-0.8668653 47.7458267 189.0550842
-20.6726608 48.6404724 173.6615906
60.5600052 49.6146164 170.0317078
59.4203339 49.5227966 171.7372742
38.8805618 48.6269646 188.6711121
37.8414078 48.6053162 189.1183472
36.8031883 48.5842133 189.5410156
1.1711515 48.6742935 189.6934509
-18.5350151 49.4978638 175.9879456
-19.6165581 49.5748215 174.6979675
-20.6955452 49.6572037 173.3376465
61.8214951 50.7401657 167.6100159
60.5925598 50.6259499 169.6055908
59.4394760 50.5272713 171.3560791
38.8935699 49.6015892 188.4718781
37.8438034 49.5791092 188.9319000
36.8001289 49.5548668 189.3559875
35.7709732 49.5381241 189.7504272
2.1780322 49.6317711 189.8665161
1.1690719 49.6533012 189.5021667
-18.5501137 50.5080109 175.6618500
-19.6300545 50.5871658 174.3614349
60.6278915 51.6412277 169.1548615
59.4719963 51.5391312 170.9113617
36.8150978 50.5331497 189.1373749
35.7782249 50.5120659 189.5286255
2.1826634 50.6094589 189.6661224
1.1606644 50.6355247 189.2860413
-18.5658455 51.5216370 175.2972565
-19.6515121 51.6046829 173.9711914
60.6676979 52.6629562 168.5993347
59.4940224 52.5505524 170.4401855
36.8191261 51.5088654 188.8985596
35.7852020 51.4898376 189.2861481
34.7594757 51.4721947 189.6589355
3.2034607 51.5641937 189.8004608
2.1749513 51.5912552 189.4338074
1.1575732 51.6173859 189.0487518
-18.5745945 52.5369110 174.9042511
-19.6645260 52.6252747 173.5597076
60.6934547 53.6827812 167.9995117
59.5235977 53.5673828 169.9034424
34.7689171 52.4485626 189.4068604
33.7215652 52.4311981 189.7720337
3.1993747 52.5472488 189.5402679
-18.5950470 53.5582275 174.4627380
60.7400246 54.7190361 167.3377075
59.5647011 54.5942497 169.2879028
34.7800293 53.4242935 189.1344147
33.7288780 53.4099045 189.4903259
32.7137909 53.3933105 189.8147736
4.2020483 53.5109406 189.5889893
3.1929984 53.5361214 189.2528381
-18.6077995 54.5817261 173.9894409
60.8117447 55.7632027 166.5989685
59.6010475 55.6214523 168.6346588
32.7159729 54.3727112 189.5105286
31.6829453 54.3622704 189.8137817
5.2299948 54.4708481 189.6144409
4.2021842 54.4973869 189.2882843
3.1925499 54.5248032 188.9496613
-16.4945526 55.4406281 175.9873657
-17.5629921 55.5236893 174.7631989
-18.6242599 55.6119118 173.4714508
59.6563187 56.6605606 167.8866577
32.7197189 55.3586998 189.1915894
31.6894760 55.3406487 189.4967957
30.6685009 55.3276939 189.7849121
7.2561855 55.4167595 189.8589783
6.2311139 55.4351196 189.5874939
5.2243433 55.4604378 189.2943115
4.1985459 55.4863548 188.9686432
3.1901956 55.5114326 188.6315155
-16.5055428 56.4625702 175.4739075
-17.5850029 56.5513153 174.2099304
59.7153511 57.7069016 167.0773926
58.5081749 57.5696335 169.0942993
57.3665314 57.4632187 170.8354950
30.6759682 56.3103981 189.4434204
29.6445541 56.2998848 189.7047882
8.2730207 56.3817482 189.7695923
7.2610393 56.4049606 189.5177002
-16.5279770 57.4947205 174.8977966
-17.6002293 57.5868912 173.6179199
58.5703430 58.6146393 168.2684631
57.4035416 58.4940796 170.1053772
30.6894360 57.2989540 189.0852661
29.6563072 57.2866096 189.3420715
28.6252613 57.2721138 189.5791016
27.6045494 57.2670250 189.7938690
10.2956181 57.3381500 189.8347168
9.2846298 57.3551941 189.6293945
8.2652626 57.3753929 189.4011993
7.2596688 57.3950729 189.1546783
-16.5414753 58.5278358 174.2850647
-17.6180210 58.6253395 172.9760284
58.6417084 59.6765518 167.3933411
57.4540749 59.5366325 169.2875366
28.6287575 58.2614174 189.1966858
27.6132584 58.2562027 189.4067535
26.5873604 58.2446747 189.5974274
25.5656357 58.2409554 189.7597046
12.3370390 58.2969131 189.7924805
11.3218441 58.3102608 189.6336975
10.3025799 58.3284111 189.4485779
9.2853851 58.3494644 189.2413940
-14.4392948 59.3917351 176.0209351
-15.4996271 59.4794388 174.8618774
-16.5610085 59.5689392 173.6192627
-17.6445923 59.6723480 172.2783203
57.5106506 60.5893440 168.3803558
28.6437855 59.2582359 188.7924347
27.6219540 59.2451553 189.0055084
26.5994129 59.2385788 189.1880035
25.5769196 59.2338562 189.3501892
24.5435219 59.2239456 189.4997559
23.5341778 59.2218246 189.6136932
22.5123520 59.2175827 189.7052917
21.4941673 59.2218208 189.7775726
20.4758568 59.2235031 189.8313751
19.4546700 59.2259598 189.8597870
18.4408092 59.2281799 189.8621216
17.4172745 59.2379951 189.8364563
16.4051170 59.2421722 189.7903748
15.3760414 59.2544365 189.7214050
14.3697271 59.2619820 189.6363983
13.3425131 59.2777634 189.5205383
12.3370600 59.2893257 189.3876038
11.3148613 59.3065758 189.2277222
10.2970133 59.3286057 189.0407104
9.2845469 59.3462715 188.8343048
-14.4534025 60.4271889 175.3796234
-15.5069704 60.5161438 174.2004547
-16.5855179 60.6158638 172.9061584
57.5672607 61.6503296 167.4071655
56.4058113 61.5172195 169.2609711
55.2601547 61.4018288 170.9263458
-14.4776859 61.4705429 174.6766205
-15.5376463 61.5641441 173.4629517
56.4701004 62.5833054 168.2830048
55.3101044 62.4558601 170.0138702
-14.4936190 62.5191002 173.9232178
55.3664093 63.5157433 169.0229034
-12.3996544 63.3893394 175.4190674
-13.4476261 63.4792709 174.3114929
-14.5084953 63.5733871 173.1085205
55.4412918 64.5926208 167.9134979
-12.4147091 64.4402313 174.6186981
-13.4573259 64.5306168 173.4840698
-14.5404739 64.6427155 172.2055206
55.5438538 65.6969910 166.6730957
54.3643684 65.5425568 168.4889069
53.2030983 65.4143219 170.1755676
-12.4386816 65.5021896 173.7448273
-13.4837217 65.5988922 172.5625000
54.4466629 66.6301270 167.2621002
53.2637863 66.4855499 169.0468750
-12.4545660 66.5700455 172.8065643
53.3385124 67.5788956 167.7776184
52.2129898 67.4570694 169.4079285
51.0651588 67.3385010 170.9158936
-8.2541904 67.2705383 176.0999451
-9.2941408 67.3523941 175.1536255
-10.3566980 67.4467239 174.1083984
-11.4023008 67.5403976 173.0055847
-12.4815416 67.6505737 171.7779694
53.4550896 68.7118912 166.3909302
52.3020477 68.5669403 168.1485138
51.1301384 68.4228363 169.7343750
-8.2718620 68.3347778 175.1768646
-9.3066158 68.4210663 174.2013397
-10.3780184 68.5242310 173.1075745
-11.4253054 68.6229324 171.9611206
51.2080421 69.5240021 168.4207916
50.0741692 69.3976288 169.9319458
48.9648361 69.2943497 171.2883606
-8.2918739 69.4143295 174.1780396
51.3034668 70.6475372 166.9513702
50.1465683 70.5082397 168.5678864
49.0412712 70.3908157 170.0084229
-8.3055010 70.4963760 173.1136932
50.2470779 71.6273651 167.0773315
49.1146126 71.4960938 168.6222534
-4.1140208 71.2306976 175.7162476
-5.1726956 71.3145676 174.8732452
-6.2113686 71.3921738 173.9902191
-7.2713189 71.4876175 173.0023956
-8.3313379 71.5948029 171.9378662
49.1871834 72.6226654 167.1004791
-4.1246500 72.3104782 174.6464081
-5.1955686 72.4087219 173.7425079
-6.2254376 72.4951935 172.8207092
-7.2938919 72.5982208 171.7782440
49.3142776 73.8016205 165.3587952
48.1398010 73.6238480 167.0375824
47.0108032 73.4979019 168.4980164
45.8994331 73.3912964 169.8099976
44.8017921 73.2946167 170.9968414
-4.1534419 73.4132996 173.4576416
-5.2021751 73.5038605 172.5376740
47.0997391 74.6517944 166.8390808
45.9735184 74.5149384 168.2689819
44.8759003 74.4157410 169.5375977
-4.1646657 74.5211105 172.1894836
46.0623856 75.6688919 166.5220184
44.9530106 75.5434418 167.9237671
43.8295250 75.4356842 169.2091217
42.7526512 75.3545151 170.3000793
-2.0890770 75.4596939 172.6193695
-3.1441662 75.5544128 171.7259064
-4.1791787 75.6497421 170.7901611
46.1912460 76.8863525 164.5106354
45.0434456 76.7138977 166.0707245
43.9074554 76.5863724 167.4817963
42.8080864 76.4863052 168.7063446
-2.0971341 76.5852661 171.2102509
-3.1615434 76.6856689 170.2504272
-4.1935101 76.7857056 169.2534790
43.9998627 77.7678986 165.5406189
42.8948402 77.6475220 166.8743439
41.7875519 77.5358505 168.1354980
40.7057114 77.4428177 169.2362976
2.0569305 77.3899078 172.8758850
1.0171839 77.4648132 172.1771851
-0.0137172 77.5414047 171.4268646
-1.0704664 77.6398621 170.5666199
-2.1125376 77.7301712 169.6559906
-3.1727347 77.8402328 168.6300354
44.1410446 79.0257263 163.2588196
42.9998207 78.8496246 164.7958832
41.8568535 78.6988373 166.2299500
40.7887154 78.6032486 167.4091797
2.0516376 78.5289841 171.3902588
1.0051522 78.6105652 170.6454926
41.9795151 79.9557495 163.9367523
40.8927841 79.8101578 165.2988892
39.7549362 79.6824799 166.5534821
38.6622353 79.5942535 167.6242981
37.5802116 79.5054626 168.5989990
36.4987717 79.4276581 169.4810028
35.4396400 79.3608704 170.2619934
34.3522339 79.2997284 170.9820404
4.1346149 79.5247574 171.1698914
3.1014302 79.6013870 170.5002747
2.0593402 79.6839905 169.7596130
1.0054727 79.7755737 168.9374542
39.8639145 80.9088745 164.2611237
38.7444725 80.7799988 165.5008698
37.6477966 80.6800537 166.5928497
36.5808105 80.6062088 167.5678711
35.5095825 80.5322342 168.4478302
34.4188309 80.4635162 169.2435913
4.1320190 80.6947556 169.4538879
3.0998709 80.7694855 168.7407074
2.0497000 80.8611603 167.9142151
0.9996974 80.9612122 166.9980164
35.5836563 81.7226944 166.3895874
34.4778633 81.6434174 167.2880707
8.3075275 81.5970154 170.0222168
7.2741795 81.6548386 169.5106201
6.2173982 81.7285538 168.9123840
5.1848063 81.8040848 168.2624207
4.1397028 81.8856812 167.5292053
3.1090727 81.9704666 166.7322083
35.6858635 82.9772263 163.9512939
34.5709991 82.8702850 164.9640808
8.3146372 82.7926788 168.0962219
7.2857647 82.8539200 167.5422974
6.2212925 82.9367752 166.8752594
5.1883669 83.0168991 166.1432037
4.1407413 83.1143112 165.3066559
3.0992303 83.2372818 164.3862457
34.6928940 84.2013779 162.1875305
33.6011505 84.0851898 163.2160492
32.5067749 83.9755173 164.1588593
31.4400139 83.8902435 164.9973755
30.3578472 83.8245773 165.7219696
29.2833633 83.7810135 166.3097839
28.2158623 83.7482452 166.8161926
12.5072775 83.7764282 167.8072510
11.4527550 83.8343582 167.4058990
10.4172020 83.8804932 166.9824829
9.3746958 83.9453888 166.4658966
8.3285055 84.0088806 165.8828735
6.2382841 84.1855621 164.4876709
31.5505867 85.2200928 162.1046600
30.4476147 85.1136093 162.9548645
29.3664894 85.0541687 163.6752930
28.2984142 85.0066376 164.3251038
12.5295639 85.0225677 165.4629974
11.4885902 85.0732803 165.0312195
10.4363871 85.1398392 164.5149689
9.3990698 85.2100220 163.9170990
28.4027977 86.3743134 161.2307129
27.3258209 86.2756348 161.8951874
26.2584362 86.2211914 162.4680023
25.1771336 86.1824646 162.9415588
24.1167431 86.1505508 163.3125000
23.0529442 86.1189575 163.6199036
22.0131989 86.0983047 163.8665314
20.9588623 86.0993347 164.0104828
19.8887062 86.1002960 164.0761719
18.8505630 86.1167603 164.0649567
17.8076439 86.1331635 164.0222321
16.7615509 86.1567230 163.9092255
15.7035313 86.1841583 163.7087402
14.6629353 86.2264557 163.4305115
13.6086922 86.2784729 163.0724030
12.5677357 86.3457947 162.6354828
23.1527233 87.5041962 160.1991577
22.0997086 87.4704590 160.4919281
19.9654408 87.4326324 160.7702179
18.9119968 87.4555969 160.7958069
-30.5449867 111.3630676 -52.6252975
-29.1937523 112.4785614 -50.8134613
-30.5188198 112.5814362 -51.6324501
-31.8967667 112.6858673 -52.5626068
35.0328979 115.1603622 -68.4145432
33.5999870 114.8905945 -65.8447876
32.2075577 114.6523895 -63.6331253
30.7963676 114.4470215 -61.6489792
-27.7974014 113.5898361 -49.0866013
-29.1608849 113.6891937 -49.8701324
-30.4702797 113.8063507 -50.6670380
-31.8619537 113.9118958 -51.6135750
-33.2309113 114.0351639 -52.5945053
-34.6214142 114.1680298 -53.6759872
-35.9897003 114.3102951 -54.8270226
34.9816513 116.3129578 -66.8106537
30.7727737 115.6283264 -60.4150925
29.4187660 115.4438019 -58.7496300
-26.4311962 114.7218933 -47.5276909
-27.7740974 114.8110275 -48.2348099
-29.1454525 114.9081573 -49.0118408
-35.9512978 115.5332489 -53.8702316
-37.2975769 115.6850510 -55.0672073
-38.7091599 115.8536911 -56.4319267
-40.0947342 116.0403824 -57.8997459
-41.5356674 116.2352066 -59.5700111
34.9501953 117.4826889 -65.4130096
30.7397594 116.8183289 -59.2912598
29.3885956 116.6423340 -57.6981773
-25.0551090 115.8531570 -46.1198654
-26.4136257 115.9393997 -46.7603569
-27.7544041 116.0349808 -47.4457474
-29.1133213 116.1356659 -48.1988907
-35.9134712 116.7507172 -52.9476814
-37.2604980 116.9033051 -54.1156006
-38.6906204 117.0677719 -55.4710960
-40.0684204 117.2524948 -56.8920746
-41.4739418 117.4521179 -58.4773903
-42.8862724 117.6530609 -60.1873932
36.3067055 118.9427567 -66.6133499
34.8989944 118.6645279 -64.1162109
-25.0485477 117.0819778 -45.4078445
-26.3907986 117.1735611 -46.0217743
-41.4468193 118.6672745 -57.4956093
36.2501678 120.1234283 -65.3054199
34.8627853 119.8522873 -62.9460564
27.9573879 118.9080048 -54.3963051
-25.0283566 118.3126373 -44.7315025
-26.3805885 118.4034348 -45.3382034
-41.4129753 119.8905792 -56.5817528
-42.8075104 120.0929794 -58.1923943
37.6647606 121.6172256 -66.8569260
36.2245483 121.3161774 -64.1719513
34.8166199 121.0538406 -61.8770790
27.9301720 120.1312103 -53.6118011
-21.0442696 119.3280792 -42.5836487
-22.3806343 119.3946686 -43.0474396
-23.6908150 119.4717865 -43.5505753
-25.0056019 119.5503845 -44.0970078
-26.3677940 119.6365814 -44.7076988
-41.3838730 121.1189346 -55.7468414
-42.7560425 121.3252869 -57.3103714
-44.1842499 121.5504761 -59.0848083
-45.6629906 121.7881699 -61.0612030
37.6257896 122.8134460 -65.7220764
36.1862946 122.5187454 -63.1405602
34.8038635 122.2649765 -60.9690933
27.8872814 121.3612061 -52.8521614
26.5714130 121.2171478 -51.6257401
-18.3598976 120.4381561 -41.2266083
-19.6981049 120.5016632 -41.6052017
-21.0300026 120.5632782 -42.0172920
-22.3670292 120.6353912 -42.4743233
-23.6884880 120.7066956 -42.9817619
-25.0003395 120.7906876 -43.5220451
-26.3569145 120.8776703 -44.1266022
-41.3510170 122.3531647 -54.9693298
-42.7238464 122.5563507 -56.5067863
-44.1624603 122.7848053 -58.2775116
37.5802841 124.0170898 -64.6693115
27.8803520 122.5903473 -52.1924744
26.5335407 122.4550400 -50.9758072
25.1774712 122.3306656 -49.8446312
23.8355713 122.2189636 -48.8116341
22.5157909 122.1100922 -47.8658104
-18.3533592 121.6801300 -40.6975174
-41.3260307 123.5951462 -54.2722702
-42.7002258 123.7987976 -55.7852631
-44.1323090 124.0208817 -57.4949684
37.5497437 125.2307892 -63.7425957
27.8689270 123.8227921 -51.5795364
26.5296974 123.6896515 -50.3889961
25.1573105 123.5646210 -49.2545319
23.8116837 123.4538422 -48.2257423
22.4824867 123.3515930 -47.2855377
-17.0523186 122.8695068 -39.9014168
-18.3602638 122.9236832 -40.2244415
-41.3124542 124.8435211 -53.6473923
-42.6833191 125.0467834 -55.1369553
37.5254135 126.4563904 -62.9459572
22.4723511 124.5914383 -46.7751999
21.1298370 124.4976959 -45.8946877
19.8046799 124.4093933 -45.0946426
18.4568901 124.3282928 -44.3282776
-15.7192650 124.0644913 -39.1727257
-17.0515232 124.1161118 -39.4588776
-18.3641453 124.1708221 -39.7848740
-41.2722130 126.0966644 -53.0472450
-42.6652374 126.2993774 -54.5442810
37.4888535 127.6883926 -62.1948090
22.4577751 125.8356400 -46.2986832
21.1201630 125.7434158 -45.4318237
19.8007088 125.6560364 -44.6419525
18.4458084 125.5754700 -43.8743401
17.1523342 125.4965515 -43.1784668
-15.7113533 125.3130798 -38.7619400
-17.0434189 125.3642349 -39.0481911
-18.3478546 125.4217911 -39.3665314
-41.2609024 127.3565598 -52.5388031
-42.6381683 127.5585327 -53.9980011
-44.0618744 127.7813263 -55.6276665
-45.4816437 128.0163269 -57.3659706
37.4692116 128.9287415 -61.5439606
17.1216793 126.7489700 -42.7622528
-14.4001360 126.5197449 -38.1466980
-15.6970901 126.5669174 -38.3860855
-44.0381088 129.0460968 -55.1190414
38.8824272 130.4801331 -63.4330330
37.4449005 130.1798096 -60.9844818
17.1158009 128.0012207 -42.4016266
15.7882347 127.9325790 -41.7578163
-13.0768738 127.7338409 -37.6121902
-14.4074450 127.7747726 -37.8187943
-15.7044716 127.8208466 -38.0491905
-44.0228653 130.3163452 -54.6762505
38.8795700 131.7397919 -62.9430656
37.4232216 131.4400482 -60.5080681
17.1020393 129.2581940 -42.0694733
15.7804117 129.1889648 -41.4337730
14.5070829 129.1283264 -40.8140030
-14.3884239 129.0364075 -37.5067368
-15.7023640 129.0802307 -37.7418900
-44.0314636 131.5961609 -54.3222198
-45.4312935 131.8375244 -56.0294685
-46.8554955 132.1090240 -57.9544144
38.8785515 133.0120850 -62.5391235
37.4056244 132.7072449 -60.0962868
17.0947037 130.5179443 -41.7754440
15.7672691 130.4484253 -41.1374512
14.4584608 130.3863220 -40.5499115
13.1319342 130.3309631 -40.0108185
-14.4041195 130.2929840 -37.2326584
-15.7037621 130.3438568 -37.4799690
-44.0031013 132.8793182 -53.9806366
-45.4133682 133.1239624 -55.6938095
-46.8578606 133.3982849 -57.6287041
38.8260231 134.2837372 -62.1301346
37.4107780 133.9859009 -59.7839355
11.8150730 131.5445557 -39.2747002
10.4963522 131.4967346 -38.7980423
-14.4148226 131.5612183 -37.0091553
-15.7084684 131.6114349 -37.2551613
38.8111534 135.5705872 -61.8535309
37.3874283 135.2649536 -59.4696045
11.8025398 132.8128052 -39.0709267
10.4964161 132.7666626 -38.6105576
9.1781979 132.7265930 -38.1943588
-14.3983707 132.8323059 -36.8094177
-15.6975269 132.8818512 -37.0566597
38.8163757 136.8663635 -61.6485443
37.3679352 136.5513611 -59.2227173
9.1686678 133.9991150 -38.0341759
3.9251204 133.8875427 -36.7391968
-1.3053181 133.8582764 -36.0433807
-2.6236112 133.8636475 -35.9585342
-13.0769777 134.0570984 -36.4091110
-14.4132910 134.1069031 -36.6470566
-15.7175198 134.1572876 -36.8955917
40.1946068 138.5124969 -64.1123886
38.7962723 138.1650391 -61.4684868
37.3735847 137.8539581 -59.0938950
9.1660099 135.2765350 -37.9080505
3.9183221 135.1596985 -36.5868874
2.6314354 135.1473999 -36.3717499
1.2987834 135.1367493 -36.1807175
-0.0039439 135.1336365 -36.0276375
-14.4018898 135.3829956 -36.5040550
-15.7179756 135.4339294 -36.7473068
-46.8509827 138.6224670 -56.8544273
40.1950684 139.8351440 -64.0788269
14.4312210 136.7487183 -39.6696968
13.1031923 136.6892548 -39.1223526
11.7944870 136.6388550 -38.6295967
10.4824772 136.5936737 -38.1920395
9.1569147 136.5527496 -37.7836990
7.8531756 136.5288696 -37.4104729
6.5217042 136.4989471 -37.0484314
5.2420869 136.4560394 -36.7306290
3.9122169 136.4369507 -36.4680214
2.6222749 136.4239197 -36.2511635
1.3081146 136.4159851 -36.0736237
-0.0147828 136.4099884 -35.9116821
-14.4208803 136.6651001 -36.3876419
-15.7155542 136.7138519 -36.6293411
-46.8318710 139.9494324 -56.8361816
-48.3062210 140.2723846 -58.9831200
40.1888046 141.1631470 -64.0946884
14.4313316 138.0347290 -39.5911407
13.0994778 137.9731445 -39.0440636
7.8673992 137.8000183 -37.3134155
6.5326586 137.7656860 -36.9605713
5.2392893 137.7405243 -36.6677437
3.9059796 137.7180176 -36.3984375
2.6057334 137.7048035 -36.1766968
1.2924594 137.6982880 -35.9946175
-0.0124053 137.6894531 -35.8241234
-1.3095922 137.6900787 -35.6925659
-2.6370339 137.6923065 -35.6074524
-3.9273999 137.7037811 -35.5696182
-5.2520924 137.7190247 -35.5596428
-6.5500236 137.7369843 -35.5548019
-7.8609877 137.7572937 -35.5674362
-9.1715631 137.7874451 -35.6429367
-10.4854307 137.8367310 -35.7496147
-13.0850410 137.9004059 -36.0966873
-14.4139223 137.9486237 -36.3085098
-15.7211761 138.0017242 -36.5666389
-46.8356705 141.2854614 -56.8634186
40.1901436 142.5055847 -64.2111588
14.4160814 139.3218536 -39.5402145
13.0892239 139.2626190 -39.0022011
11.7778912 139.2100525 -38.5060005
9.1506872 139.1194305 -37.6260643
7.8295259 139.0762482 -37.2485733
-46.8675690 142.6345825 -56.9749908
40.1884079 143.8610229 -64.4191055
14.4214115 140.6164856 -39.5390892
13.0955887 140.5582581 -39.0059166
11.7779903 140.5045624 -38.5052910
10.4628801 140.4531555 -38.0365257
9.1388950 140.4074097 -37.6106186
7.8436666 140.3801575 -37.2556267
-46.8904076 143.9949188 -57.1600800
40.1957474 145.2356415 -64.7458115
38.7696800 144.8300018 -61.8347702
37.3604507 144.4875336 -59.3394852
-44.0607758 144.7701569 -53.6190300
-45.4424019 145.0420990 -55.3796844
-46.9174576 145.3645935 -57.4036369
38.7916451 146.2055359 -62.1894150
37.3611717 145.8486176 -59.6192093
-44.0513153 146.1254883 -53.8311768
-45.4672585 146.4141693 -55.6522369
38.8168030 147.5924988 -62.5891075
37.3639679 147.2208557 -59.9776459
-44.0758591 147.4996338 -54.1537285
-45.4806061 147.7939758 -56.0216217
38.8384285 148.9964142 -63.0862236
37.3830223 148.6096954 -60.4409561
-44.0795021 148.8788757 -54.5356026
37.3952446 150.0105591 -60.9620972
-41.3253937 149.7363281 -51.6484833
-42.7000999 149.9902954 -53.2112312
-44.1194077 150.2814484 -55.0153809
37.4259872 151.4332275 -61.5885887
-41.3399773 151.1235352 -52.0859566
-42.7329254 151.3924255 -53.7123566
-44.1483803 151.6913605 -55.5339127
37.4634209 152.8844452 -62.3586769
35.9974899 152.4892883 -59.7673035
34.6105347 152.1696320 -57.5400543
-41.3823853 152.5313110 -52.6281357
-42.7629623 152.8071442 -54.2856026
37.5021896 154.3460693 -63.2384109
36.0193253 153.9279938 -60.5327454
34.6262512 153.5919342 -58.2165184
-41.4148636 153.9513397 -53.2336960
-42.7904930 154.2308655 -54.9284973
36.0515671 155.3868713 -61.3914757
34.6202583 155.0171661 -58.9417725
-41.4504852 155.3870392 -53.9223976
-42.8555450 155.6910706 -55.7007523
34.6636429 156.4912872 -59.8769684
-41.4796028 156.8289337 -54.6837540
34.6936226 157.9747314 -60.9018250
-38.7045403 157.7142639 -52.2032089
-40.0923233 157.9868469 -53.7733841
-41.5295525 158.3048096 -55.5719299
34.7245026 159.4889526 -62.0771408
-38.7756577 159.1932068 -53.0970154
-40.1340599 159.4605408 -54.6905518
34.7506561 161.0374756 -63.4741669
33.3290062 160.6125183 -60.7835732
31.9575310 160.2805176 -58.5604782
-38.7891655 160.6605530 -54.0084572
-40.1871758 160.9592133 -55.7225647
33.4105110 162.1966400 -62.2010803
31.9712543 161.7903442 -59.7705193
-38.8399963 162.1586609 -55.0778351
-40.2424736 162.4809570 -56.9013367
32.0213127 163.3497009 -61.1617584
30.5830154 162.9741058 -58.8435478
29.2277794 162.6866150 -56.9016762
-36.1043625 163.0994110 -53.0011673
-37.4773407 163.3735657 -54.5292397
-38.8805847 163.6798401 -56.3013458
30.6150589 164.5361786 -60.2671661
29.2439747 164.2174683 -58.1892395
-36.1473274 164.6139221 -54.1460800
-37.5204201 164.9021301 -55.7822266
30.7058067 166.1725464 -61.9487152
29.2750874 165.7814331 -59.6539612
27.8759918 165.4578857 -57.6279640
26.5311909 165.1997833 -55.8924599
6.4551945 163.3046417 -42.7226334
5.1508379 163.2727661 -42.3674545
3.8198144 163.2439880 -42.0497780
2.5249090 163.2103577 -41.7792282
1.1871004 163.1946411 -41.5534439
-0.1282425 163.1861420 -41.3847923
-33.4256821 165.6133423 -52.4772186
-34.8061829 165.8716431 -53.8806267
-36.2159843 166.1686859 -55.4812050
-37.5976143 166.4826660 -57.2175102
29.3511372 167.4193726 -61.3672409
27.9078617 167.0367889 -59.1690521
26.5643272 166.7520905 -57.2868080
6.4477000 164.7437439 -43.5107193
5.1489358 164.6988525 -43.1461258
-0.1303435 164.6177216 -42.1429672
-33.4555435 167.1395111 -53.7123375
-34.8773346 167.4409332 -55.2772369
27.9527378 168.6640320 -60.9668999
26.5910912 168.3337250 -58.8809357
25.2041435 168.0414886 -57.0334625
23.8402061 167.8146667 -55.4694481
6.4569392 166.1944580 -44.3819466
5.1431775 166.1379089 -43.9963837
3.8206410 166.1219177 -43.6605759
1.1756599 166.0774689 -43.1613235
-0.1474205 166.0667419 -42.9815674
-30.7675667 168.2071381 -52.4393158
-32.1479111 168.4515228 -53.7341385
-33.5153885 168.7139893 -55.1585350
-34.9263000 169.0242004 -56.8104782
28.0321541 170.3834991 -63.0571671
26.6260109 169.9675598 -60.7325096
25.2325554 169.6484680 -58.7205048
23.8410206 169.3625031 -56.9596138
6.4514036 167.6756592 -45.3517876
5.1513319 167.6231079 -44.9651794
3.8149755 167.5755615 -44.6125031
2.5119913 167.5465393 -44.3204994
1.1713238 167.5340118 -44.0789871
-0.1509850 167.5196533 -43.8873329
-30.8213291 169.7770844 -53.8580055
-32.2170753 170.0415802 -55.2677460
-33.5881424 170.3242188 -56.8372612
25.2928314 171.3309326 -60.6304779
23.8915939 171.0026550 -58.7501297
22.5246887 170.7326355 -57.0732346
21.1596947 170.4944305 -55.5505981
-28.1224308 170.8795166 -52.8949776
-29.5216904 171.1200714 -54.1274376
-30.8741951 171.3728790 -55.4516029
-32.2533264 171.6517639 -56.9676590
23.9274940 172.6862946 -60.7532120
22.5371189 172.3617859 -58.9140053
21.1883507 172.1138611 -57.2786255
-28.1704063 172.4862061 -54.5044174
-29.5718746 172.7498016 -55.8522339
-30.9403629 173.0274048 -57.3135681
22.5913429 174.1007080 -61.1670799
21.2087440 173.7676849 -59.2747498
19.8738594 173.5274506 -57.7093582
18.4991875 173.3139191 -56.3074112
-22.8015938 173.2834930 -52.0341415
-24.1531677 173.4639130 -52.9375877
-25.5009232 173.6630402 -53.9368629
-26.8857574 173.8922424 -55.0893669
-28.2441902 174.1391602 -56.3618774
-29.6415672 174.4308167 -57.8425751
21.2501259 175.5267639 -61.6867943
19.8995800 175.2311859 -59.9191170
18.5042496 174.9669342 -58.2892609
-22.8498192 174.9089050 -53.7257004
-24.2068748 175.1047516 -54.7044792
-25.5548687 175.3193970 -55.7879066
19.9561272 177.0517273 -62.5086288
18.5334740 176.7102661 -60.6777153
17.1844215 176.4651489 -59.1363297
15.8248587 176.2504578 -57.7630234
14.5025549 176.0600739 -56.5576324
13.1518259 175.8969116 -55.4859085
-20.1787643 176.1841125 -53.7860489
-21.5357056 176.3669434 -54.6540298
-22.8960953 176.5596924 -55.6127319
-24.2632408 176.7907715 -56.7129898
17.2387810 178.2926025 -61.7641144
15.8478622 177.9861603 -60.1672287
14.5181112 177.7690125 -58.8083992
13.1644726 177.5923615 -57.6089058
-20.2309723 177.8798218 -55.8303299
-21.5776882 178.0615845 -56.7745743
14.5596581 179.5980682 -61.5140495
13.1742191 179.3518066 -60.1347427
11.8278694 179.1789856 -58.9718018
10.4732590 179.0003510 -57.9001884
9.1350231 178.8633423 -56.9691811
7.8110886 178.7573547 -56.2007599
-14.8951836 178.9691772 -55.0715332
-16.2247963 179.1014252 -55.6833420
-17.5846653 179.2640381 -56.4260178
-18.9188080 179.4347839 -57.2492905
-20.2840614 179.6326447 -58.2161102
13.2215557 181.2908936 -63.2889786
9.1389370 180.6427307 -59.5381622
7.8190360 180.5199280 -58.6667328
-14.9248724 180.7307434 -57.4301491
-16.2705727 180.8796844 -58.1409264
-17.6403732 181.0582275 -58.9778519
-18.9780731 181.2742004 -59.9143791
9.1754484 182.6139374 -62.7611542
7.8310204 182.3961945 -61.6657600
6.4633713 182.2352448 -60.7353668
5.1321564 182.1199341 -59.9567184
3.7759948 182.0445251 -59.3105583
2.4646873 181.9816895 -58.7860565
-1.5648403 181.8635712 -57.7434578
-2.9007559 181.8664246 -57.5989647
-4.2273083 181.8666229 -57.5084305
-5.5866299 181.9006348 -57.5358925
