14.6867180 15.3830223 176.7038574
12.6008453 15.3800535 176.1413727
10.5821371 15.3783131 175.4168701
8.4542484 15.3759928 174.4233093
6.4541306 15.3826370 173.2822571
39.7012749 17.4556599 173.2598877
37.4729309 17.4409943 175.0464478
35.4076004 17.4175034 176.3479004
33.2735252 17.4016743 177.4837494
31.1493263 17.3872929 178.4179993
29.1259689 17.3742599 179.0776825
6.4377956 17.3285542 176.7819214
4.3048062 17.3361320 175.4788208
41.5885582 19.4189377 175.1240997
39.5498886 19.3886604 176.6955872
37.3320541 19.3702011 178.2404785
35.2881241 19.3460960 179.3586426
33.1643295 19.3317986 180.3725739
31.0522804 19.3154964 181.2088013
29.0407829 19.2998886 181.7837372
6.4287257 19.2699432 179.7103271
4.2969036 19.2756653 178.5499878
2.2834575 19.2863560 177.2776184
45.7850609 21.4073009 174.2278595
43.7054138 21.3657455 176.2195129
41.4401283 21.3383255 178.1757813
39.4215202 21.3068714 179.5489044
37.2164612 21.2879105 180.9320679
35.1829605 21.2603703 181.9241028
33.0717621 21.2495251 182.8518829
30.9624176 21.2323380 183.6219940
28.9657116 21.2165413 184.1394043
26.7942467 21.2088604 184.6794281
24.8648434 21.1945057 184.9218140
22.6826992 21.1928101 185.1731873
20.7503338 21.1817589 185.2131500
18.6200161 21.1791706 185.1591034
16.6223316 21.1772537 184.9989014
14.5720243 21.1767025 184.6992035
12.4937687 21.1772766 184.2644806
2.2889071 21.2220478 180.0194702
0.1786082 21.2357712 178.5846405
-1.8840022 21.2552757 176.9502716
47.8947372 23.3628693 174.8589783
45.6198006 23.3211803 177.2771454
43.5678406 23.2769089 179.0018463
41.3124619 23.2505627 180.7830811
39.3114433 23.2156887 181.9979248
37.1078300 23.1989212 183.2905731
35.0848656 23.1700668 184.1855164
32.9859543 23.1551628 185.0316467
30.8836288 23.1393414 185.7582550
28.9008446 23.1217155 186.2166748
26.7286758 23.1146851 186.7392273
24.8150539 23.1009941 186.9466095
22.6261826 23.1001701 187.1898499
20.7086830 23.0895329 187.2234497
18.5752068 23.0904484 187.1707153
16.5887718 23.0872707 187.0278168
14.5363541 23.0895061 186.7377625
12.4631462 23.0905781 186.3241425
2.2883565 23.1430492 182.3810272
0.1838525 23.1607056 181.0620575
-1.8647563 23.1841679 179.5923462
-3.9451206 23.2123871 177.8534241
47.7415276 25.2653370 177.6764069
45.4863777 25.2242546 179.8252258
43.4466171 25.1810722 181.3862000
41.2036018 25.1528091 183.0237885
39.2135315 25.1179867 184.1338654
37.0161247 25.0980301 185.3450317
35.0062752 25.0702591 186.1667328
32.9076233 25.0547485 186.9720154
30.8180561 25.0367432 187.6513214
20.6718922 24.9891014 189.0331726
12.4376488 24.9945335 188.1591034
10.4797888 25.0076561 187.7265320
8.3397331 25.0088692 187.0252228
6.4077678 25.0283546 186.3878326
4.2707906 25.0384827 185.4249268
2.2900281 25.0600052 184.4656982
0.1924631 25.0785408 183.2302856
-1.8497936 25.1052742 181.8755035
-3.9228625 25.1338863 180.2820740
-6.0118093 25.1713181 178.4328918
49.7395744 27.2197704 177.9844971
47.6049767 27.1680489 180.0720520
45.3721390 27.1237984 182.0305328
43.3393555 27.0785084 183.4617004
41.1084366 27.0498924 184.9931641
39.1274605 27.0123882 186.0236511
36.9335442 26.9914284 187.1745758
34.9359055 26.9656868 187.9378357
6.4016485 26.9336472 188.1325226
4.2618556 26.9449501 187.2039490
2.2846177 26.9671249 186.2981262
0.1970638 26.9897614 185.1453857
-1.8430198 27.0194473 183.8752441
-3.9045563 27.0514679 182.3991089
-5.9852467 27.0888786 180.6896362
51.8197327 29.1796951 177.8658142
49.6110687 29.1172600 180.2274170
47.4892807 29.0602798 182.1357727
45.2672272 29.0158195 183.9555969
43.2449265 28.9703846 185.3007965
41.0216255 28.9417953 186.7497711
39.0489273 28.9024734 187.7057190
2.2888260 28.8739319 187.9587708
0.1985592 28.8958435 186.8475037
-1.8369528 28.9281158 185.6443634
-3.8956957 28.9618034 184.2454224
-5.9647388 29.0026512 182.6562653
-8.0124922 29.0493736 180.8639984
-10.1448507 29.1058426 178.6971588
53.9313393 31.1460266 177.4143982
51.6873627 31.0708294 179.9921875
49.4953537 31.0059147 182.1645966
47.3847122 30.9493294 183.9477844
45.1731796 30.9053078 185.6614380
43.1570587 30.8574352 186.9347839
-1.8342605 30.8319073 187.2186584
-3.8845665 30.8685150 185.8911133
-5.9565372 30.9130478 184.3825989
-7.9953384 30.9601498 182.6978760
-10.1170177 31.0185394 180.6817932
53.8008575 33.0366516 179.4568481
51.5731354 32.9575119 181.8359833
49.3948746 32.8936958 183.8662109
47.2880211 32.8367767 185.5583801
45.0917892 32.7875900 187.1743469
-3.8770075 32.7737503 187.3596649
-5.9476614 32.8168411 185.9042206
-7.9785490 32.8705139 184.3096161
-10.0900249 32.9305153 182.4104004
55.8646889 35.0113907 178.6785889
53.6862411 34.9212608 181.2113190
51.4740524 34.8440399 183.4454803
49.3046341 34.7777557 185.3638763
47.2021141 34.7177124 186.9812775
-5.9381285 34.7215538 187.2614441
-7.9742365 34.7752686 185.7245331
-10.0731211 34.8382072 183.9245911
-12.1434813 34.9117622 181.9157562
58.0609283 37.0088730 177.3646545
55.7532997 36.8974991 180.3584900
53.5829124 36.8053436 182.7406921
51.3883057 36.7279129 184.8585205
49.2261162 36.6598701 186.6901245
-7.9671502 36.6798782 186.9895325
-10.0576763 36.7459297 185.2696381
-12.1236572 36.8198395 183.3444519
57.9444427 38.8935318 179.0060120
55.6559372 38.7817535 181.8108978
53.4948845 38.6904449 184.0823822
51.3064194 38.6093292 186.1053009
-10.0509501 38.6510925 186.4361420
-12.1114922 38.7292175 184.5891113
-14.2166233 38.8192787 182.4460602
57.8421097 40.7799263 180.4212341
55.5726166 40.6669083 183.0753174
53.4165993 40.5728607 185.2503967
51.2312012 40.4909973 187.2052002
-10.0391903 40.5566368 187.4736938
-12.0996742 40.6369781 185.6857300
-14.1995316 40.7302170 183.6195831
59.9597092 42.7980270 178.7756653
57.7532654 42.6665421 181.6275940
55.4946785 42.5523987 184.1673279
53.3459129 42.4574699 186.2631073
-12.0876160 42.5449219 186.6473236
-14.1843929 42.6424713 184.6425476
59.8833389 44.6883621 179.9126892
57.6782417 44.5556870 182.6665649
55.4291306 44.4389610 185.1105804
53.2829208 44.3415680 187.1553650
-12.0838470 44.4542656 187.4700623
-14.1747503 44.5547104 185.5150452
-16.2624817 44.6695862 183.3105164
62.1487045 46.7521973 177.5354156
59.8143692 46.5821152 180.8747711
57.6145859 46.4463806 183.5410156
55.3749733 46.3273430 185.9136658
-14.1623955 46.4698563 186.2658539
-16.2540436 46.5879707 184.1072388
62.0789719 48.6511803 178.4554596
55.3275299 48.2176437 186.5910645
-14.1578608 48.3860550 186.8981018
-16.2439899 48.5093651 184.7837067
62.0168915 50.5551682 179.1985474
55.2873154 50.1109467 187.1533356
-14.1487150 50.3053627 187.4201660
-16.2411919 50.4337502 185.3278503
61.9678917 52.4650192 179.7718964
55.2527237 52.0079422 187.6022339
-14.1484966 52.2285042 187.8278503
-16.2351761 52.3623695 185.7543945
61.9293823 54.3805084 180.2061920
55.2262001 53.9091530 187.9418945
-14.1431408 54.1552391 188.1377106
-16.2339630 54.2954102 186.0731201
61.9017677 56.3034325 180.4909668
59.6162033 56.1119080 183.4855652
57.4152527 55.9541931 185.9705200
55.2059441 55.8152008 188.1786499
-16.2310524 56.2340927 186.2786560
61.8798637 58.2342415 180.6356201
59.6023483 58.0362663 183.6109009
57.3966713 57.8717003 186.1034698
-16.2385731 58.1799393 186.3634033
61.8803520 60.1763687 180.6130066
59.5959549 59.9685478 183.6159058
57.3865967 59.7961159 186.1253967
-16.2442455 60.1326904 186.3441772
61.8807335 62.1273727 180.4692993
59.6038170 61.9106216 183.4877777
57.3902397 61.7297516 186.0273132
-16.2553692 62.0943375 186.2090912
61.8989182 64.0924225 180.1590424
59.6157188 63.8637924 183.2311401
57.3992958 63.6732025 185.8056946
55.1956863 63.5088539 188.0428925
-14.1727133 63.8867111 188.0828857
-16.2658291 64.0647354 185.9695435
61.9225845 66.0704880 179.7018890
59.6403389 65.8289719 182.8381348
57.4118156 65.6268387 185.4698944
55.2124710 65.4557419 187.7293396
-14.1908579 65.8603973 187.7441101
-16.2846851 66.0477753 185.5912781
59.6719666 67.8082428 182.3046570
57.4355049 67.5931625 185.0061798
55.2352219 67.4122162 187.3112488
-14.2050943 67.8435516 187.2984467
-16.2974701 68.0425415 185.0963135
59.7150955 69.8045654 181.6065063
57.4708786 69.5762329 184.3882904
55.2673149 69.3844910 186.7520447
-14.2254810 69.8420715 186.7253418
59.7741928 71.8211823 180.7279358
57.5183411 71.5745621 183.6233673
55.3100395 71.3700562 186.0684662
-14.2485943 71.8539200 186.0225067
57.5794525 73.5948563 182.6867371
55.3552132 73.3726883 185.2416992
53.1698151 73.1851196 187.4237366
-12.1874609 73.6731567 187.2792816
-14.2760906 73.8851471 185.1663666
57.6461487 75.6362915 181.5718994
55.4143143 75.3962708 184.2477722
53.2246323 75.1940155 186.5207825
-12.2122679 75.7091217 186.3484497
57.7298203 77.7052841 180.2220001
55.4862595 77.4429398 183.0709229
53.2856369 77.2253265 185.4545593
51.1105461 77.0395889 187.5054626
-10.1546593 77.5505219 187.2643890
-12.2406855 77.7667923 185.2503510
55.5732422 79.5210876 181.6624451
53.3570557 79.2795181 184.2066345
51.1743965 79.0789490 186.3577423
-10.1806421 79.6173096 186.0874939
55.6723137 81.6296692 179.9948883
53.4473915 81.3667831 182.7244415
51.2464867 81.1428833 185.0297394
49.0851631 80.9572144 186.9943848
-8.1419144 81.4882660 186.6632996
-10.2101383 81.7066193 184.7334595
53.5473709 83.4875488 180.9812622
51.3379135 83.2418289 183.4652863
49.1671906 83.0332947 185.5713501
47.0129662 82.8607025 187.3715973
-6.0938787 83.3787918 187.0059204
-8.1660318 83.5898666 185.2152252
-10.2458696 83.8299866 183.1486206
53.6700172 85.6554947 178.8855438
51.4453621 85.3790054 181.6225586
49.2600594 85.1468353 183.9012451
47.0964508 84.9541168 185.8386383
44.9628677 84.7887650 187.5009613
-4.0576067 85.2919922 187.1041107
-6.1192255 85.4948196 185.4450684
51.5648842 87.5613403 179.4315491
49.3691101 87.3024292 181.9440613
47.1864281 87.0858688 184.0488586
45.0452271 86.9021835 185.8381042
42.9146233 86.7480087 187.3713684
-2.0233121 87.2334442 186.9537964
-4.0806108 87.4281921 185.4094086
-6.1489086 87.6504974 183.6209564
49.4959373 89.5055161 179.6037140
47.2941437 89.2616882 181.9452515
45.1388321 89.0558624 183.9012756
43.0015831 88.8837662 185.5649567
40.8862114 88.7369385 186.9938965
0.0128774 89.1993103 186.5725098
-2.0452833 89.3912582 185.1165771
-4.1034479 89.6033859 183.4503632
47.4261589 91.4991531 179.4235535
45.2551346 91.2611160 181.6240082
43.0958328 91.0653915 183.4638672
40.9735489 90.9021454 185.0107574
38.8662796 90.7672806 186.3286743
36.7710876 90.6543808 187.4466553
4.0914516 91.0425644 187.0611420
2.0464673 91.2023392 185.9035034
-0.0047604 91.3832245 184.5592346
-2.0664365 91.5909805 182.9835815
43.2185211 93.3067093 180.9602203
41.0777283 93.1195679 182.6893311
38.9584541 92.9614944 184.1548157
36.8547363 92.8376846 185.3659821
34.7702751 92.7332916 186.3981934
32.6885834 92.6510315 187.2541199
10.2142258 92.8417282 187.6753235
8.1772308 92.9548340 186.9327545
6.1329050 93.0867310 186.0324707
4.0890646 93.2397537 184.9591522
2.0412357 93.4143677 183.6988831
-0.0190761 93.6211548 182.1981506
41.2062073 95.4029617 179.9175110
39.0699921 95.2199249 181.5751648
36.9504089 95.0728455 182.9395447
34.8547058 94.9534454 184.0855255
32.7662659 94.8584442 185.0229645
30.6961517 94.7873230 185.7787628
28.6220646 94.7347183 186.3815308
26.5658283 94.7009811 186.8301086
24.5141048 94.6856842 187.1369781
22.4685707 94.6857529 187.3104553
20.4196243 94.7050781 187.3446503
18.3811588 94.7395782 187.2488708
16.3460770 94.7916489 187.0175781
14.3031712 94.8616943 186.6484222
12.2676125 94.9443970 186.1504517
10.2232609 95.0499268 185.4928284
8.1812468 95.1768036 184.6765137
6.1358242 95.3217621 183.6873779
4.0834527 95.4952469 182.4921265
2.0292060 95.6939545 181.0739288
39.2064972 97.5607224 178.4197235
37.0663376 97.3865356 180.0169678
34.9579010 97.2411194 181.3355713
32.8568039 97.1305847 182.3908997
30.7770462 97.0419769 183.2489319
28.6989651 96.9859619 183.9032135
26.6309090 96.9419327 184.4098816
24.5708179 96.9228973 184.7487030
22.5164452 96.9247513 184.9350586
20.4718952 96.9422379 184.9779968
18.4229355 96.9798813 184.8702240
16.3833427 97.0319824 184.6264343
14.3321781 97.1082153 184.2173920
12.2896852 97.2042694 183.6550293
10.2418766 97.3215561 182.9280701
8.1979856 97.4604187 182.0192566
6.1372013 97.6281281 180.8927155
4.0813437 97.8285904 179.5199585
35.0949860 99.6265030 177.9305725
32.9692230 99.4934616 179.1839905
30.8744316 99.3854523 180.1886597
28.7860966 99.3111038 180.9507904
26.7100334 99.2608337 181.5187988
24.6411896 99.2333755 181.9132996
22.5802650 99.2288818 182.1316376
20.5246010 99.2470016 182.1821136
18.4661407 99.2870941 182.0614319
16.4171753 99.3477478 181.7785950
14.3645563 99.4340668 181.3139343
12.3156948 99.5405731 180.6782532
10.2596779 99.6759262 179.8306580
8.2062550 99.8403015 178.7567291
31.0042477 101.8467026 176.3128815
28.8971481 101.7499771 177.2665100
26.8104916 101.6845474 177.9617920
24.7340603 101.6466751 178.4295959
22.6620560 101.6357422 178.6926880
20.5916100 101.6533737 178.7492523
18.5314236 101.6994705 178.5986938
16.4724903 101.7687378 178.2662354
-27.5669346 136.5315247 -38.8779259
-30.2409706 136.7909088 -40.4808235
-24.8759289 138.7232056 -36.2355576
-27.5344009 138.9496460 -37.5642700
-30.2044716 139.2059479 -39.1256409
-32.9035263 139.4998627 -40.9383087
-35.6157799 139.8365479 -43.0485191
-38.3558502 140.2267151 -45.5403481
35.7784653 142.6123047 -50.8163338
33.0258255 142.1528168 -47.3941574
30.3031254 141.7752380 -44.5404968
-22.2112427 140.9612579 -34.0189056
-24.8517876 141.1584015 -35.1271820
-27.5048523 141.3834839 -36.4298477
-30.1769333 141.6416016 -37.9552650
-32.8732338 141.9355927 -39.7308044
-35.5763779 142.2718201 -41.7894096
-38.3145981 142.6583710 -44.1985817
-41.0742645 143.1093140 -47.0440025
35.7226791 145.0195313 -49.4011917
32.9868774 144.5713959 -46.1142731
30.2679405 144.1993408 -43.3545914
27.5776978 143.8894653 -40.9924126
-19.5598221 143.2346191 -32.1374207
-22.1934624 143.4095764 -33.0811806
-41.0375061 145.5647125 -45.8509865
35.6883926 147.4617462 -48.2766838
32.9526672 147.0183105 -45.0828400
30.2324963 146.6483154 -42.3677826
27.5551834 146.3374176 -40.0611038
24.8818493 146.0760193 -38.0714569
-16.9367561 145.5460510 -30.6052666
-19.5505905 145.6978455 -31.3555012
-22.1850281 145.8744507 -32.2851486
-41.0105171 148.0474854 -44.8895416
35.6471710 149.9301758 -47.3603401
27.5261536 148.8092957 -39.3033829
24.8610153 148.5458832 -37.3364410
22.2107220 148.3226624 -35.6364250
19.5686989 148.1324463 -34.1465950
-19.5521851 148.1792297 -30.7270317
-22.1753616 148.3577881 -31.6362610
-40.9849548 150.5571289 -44.1372986
35.6201630 152.4301910 -46.6841087
27.5049858 151.3016663 -38.7096138
24.8405075 151.0351257 -36.7553635
22.1910477 150.8087311 -35.0570717
19.5529118 150.6191406 -33.5954056
16.9218235 150.4598694 -32.3278847
-19.5468674 150.6775513 -30.2258759
-22.1743240 150.8589172 -31.1307240
-40.9687195 153.0923309 -43.5770035
-43.7477913 153.6340332 -46.7654572
41.2019424 156.2453308 -54.8092003
38.3762589 155.5248871 -50.0250664
35.6019440 154.9647217 -46.2495079
16.9153175 152.9633636 -31.9194069
-16.9378815 153.0320282 -29.0940895
-19.5480366 153.1926727 -29.8469696
-22.1734333 153.3785248 -30.7596645
-40.9675255 155.6588440 -43.2326355
-43.7489891 156.2146912 -46.4462814
41.1839638 158.8377075 -54.6066780
38.3613930 158.0982971 -49.7876015
35.5858917 157.5255280 -45.9946098
16.9053917 155.4880981 -31.6566658
14.2823639 155.3531799 -30.5729980
11.6741142 155.2451782 -29.6537933
9.0644121 155.1607208 -28.8865166
-1.3288784 155.0599365 -27.2563667
-16.9406242 155.5641022 -28.8550644
-19.5500946 155.7275085 -29.6064663
-22.1803818 155.9178925 -30.5225925
-40.9774704 158.2577667 -43.0980110
-43.7499886 158.8249207 -46.3231583
38.3544350 160.7167053 -49.8325310
35.5844612 160.1262512 -45.9882164
11.6644478 157.7853851 -29.5201302
9.0562735 157.6995544 -28.7551479
6.4568062 157.6381073 -28.1265869
3.8560247 157.6021729 -27.6533661
1.2518325 157.5898438 -27.3224087
-16.9479218 158.1152039 -28.7385406
-40.9883804 160.8871765 -43.1548805
35.5778732 162.7557373 -46.1619530
11.6520977 160.3463593 -29.5145760
9.0557957 160.2592773 -28.7412033
6.4432144 160.1959534 -28.1095924
3.8451672 160.1593475 -27.6413574
-6.5361919 160.2377167 -27.0990753
-16.9668732 160.6912842 -28.7641029
-41.0085373 163.5537720 -43.4272079
35.5943336 165.4409790 -46.6437569
11.6422462 162.9295654 -29.6410637
9.0426121 162.8409576 -28.8661957
6.4379206 162.7815552 -28.2540874
3.8328261 162.7377014 -27.7639313
-6.5551090 162.8235321 -27.2360935
-16.9694862 163.2852478 -28.9242287
-35.5544395 165.2514343 -38.5767670
-38.2820778 165.7174988 -41.0321541
-41.0501099 166.2643433 -43.9505081
35.6034851 168.1653748 -47.3494797
11.6387539 165.5447693 -29.9331303
9.0383282 165.4526978 -29.1531715
1.2278506 165.3348694 -27.7085953
-1.3565478 165.3437653 -27.5055923
-3.9577103 165.3709717 -27.4274902
-6.5700951 165.4300842 -27.4990826
-9.1488132 165.5152740 -27.7217445
-11.7586956 165.6194611 -28.0786705
-14.3715801 165.7540283 -28.5941048
-16.9905643 165.9109344 -29.2315750
-35.5869102 167.9545441 -39.1369629
-38.3201103 168.4418182 -41.6682587
35.6238480 170.9444733 -48.3514366
32.8846436 170.3622742 -44.7669830
30.1598663 169.8834686 -41.8048859
27.4726830 169.4945984 -39.3375511
24.7978687 169.1606445 -37.2041702
22.1497726 168.8905029 -35.3986893
19.5054703 168.6578979 -33.8287811
11.6324654 168.1813812 -30.3668594
9.0234604 168.0848389 -29.5648117
1.2152352 167.9619446 -28.0950203
-1.3726723 167.9742432 -27.9072647
-30.2273827 169.8683167 -35.7571945
-32.9082184 170.2507629 -37.6589355
-35.6253929 170.6993256 -39.9164124
-38.3595085 171.2132568 -42.5542717
32.9067802 173.1561279 -45.8751221
30.1788712 172.6486816 -42.7792282
27.4875774 172.2316742 -40.1947212
24.8102989 171.8823395 -37.9867630
22.1513863 171.5952148 -36.1206093
19.5075417 171.3473816 -34.4971085
11.6343365 170.8541870 -30.9579220
9.0280209 170.7521667 -30.1373806
6.4095521 170.6819763 -29.4918480
3.8120525 170.6396942 -28.9983845
1.2055455 170.6209106 -28.6444168
-1.3870604 170.6332397 -28.4529152
-30.2639523 172.6118469 -36.5873032
-32.9512863 173.0164490 -38.5745964
-35.6767235 173.4915466 -40.9390793
-38.4236641 174.0430603 -43.7308350
30.2109451 175.4774628 -44.0613022
27.5022202 175.0173645 -41.2966423
24.8258057 174.6472626 -38.9920769
22.1590233 174.3416443 -37.0549469
19.5189133 174.0847321 -35.3825035
-30.3051033 175.4004364 -37.6377602
-33.0098686 175.8382568 -39.7558594
-35.7421227 176.3446198 -42.2519150
30.2390518 178.3687897 -45.6656761
27.5282764 177.8727264 -42.7175674
24.8469906 177.4667969 -40.2684517
22.1731415 177.1372833 -38.2280235
19.5252342 176.8592682 -36.4761238
-30.3586006 178.2452698 -38.9626083
-33.0750504 178.7184753 -41.2205200
30.2806034 181.3539581 -47.7241592
27.5657387 180.8041992 -44.5002060
24.8709145 180.3558655 -41.8724709
22.1953468 179.9945984 -39.6852875
19.5418758 179.6970367 -37.8392296
16.8925552 179.4513855 -36.2728424
14.2608376 179.2501221 -34.9441490
-25.0524254 180.3569946 -36.8753166
-27.7276421 180.7263947 -38.5743294
-30.4282990 181.1627197 -40.6031647
-33.1427879 181.6681824 -43.0280991
27.6110497 183.8263550 -46.7433929
24.9100418 183.3235779 -43.8329239
22.2201538 182.9197693 -41.4595909
19.5637074 182.5967712 -39.4922562
16.9047737 182.3229370 -37.8157043
14.2750292 182.1072083 -36.4224815
-25.1105804 183.2792358 -38.5677795
-27.7957363 183.6810303 -40.4093857
-30.5034943 184.1570129 -42.6244354
24.9549217 186.4020538 -46.3187256
22.2496758 185.9399719 -43.6667366
19.5880585 185.5729065 -41.4974632
16.9190750 185.2693787 -39.6863594
14.2824125 185.0391693 -38.2149506
11.6354504 184.8516541 -36.9832153
9.0145454 184.7050629 -35.9891434
-14.5594749 185.0897522 -35.5736694
-17.1976624 185.3090363 -36.4584236
-19.8429604 185.5826416 -37.5801392
-22.5099754 185.9043274 -38.9647255
-25.1802845 186.2777405 -40.6347656
-27.8768883 186.7273865 -42.6674042
22.2898712 189.0834961 -46.4404182
19.6197929 188.6553650 -43.9899292
16.9403992 188.3166962 -42.0008202
14.2970810 188.0474854 -40.3775787
11.6478443 187.8374634 -39.0483894
9.0216370 187.6795349 -37.9792404
-14.6040363 188.0705261 -37.5745697
-17.2510338 188.3179016 -38.5599823
-19.9018078 188.6117706 -39.7855072
-22.5841675 188.9664001 -41.3212204
-25.2627926 189.3914642 -43.1931915
19.6568451 191.8853607 -47.1815262
16.9716663 191.4808350 -44.8622665
14.3187237 191.1729126 -43.0394707
11.6601162 190.9239807 -41.5477905
9.0237799 190.7431641 -40.3663940
6.3815980 190.6112061 -39.4422874
3.7530746 190.5273132 -38.7572556
-9.3834047 190.7560883 -38.5765610
-12.0173988 190.9328918 -39.1767807
-14.6646509 191.1546478 -40.0189667
-17.3209782 191.4310608 -41.1208267
-19.9796391 191.7587280 -42.5107956
-22.6691971 192.1692200 -44.2681351
11.6750689 194.1613464 -44.6827431
9.0336380 193.9401245 -43.3392982
6.3825359 193.7833252 -42.2981148
3.7472854 193.6825256 -41.5344620
-9.4331732 193.9239197 -41.3808708
-12.0735264 194.1196289 -42.0767441
-14.7259340 194.3646698 -43.0283585
-17.3970585 194.6847229 -44.3215179
9.0408058 197.3245087 -47.1497040
6.3903084 197.1232147 -45.9063530
3.7394845 197.0038605 -45.0405006
1.0984832 196.9410706 -44.4620895
-1.5456376 196.9308777 -44.1563263
-4.1837940 196.9784088 -44.1229897
-6.8309650 197.0901794 -44.3828316
-9.4815998 197.2542725 -44.9171677
-12.1387558 197.4816284 -45.7564621
3.7409730 200.5852051 -49.7736244
1.0827650 200.4913177 -49.0183563
-1.5713102 200.4746094 -48.6618233
25.9026413 9.9554176 163.5658264
24.8368187 9.9670029 163.9329224
23.7270851 9.9955988 164.2937469
22.6595306 9.9974632 164.5279846
21.6641922 9.9908466 164.6108398
20.6271782 9.9830236 164.6162720
19.5540485 9.9870682 164.6015320
18.4716759 9.9847393 164.4881134
16.4338951 9.9629402 163.9663544
15.3716717 9.9177456 163.5556488
32.1399689 10.9841089 163.2475128
31.1246929 10.9906054 164.1242371
30.0785503 10.9980783 164.9041138
28.9704361 11.0109234 165.6295166
27.8411846 11.0192270 166.2916718
26.8329353 11.0084162 166.7079468
25.8375874 11.0013838 167.0372925
24.7696915 11.0024605 167.3821106
19.5030155 10.9730988 167.8703003
18.4061317 10.9704876 167.7853699
17.3916435 10.9740705 167.6308594
16.4054832 10.9700556 167.3771362
15.3504505 10.9684048 167.0524902
14.2550755 10.9668922 166.6666718
13.2046795 10.9504547 166.1973572
12.2010145 10.9031715 165.6452942
33.1041298 12.0101261 165.9568787
32.0219154 12.0337286 166.8348389
31.0347614 12.0176773 167.4541779
29.9920444 12.0126810 168.0698242
28.8893547 12.0064869 168.6681366
27.7720795 12.0008440 169.1900635
26.7571774 11.9902697 169.5454102
25.7741184 11.9828091 169.8238983
24.7175121 11.9773083 170.0877991
19.4675121 11.9587784 170.5039520
18.3651180 11.9506617 170.4164734
17.3543930 11.9480419 170.2838745
16.3795052 11.9511843 170.0959473
15.3173809 11.9441824 169.7990875
14.2279282 11.9500542 169.4662323
13.1713552 11.9518499 169.0671387
12.1854906 11.9455137 168.6104584
11.1726046 11.9449883 168.0941315
10.0993023 11.9286118 167.4354706
8.9932604 11.8929281 166.6813049
37.3204842 13.0256977 164.8593903
36.2591515 13.0539465 166.0587006
35.2657547 13.0401697 166.9769287
34.1741180 13.0185699 167.9655457
33.0218773 13.0134974 168.8835907
8.9911404 12.9279366 169.3964996
7.9842296 12.9262867 168.7322388
6.9833450 12.9121819 167.9953003
5.9261456 12.8774614 167.0906982
38.3529205 14.0388784 166.6995697
37.1913071 14.0338745 167.9995117
36.1679840 14.0231285 168.9435883
35.1725616 14.0114174 169.7294159
34.0863037 14.0007772 170.5323181
32.9337921 13.9987421 171.3325195
8.9770737 13.9114971 171.7339020
7.9704494 13.9087934 171.1209564
6.9796581 13.9136791 170.4695282
5.9291019 13.9143934 169.7010193
4.8338504 13.8867512 168.7935181
41.5031891 15.0163631 165.6664124
40.4658051 15.0339785 166.9840698
39.3974991 15.0265055 168.2106628
38.2522011 15.0166016 169.4434967
37.1043091 15.0071325 170.5385132
4.8525658 14.8974857 171.1517487
3.7748499 14.8788795 170.2655334
2.7730458 14.8601379 169.3641815
42.5059967 16.0358276 167.1421814
41.3656578 16.0323601 168.5476685
40.3572006 16.0108871 169.6309204
39.2998657 15.9957943 170.6683655
38.1662292 15.9836397 171.7185669
37.0160446 15.9846992 172.7109375
4.8406839 15.8753748 173.1770630
3.7743018 15.8784389 172.3708191
2.7965450 15.8856468 171.5843964
1.7625788 15.8791437 170.6708221
42.3685150 17.0135689 169.6852722
41.2533951 16.9998646 170.9440460
2.7807457 16.8560791 173.5216980
1.7620132 16.8633060 172.6849060
0.7032747 16.8713436 171.7347412
44.5737343 18.0097332 169.0904236
43.4601173 17.9924603 170.4816895
42.2714195 17.9764214 171.8624878
41.1621742 17.9651966 172.9853821
2.7924061 17.8291073 175.3030853
1.7699337 17.8348732 174.5283813
0.7119187 17.8480377 173.6463928
-0.3716044 17.8530884 172.6280670
45.4917488 18.9999008 170.0908966
44.4731750 18.9736633 171.2937927
43.3623238 18.9550095 172.5378418
0.7188773 18.8096466 175.3415375
-0.3815276 18.8221931 174.4109497
-1.4037153 18.8283634 173.4721069
-2.4113746 18.8388100 172.4402466
47.6793556 19.9969807 169.2286377
46.4601898 19.9760571 170.8616028
45.3960037 19.9568348 172.1468658
44.3845901 19.9328995 173.2187195
43.2720070 19.9210644 174.3621674
0.7114093 19.7788963 176.8862000
-0.3727472 19.7867241 176.0299377
-1.3873253 19.8008060 175.1586609
-2.3941197 19.8176250 174.2102051
-3.4438031 19.8197327 173.1321564
48.7323685 20.9802628 169.5520630
47.5389290 20.9641171 171.2943115
-3.4236615 20.7996655 174.8156586
-4.5195484 20.7966843 173.6773834
49.7082634 21.9713650 170.0576324
48.6094475 21.9425983 171.6027985
47.4407501 21.9123707 173.1321716
-3.4192209 21.7625275 176.3236694
-4.4976649 21.7757816 175.2534485
-5.5662403 21.7887058 174.1210632
-6.5960369 21.7798805 172.9651337
50.6464043 22.9572601 170.5524139
49.6089592 22.9241257 171.9753113
-5.5535455 22.7563972 175.6239319
-6.5614853 22.7689743 174.5503693
50.5332909 23.9101810 172.3786469
49.5107269 23.8773670 173.6935577
-5.5298643 23.7226181 177.0348053
-6.5391874 23.7417374 176.0039520
-7.5890760 23.7463264 174.8513641
51.5844421 24.8970318 172.4690094
50.4520950 24.8594952 174.0050964
49.4229240 24.8294201 175.2355347
29.4078045 24.5471249 187.4762268
28.2916069 24.5494213 187.7980347
27.1608944 24.5515957 188.0997162
26.2043533 24.5343876 188.2036133
25.2937069 24.5248222 188.2608337
24.2600174 24.5180569 188.3688660
23.1114445 24.5289860 188.5282593
22.0602894 24.5212917 188.6011353
19.1029377 24.5159760 188.5699310
17.9759426 24.5141582 188.5092010
17.0193996 24.5125122 188.4426575
16.1100769 24.5172462 188.3727570
15.0804529 24.5231266 188.2372131
13.9538794 24.5196800 188.0159760
-7.5693359 24.7199230 176.2361145
52.7149124 25.8774719 172.3006592
51.4910278 25.8461666 174.0603180
50.3539734 25.8129368 175.5133209
49.3371620 25.7845917 176.6475220
29.3765335 25.4921417 188.3511810
28.2612190 25.4965172 188.6708221
27.1329746 25.4968338 188.9708557
26.1770401 25.4892445 189.0794067
25.2592411 25.4782524 189.1252747
24.2274017 25.4732895 189.2364502
23.0905914 25.4787769 189.3940735
22.0380917 25.4658432 189.4616699
19.0876713 25.4667034 189.4341431
17.9571648 25.4616890 189.3596497
17.0020447 25.4622860 189.3010559
16.0904980 25.4670429 189.2373199
15.0628138 25.4692154 189.0960388
13.9391356 25.4704323 188.8774109
-7.5394998 25.6860943 177.5446930
54.8549957 26.9091339 170.4370270
53.7730103 26.8700600 172.1636505
52.6161194 26.8279400 173.8618011
51.4206314 26.7911377 175.4778137
33.4416428 26.4736824 188.0338745
32.2729645 26.4792862 188.5438843
31.2173462 26.4703846 188.8852539
30.3120537 26.4559250 189.0173645
29.3522110 26.4381447 189.1809692
28.2382183 26.4407425 189.4997711
13.9260426 26.4192810 189.7080688
12.8705788 26.4129276 189.5039063
11.9663734 26.4168739 189.3622284
11.0069323 26.4320908 189.1735535
9.9303074 26.4391174 188.8479767
8.8102674 26.4313698 188.4653625
7.8460903 26.4389114 188.1819153
-7.5215259 26.6438293 178.7326813
-8.5799780 26.6691666 177.6362915
-9.6760921 26.6941547 176.4048767
-10.7384558 26.7140713 175.1207275
54.7470245 27.8622990 172.1180573
53.6716194 27.8163204 173.7102966
52.5253868 27.7787609 175.2877045
51.3308411 27.7419014 176.8119812
33.4101181 27.4210091 188.8510590
32.2494240 27.4184647 189.3512268
31.1908264 27.4085197 189.6847382
9.9178810 27.3818893 189.6484375
8.8076229 27.3904171 189.2822113
7.8400097 27.3949013 189.0047302
-7.5029278 27.6019440 179.8466187
-8.5675917 27.6256962 178.7812500
-9.6506386 27.6556435 177.6120453
-10.6955662 27.6871948 176.4015198
-11.7732821 27.6990604 175.0825806
55.7606812 28.8507805 171.9165955
54.6587601 28.8059158 173.6166229
53.5920868 28.7603569 175.0887451
37.4530182 28.4111595 188.1270142
36.3117790 28.4049950 188.7142639
35.3434944 28.3938713 189.0343170
34.4215927 28.3726578 189.2591400
33.3712807 28.3617611 189.6333618
7.8213320 28.3254795 189.7779541
6.9003210 28.3457451 189.5252991
5.8800616 28.3616123 189.1403046
4.7806215 28.3686657 188.6568756
3.7372570 28.3803825 188.2037659
-11.7351398 28.6697998 176.3271484
55.6664619 29.7978897 173.3877258
54.5743752 29.7519512 174.9783020
53.5211029 29.7046795 176.3416595
37.4155617 29.3559227 188.9014587
36.2790642 29.3475342 189.4811859
4.7761288 29.3163795 189.4143372
3.7291758 29.3212357 188.9600525
-11.7042255 29.6336918 177.4768066
56.8070564 30.7888908 172.8049164
55.5787888 30.7410240 174.7239990
41.4955482 30.3638592 187.6424255
40.4355774 30.3454609 188.2386017
39.4822388 30.3303757 188.6432495
38.4909554 30.3091812 189.0698242
37.3810730 30.3009453 189.6416626
3.7254989 30.2682762 189.6976471
2.7863901 30.2853317 189.3131561
1.7901123 30.3019333 188.8580627
0.7348620 30.3153439 188.3041077
-0.3405265 30.3331528 187.7129974
-11.6790867 30.5941887 178.5380096
-12.7677755 30.6165981 177.2596588
56.7033424 31.7392044 174.1452789
55.4969406 31.6846886 175.9376068
41.4617195 31.3071098 188.3834534
40.3958130 31.2909069 188.9635773
39.4514847 31.2677116 189.3538818
1.7774330 31.2461681 189.5673370
0.7529409 31.2656174 189.0309753
-0.3425034 31.2804470 188.4326019
-11.6590023 31.5498638 179.5175171
-12.7298107 31.5844154 178.2896729
57.8224182 32.7384644 173.4775848
56.6228180 32.6790314 175.3434753
55.4305115 32.6266518 177.0346375
43.6244125 32.2792397 187.7239380
42.5608215 32.2613335 188.3750763
41.4247208 32.2438965 189.0747375
40.3717728 32.2233620 189.6384277
0.7330137 32.2080460 189.7062073
-0.3342794 32.2305641 189.1282806
-1.3355460 32.2470016 188.5767212
-2.3197064 32.2673607 188.0108337
-11.6517220 32.5031853 180.4266968
-12.7039738 32.5434036 179.2565918
-13.7952862 32.5715561 177.9723663
57.7474670 33.6806107 174.6611633
56.5484085 33.6232605 176.4517670
55.3637619 33.5721741 178.0593872
43.5835915 33.2232094 188.4240875
42.5282593 33.2021751 189.0482178
-1.3275666 33.1943283 189.2520294
-2.3159990 33.2164536 188.6867065
-11.6331882 33.4598885 181.2931671
-12.6896954 33.4987297 180.1474609
-13.7623949 33.5354691 178.9125824
59.9109840 34.7480850 172.1277924
58.7941589 34.6854401 174.0288086
57.6647873 34.6214142 175.7783356
45.5424271 34.2127571 187.8873596
44.5337677 34.1897202 188.5199432
43.5443497 34.1637917 189.0825653
-2.3187923 34.1627045 189.3290863
-3.3504510 34.1842194 188.6923676
-4.4052777 34.2102966 188.0058899
-13.7389793 34.4956398 179.7792053
-14.8338823 34.5293694 178.4806519
59.8187332 35.6940002 173.3377075
58.7239380 35.6268883 175.1208954
57.5990028 35.5650597 176.7837524
45.5107803 35.1520996 188.5179138
44.4993744 35.1244698 189.1438599
43.5168762 35.1011581 189.7072296
-3.3394284 35.1335068 189.3179016
-4.4023371 35.1590538 188.6261292
-13.7230644 35.4528236 180.5830536
-14.8026447 35.4930153 179.3200531
59.7464447 36.6327019 174.4342194
47.6994286 36.1436272 187.5396423
46.5950699 36.1155090 188.3438110
45.4725876 36.0894928 189.1225739
-4.4000626 36.1060791 189.2203369
-5.4404259 36.1339645 188.5272369
-6.4404740 36.1602173 187.8344116
-13.7056932 36.4093323 181.3527832
-14.7840462 36.4537735 180.1145325
60.9045639 37.6228638 173.4945984
59.6893005 37.5684090 175.4289246
47.6617126 37.0835800 188.1387939
46.5564957 37.0584030 188.9339142
-5.4435410 37.0826111 189.0941467
-6.4321060 37.1104126 188.4145050
-13.6955109 37.3635674 182.0624847
-14.7699451 37.4117432 180.8541412
-15.8094730 37.4591446 179.6114349
60.8242035 38.5830078 174.5331573
59.6261787 38.5119095 176.3253021
49.6704292 38.0861244 187.2108612
48.6632309 38.0548477 187.9641418
47.6251183 38.0218201 188.7062988
46.5252914 37.9946747 189.4884338
-5.4414101 38.0260925 189.6438293
-6.4285679 38.0602264 188.9671326
-7.4507604 38.0891418 188.2329712
-8.4763794 38.1231079 187.4567719
-15.7899952 38.4170952 180.3346558
60.7262955 39.5317078 175.3656311
59.5615540 39.4601402 177.1560516
49.6387939 39.0259628 187.7680359
48.6343269 38.9941483 188.5088196
47.5852852 38.9656830 189.2539825
-6.4389410 39.0045471 189.4898834
-7.4502344 39.0413094 188.7582245
-8.4757271 39.0729675 187.9815674
-15.7782669 39.3750153 181.0033569
61.9115906 40.5537262 174.1230011
60.6621475 40.4751053 176.1844177
59.5096474 40.4008713 177.9200745
49.6016426 39.9664574 188.2951660
48.6017685 39.9320068 189.0239716
-7.4494715 39.9890556 189.2542267
-8.4715805 40.0256195 188.4826660
-15.7683525 40.3307419 181.6181946
-16.8292103 40.3852501 180.3412170
61.8267403 41.5055237 174.9746399
60.6028328 41.4191742 176.9609222
59.4706306 41.3424149 178.6145630
49.5838165 40.9058685 188.7731018
48.5638580 40.8728447 189.5165405
-7.4540396 40.9347916 189.7234802
-8.4668951 40.9757843 188.9572601
-15.7588844 41.2875443 182.1978455
-16.8219795 41.3464966 180.9349060
61.7670212 42.4491806 175.7421570
51.7503510 41.9208298 187.4609375
50.6289520 41.8824310 188.3970337
49.5526428 41.8436737 189.2341919
-8.4702682 41.9230461 189.4026031
-9.5289249 41.9632950 188.5796967
-10.5410080 42.0024681 187.7679749
-15.7540503 42.2444267 182.7349548
-16.8252029 42.3037796 181.4773254
-17.8824730 42.3616295 180.1834564
61.7105179 43.3932381 176.4465637
51.7172241 42.8630219 187.9171753
50.6007767 42.8233604 188.8382263
49.5280800 42.7825432 189.6749573
-9.5190296 42.9151192 189.0122681
-10.5289764 42.9585609 188.2078857
-15.7375259 43.2022057 183.2407837
-16.8124409 43.2621803 181.9968567
-17.8698769 43.3243942 180.7144470
62.8533669 44.4296761 175.1359863
61.6638794 44.3394089 177.0844116
51.6908836 43.8041267 188.3443298
50.5775375 43.7627640 189.2529602
-9.5141068 43.8661194 189.4134369
-10.5319004 43.9096069 188.5999146
-17.8508224 44.2850876 181.2192841
63.9746399 45.4752579 173.6989899
62.7955284 45.3779106 175.7741089
61.6245041 45.2835159 177.6660461
51.6573982 44.7461853 188.7454071
50.5488129 44.7031174 189.6428680
-10.5298214 44.8626556 188.9709167
-17.8367386 45.2460556 181.6838684
-18.9427509 45.3114090 180.2945099
63.9100647 46.4267921 174.3393707
53.7744293 45.7773628 187.2739716
52.7103844 45.7329636 188.2080383
51.6329765 45.6877289 189.1057434
-10.5273590 45.8151817 189.3201447
-11.5565434 45.8623848 188.4702301
-12.5983334 45.9108047 187.5654602
-17.8269119 46.2073288 182.1113434
63.8683014 47.3771973 174.9104309
53.7424927 46.7217865 187.6319275
52.6831360 46.6759033 188.5522156
51.6123238 46.6287079 189.4457703
-10.5299587 46.7666512 189.6440735
-11.5510244 46.8165512 188.7964478
-12.5895557 46.8670578 187.9008331
-17.8206501 47.1687469 182.5036621
-18.9166451 47.2403030 181.1517334
65.0205536 48.4378204 173.2534943
63.8309669 48.3265533 175.4239197
53.7248688 47.6648636 187.9482880
52.6641426 47.6185112 188.8670349
-11.5532732 47.7720070 189.0966187
-12.5854416 47.8231087 188.2074890
-17.8251514 48.1312256 182.8440552
-18.9071007 48.2061157 181.5068970
63.7950935 49.2785645 175.8874817
53.6937523 48.6109390 188.2547455
52.6452637 48.5617981 189.1596985
-11.5463238 48.7269707 189.3808594
-12.5862427 48.7806778 188.4838715
-17.8209839 49.0947342 183.1629181
64.9333191 50.3481483 174.2044220
63.7630997 50.2312088 176.3010712
53.6811905 49.5558243 188.5193481
52.6224403 49.5061722 189.4317627
-11.5506573 49.6819916 189.6219482
-12.5823498 49.7382851 188.7353210
-17.8206062 50.0583382 183.4514923
-18.8868599 50.1363106 182.1549683
64.9012299 51.3028870 174.6201019
63.7363281 51.1864395 176.6573029
53.6660690 50.5020676 188.7605438
52.6050644 50.4508324 189.6722412
-12.5797520 50.6971130 188.9558258
-17.8091507 51.0232658 183.7152710
-18.8894787 51.1034088 182.4060364
64.8806763 52.2593231 174.9663696
63.7033501 52.1433945 176.9822388
53.6483574 51.4492188 188.9815369
-12.5802126 51.6560364 189.1502075
-17.8097076 51.9902267 183.9273376
-18.8890228 52.0724754 182.6264191
-19.9489670 52.1572342 181.2730713
64.8619385 53.2188835 175.2634735
63.6865807 53.1015739 177.2505188
53.6281738 52.3969994 189.1793518
-12.5771303 52.6160431 189.3369446
-17.8105831 52.9578323 184.1184692
-18.8754158 53.0411148 182.8446045
-19.9459248 53.1279488 181.4897461
64.8168945 54.1802177 175.5498047
63.6699829 54.0615158 177.4846497
53.6163254 53.3458786 189.3430481
-12.5881500 53.5772438 189.4824677
-17.8112602 53.9268036 184.2849121
-18.8766479 54.0116119 183.0123596
-19.9413872 54.0996323 181.6781158
64.8103180 55.1472702 175.7014160
63.6403122 55.0226479 177.6976013
53.6148949 54.2959938 189.4757080
-12.5803127 54.5396347 189.6116333
-17.8121529 54.8972473 184.4136200
-18.8835258 54.9843826 183.1355743
64.7907562 56.1141891 175.8572083
63.6310234 55.9873085 177.8382874
53.5997353 55.2475471 189.5926971
-12.5832596 55.5037155 189.7105255
-13.6176052 55.5693130 188.7884216
-14.6738205 55.6385269 187.8073730
-17.8093204 55.8693886 184.5172729
-18.8750687 55.9575462 183.2534790
64.7847366 57.0832901 175.9676514
63.6288223 56.9548340 177.9337006
53.5913200 56.2005272 189.6786652
-12.5884199 56.4688911 189.7876282
-13.6153212 56.5358353 188.8642578
-14.6714096 56.6068382 187.8819275
-17.8086128 56.8428650 184.5934448
-18.8798485 56.9333076 183.3262939
64.7821655 58.0551529 176.0314636
63.6157570 57.9232559 178.0119934
55.7501526 57.2820091 187.7655792
54.6405869 57.2151527 188.8023682
53.5889320 57.1552048 189.7393188
-13.6304474 57.5050621 188.9001160
-14.6679287 57.5763855 187.9342499
-17.8069878 57.8180656 184.6406250
-18.8837490 57.9112549 183.3642883
64.7709961 59.0291634 176.0634460
63.6143990 58.8955803 178.0308838
55.7453156 58.2407722 187.7987213
54.6344376 58.1721077 188.8373413
-13.6244030 58.4742088 188.9327393
-14.6782703 58.5487785 187.9483032
-17.8123455 58.7956085 184.6526947
-18.8901062 58.8914566 183.3695068
64.7746429 60.0079193 176.0262146
63.6107216 59.8705597 178.0142365
55.7437973 59.2017136 187.8018188
54.6361618 59.1322060 188.8354797
-13.6230555 59.4454536 188.9335022
-14.6798096 59.5221252 187.9436188
-17.8198376 59.7752838 184.6361084
-18.8837013 59.8721085 183.3630371
-19.9451389 59.9747314 182.0097504
-21.0346584 60.0873833 180.5322113
64.7850952 60.9903488 175.9431305
63.6128082 60.8478661 177.9604340
55.7364960 60.1633377 187.7888336
54.6368141 60.0932541 188.8150940
-13.6348343 60.4199524 188.8932190
-14.6855202 60.4981842 187.9075317
-17.8251610 60.7572441 184.5904083
-18.8935070 60.8568649 183.3073883
64.7930527 61.9749832 175.8321838
63.6204414 61.8284111 177.8660278
55.7380219 61.1268005 187.7491760
54.6354485 61.0554008 188.7793274
53.5845795 60.9911652 189.7275085
-12.6010647 61.3216629 189.7716980
-13.6334486 61.3951263 188.8414917
-14.6852932 61.4751244 187.8500977
-17.8240509 61.7403030 184.5231476
-18.8982258 61.8432083 183.2290802
64.8022003 62.9628448 175.6815186
63.6233215 62.8118515 177.7360382
55.7417870 62.0927353 187.6800842
54.6366081 62.0196648 188.7161865
53.5726128 61.9524269 189.6791534
-12.6056938 62.2971039 189.6942444
-13.6413670 62.3734360 188.7574005
-14.6930676 62.4558411 187.7607422
-17.8339100 62.7271690 184.4161072
-18.9027233 62.8319702 183.1174622
64.8210983 63.9557686 175.4935608
63.6344910 63.7993355 177.5579376
53.5844765 62.9185219 189.5884399
-12.6206141 63.2770042 189.5816345
-17.8417492 63.7166786 184.2777405
-18.9180393 63.8257599 182.9573364
-19.9790821 63.9393768 181.5850525
63.6410294 64.7891159 177.3500061
53.5868263 63.8865738 189.4732056
-12.6251144 64.2574615 189.4481201
-17.8431892 64.7078934 184.1185608
64.8698654 65.9571991 174.9435577
63.6639862 65.7878265 177.0605011
53.5899734 64.8557587 189.3287506
-12.6195421 65.2388535 189.2956543
-17.8511047 65.7028961 183.9173889
64.9112854 66.9678040 174.5713806
63.6861725 66.7883148 176.7429810
53.6023979 65.8285828 189.1506958
-12.6332989 66.2256241 189.1066742
-17.8601456 66.7023544 183.6753387
-18.9440193 66.8233337 182.3271942
63.7113342 67.7945709 176.3719330
62.5274696 67.6352539 178.3561096
61.3730659 67.4958115 180.1260376
53.6123581 66.8041000 188.9517365
-12.6397762 67.2126923 188.8998871
-17.8728905 67.7050400 183.4040070
63.7504883 68.8109283 175.9333496
62.5470505 68.6397934 177.9754944
61.3916206 68.4952316 179.7836151
53.6163177 67.7820816 188.7276154
52.5466309 67.7117920 189.6858215
-11.6143703 68.1213608 189.5814819
-12.6468258 68.2053375 188.6613464
-17.8810902 68.7101288 183.1026459
62.5717316 69.6496506 177.5468445
61.4136810 69.4990921 179.3931732
53.6394768 68.7663116 188.4590149
52.5504227 68.6886902 189.4412994
-11.6156311 69.1126404 189.3233643
-12.6504478 69.1994171 188.3989258
-15.7839670 69.4921646 185.2477417
-16.8521500 69.6054077 184.0266113
-17.8971024 69.7216415 182.7584229
63.8521500 70.8626556 174.9026794
62.6108818 70.6680908 177.0513916
61.4428711 70.5097427 178.9476013
53.6460419 69.7475891 188.1824799
52.5629730 69.6716461 189.1576843
-11.6265030 70.1073456 189.0334625
-12.6641626 70.1969452 188.0982056
-15.7975378 70.4982910 184.9051056
-16.8606224 70.6144638 183.6698303
-17.9154129 70.7379074 182.3800201
62.6536636 71.6932678 176.5011902
61.4776497 71.5264664 178.4468231
53.6701813 70.7398453 187.8541870
52.5738602 70.6580963 188.8425293
-10.6004782 71.0224915 189.6127014
-11.6376982 71.1082611 188.7118530
-12.6735058 71.1995850 187.7675934
-15.8065262 71.5095825 184.5285645
-16.8791332 71.6321564 183.2619629
62.7063522 72.7280731 175.8874664
61.5184174 72.5483856 177.8860931
53.6877060 71.7321167 187.5032501
52.5941124 71.6483154 188.4982605
51.5242615 71.5732574 189.4364319
-10.6036377 72.0182037 189.2743225
-11.6479063 72.1101990 188.3616943
-12.6849442 72.2060547 187.4040222
-15.8190346 72.5252914 184.1081238
62.7705879 73.7760239 175.2024078
61.5468025 73.5760040 177.2856140
60.3916092 73.4184418 179.1223907
59.2550201 73.2770920 180.7633820
51.5436287 72.5657196 189.0717163
-10.6183519 73.0247116 188.9012146
-15.8389969 73.5463257 183.6416931
-16.9177628 73.6808014 182.3279114
61.6044312 74.6186218 176.5820465
60.4214211 74.4440384 178.5148315
59.2886200 74.2989044 180.1974182
51.5589142 73.5569153 188.6878967
50.5039673 73.4890823 189.5847473
-9.6014700 73.9449463 189.3720551
-10.6285963 74.0326538 188.5030823
-15.8435650 74.5706787 183.1538696
60.4793549 75.4845581 177.8228760
59.3254776 75.3266678 179.5793457
51.5789986 74.5580902 188.2686310
50.5159149 74.4822159 189.1769104
-9.6044407 74.9499054 188.9563599
-10.6479282 75.0475464 188.0571136
-13.7655468 75.3580246 185.0168457
-14.8346834 75.4815369 183.8277283
-15.8786039 75.6070175 182.5895844
60.5369949 76.5353699 177.0613098
59.3664665 76.3624954 178.8909912
51.5971603 75.5602341 187.8145447
50.5246887 75.4785614 188.7377014
49.4732895 75.4132309 189.6037292
-8.5856400 75.8805313 189.3433533
-9.6227827 75.9717255 188.4870605
-10.6555023 76.0647888 187.5837402
-13.7862587 76.3899765 184.4679718
-14.8399000 76.5129242 183.2709656
60.6036186 77.5988693 176.2236938
59.4149323 77.4097900 178.1207275
49.4897232 76.4125824 189.1243286
-7.5802865 76.8091660 189.6744232
-8.5879107 76.8904419 188.8769836
-13.7912607 77.4218521 183.8904877
-14.8538885 77.5537033 182.6523743
59.4645195 78.4652634 177.2838135
49.5202293 77.4244995 188.6105499
48.4606934 77.3502121 189.4698486
-7.5840468 77.8259430 189.1813965
-8.6012497 77.9137955 188.3609161
-13.8064718 78.4630051 183.2546539
59.5549622 79.5473022 176.3455963
58.3829346 79.3583221 178.1913605
57.2271347 79.1959229 179.8885498
49.5393486 78.4313812 188.0812378
48.4807892 78.3596497 188.9401245
-6.5552521 78.7565384 189.4535217
-7.5944080 78.8511810 188.6408081
-8.6180229 78.9441376 187.7979584
-11.7434063 79.2660980 184.8703461
-12.7889833 79.3851776 183.7580566
-13.8312569 79.5130463 182.5723267
58.4488297 80.4304047 177.2621155
57.2704544 80.2528763 179.0409546
49.5795364 79.4610519 187.4884796
48.4980965 79.3703918 188.3879395
47.4287910 79.2968216 189.2296143
-5.5429282 79.7019196 189.6520996
-6.5727229 79.7867508 188.8800507
-7.6044879 79.8765945 188.0661774
-8.6199312 79.9736481 187.2115326
-11.7513399 80.3077240 184.2097321
-12.8068504 80.4367523 183.0558472
58.5298309 81.5202866 176.2438049
57.3390274 81.3240356 178.0934753
47.4575424 80.3181915 188.6290131
46.4121780 80.2516861 189.4214325
-5.5544920 80.7293701 189.0640106
-6.5686073 80.8140945 188.2970886
-11.7760487 81.3629608 183.4728546
-12.8303337 81.4995270 182.2864838
57.4124107 82.4072418 177.0717773
47.4828262 81.3416138 188.0045319
46.4309196 81.2707443 188.7977905
45.3716812 81.2036743 189.5661774
-4.5252209 81.6723785 189.2038879
-5.5607829 81.7613983 188.4493256
-6.5891685 81.8549042 187.6510468
-11.7913837 82.4234772 182.6921692
57.4981651 83.5193176 175.9158020
56.3357353 83.3231964 177.7106781
55.1913490 83.1585083 179.3423157
45.3988724 82.2282715 188.9122162
44.3578415 82.1679993 189.6394348
-3.5250735 82.6293182 189.2635803
-4.5424061 82.7134552 188.5499573
-11.8119707 83.4949188 181.8457031
56.4187088 84.4243011 176.6030579
55.2560730 84.2474518 178.2859039
45.4259453 83.2549057 188.2427368
44.3904953 83.1932373 188.9634857
43.3298264 83.1330566 189.6640320
-2.5047750 83.5841522 189.2924194
-3.5244713 83.6646423 188.6030884
-4.5540056 83.7585526 187.8569946
-11.8349638 84.5757446 180.9136658
55.3234711 85.3458023 177.1212463
43.3535233 84.1615677 188.9679565
42.3045425 84.1051559 189.6418152
-1.4862304 84.5433197 189.2651367
-2.5166221 84.6288910 188.5891113
-7.6785989 85.1292572 184.4785004
-8.6960382 85.2443314 183.4926605
-9.7531986 85.3803482 182.3826904
-10.7945271 85.5166779 181.2036896
-11.8605537 85.6748734 179.9087982
55.4116936 86.4743729 175.8120880
43.3841705 85.1977310 188.2384033
42.3313637 85.1375732 188.9136658
41.2910767 85.0856705 189.5503998
-0.4815384 85.5174332 189.1600647
-1.4983499 85.5961456 188.5227509
-2.5221157 85.6825714 187.8353882
-7.6895661 86.2053223 183.5841827
55.5374451 87.6434174 174.3252563
54.3607979 87.4176102 176.1858368
53.2047195 87.2281723 177.8738403
41.3136253 86.1190567 188.7916718
40.2726440 86.0621490 189.4058533
1.5506587 86.4193878 189.5830994
0.5481654 86.4862976 189.0199890
-0.4842474 86.5703583 188.3954315
-7.6986394 87.2901993 182.6182709
53.2873650 88.3572006 176.5165558
41.3638229 87.1837006 187.9668274
40.3045502 87.1123810 188.6063232
39.2645683 87.0616455 189.1856232
2.5729992 87.4005585 189.3556213
1.5433611 87.4745941 188.7944946
0.5344267 87.5491943 188.2145844
-0.4955809 87.6355209 187.5741119
-7.7309661 88.3944626 181.5441437
-8.7472954 88.5264435 180.4270935
53.4130058 89.5410309 174.9804993
52.2248344 89.3284836 176.7174072
51.1121635 89.1650391 178.2328796
39.3003387 88.1120224 188.3628235
38.2439117 88.0606308 188.9201050
37.2150269 88.0187912 189.4305115
4.6121206 88.3218842 189.5748444
3.5870576 88.3894272 189.0718689
2.5715358 88.4586945 188.5410309
1.5385957 88.5403976 187.9618225
-5.6589642 89.2362976 182.5720825
-6.6837707 89.3563614 181.5570984
-7.7442541 89.5047150 180.3996887
-8.7750273 89.6534653 179.1987305
51.1962547 90.3106613 176.7903595
39.3360863 89.1832047 187.4766846
38.2760048 89.1144409 188.0618286
37.2410278 89.0688095 188.5833282
36.1967926 89.0255585 189.0780029
35.1733322 88.9910202 189.5263672
6.6464109 89.2631760 189.6241455
5.6201162 89.3264160 189.1839905
4.6120353 89.3828888 188.7280121
3.5795076 89.4587860 188.2064819
2.5760150 89.5304642 187.6672974
1.5368876 89.6130524 187.0700378
-5.6696877 90.3434906 181.4484558
-6.7076488 90.4808807 180.3568726
-7.7659664 90.6360779 179.1467590
51.3156433 91.4988022 175.2002411
50.1596527 91.2947845 176.8166656
49.0463867 91.1267853 178.2445221
35.2071953 90.0513077 188.6332245
34.1625557 90.0091400 189.0743561
33.1318130 89.9796829 189.4670105
8.6725368 90.2242050 189.5269928
7.6646814 90.2709961 189.1548157
