-6.0367217 43.1865387 182.8988800
55.8747444 44.2925339 177.8869476
54.7064781 44.2235336 179.7460480
53.6354332 44.1472092 181.2527466
52.5277939 44.0791016 182.6803894
49.2157516 43.9085617 186.2915497
48.1757965 43.8628960 187.2224731
47.0984879 43.8229141 188.1547852
45.9796410 43.7808266 189.0729065
-0.8698607 43.8699303 188.9987488
-1.8755127 43.9152565 188.1907806
-2.8979399 43.9591103 187.3141174
-6.0032859 44.1172791 184.2560577
-7.0554886 44.1543694 183.0755463
55.7343941 45.1968613 179.6960449
54.6047897 45.1153831 181.3783264
53.5424728 45.0429840 182.7677307
52.4479790 44.9753571 184.0827484
49.1425095 44.8130646 187.5098267
48.1138611 44.7669449 188.3853760
47.0374718 44.7269516 189.2821198
-1.8752760 44.8194046 189.2876434
-2.8839252 44.8742905 188.4465637
-5.9753399 45.0323982 185.5202179
-7.0175443 45.0826302 184.3954620
56.8356743 46.1749687 179.4196777
55.6426735 46.0888977 181.2801666
54.5170174 46.0094833 182.8375702
51.2549591 45.8191185 186.5822296
50.1227188 45.7649765 187.7093811
49.0734024 45.7218246 188.6506958
48.0513115 45.6717529 189.4929810
-2.8895309 45.7752571 189.5138245
-3.8963528 45.8349113 188.6481476
-4.9421697 45.8901176 187.6827545
-5.9590230 45.9465714 186.6912842
-6.9961834 46.0046158 185.6146698
-8.0569887 46.0561485 184.4332428
56.7213135 47.0703506 181.0163574
55.5499001 46.9796524 182.7131042
54.4316559 46.9027939 184.1627808
51.1778488 46.7223625 187.7316437
50.0468102 46.6713219 188.8143921
-4.9342451 46.8006859 188.7439880
-5.9462328 46.8622208 187.7849579
-6.9748011 46.9197044 186.7445984
-8.0246162 46.9826393 185.6071320
-9.0865898 47.0512619 184.3622437
57.7861519 48.0542450 180.6967316
56.6336212 47.9611702 182.4297028
53.2944984 47.7415085 186.5824127
52.2215843 47.6828156 187.7000275
51.1162186 47.6269836 188.7893066
-5.9444089 47.7701492 188.8058167
-6.9614391 47.8352165 187.8047180
-8.0055456 47.9001884 186.7098846
-9.0514297 47.9729958 185.5277863
57.6955681 48.9451332 182.0996552
56.5557365 48.8561592 183.7192688
53.2315369 48.6440277 187.6615601
52.1539612 48.5882568 188.7391205
-6.9657960 48.7427673 188.7854156
-7.9937315 48.8114929 187.7334442
-9.0404205 48.8834114 186.5985718
-10.1187363 48.9461746 185.3598938
58.7152786 49.9317245 181.7645264
57.6058960 49.8423615 183.3941956
56.4712601 49.7554016 184.9185333
55.3185921 49.6736069 186.3418274
54.2092285 49.6090088 187.6017456
53.1658554 49.5474586 188.6725311
-7.9826803 49.7235107 188.7088318
-9.0263138 49.7991257 187.5976715
-10.0885916 49.8671684 186.4018860
-11.1426268 49.9268456 185.1653442
59.7306061 50.9241104 181.3487854
58.6284790 50.8268890 183.0272675
57.5306625 50.7371712 184.5552979
56.4062271 50.6552353 185.9981689
55.2459297 50.5811539 187.3833618
54.1468811 50.5122299 188.5849304
-9.0133476 50.7137413 188.5424652
-10.0672903 50.7891655 187.3806763
-11.1112671 50.8575935 186.1785126
59.6437721 51.8214722 182.5849915
58.5477371 51.7228279 184.1815033
57.4564934 51.6389999 185.6325073
56.3316727 51.5570145 187.0183105
55.1882629 51.4850235 188.3368530
54.0882492 51.4126205 189.5142365
-9.0100794 51.6201782 189.4331665
-10.0534573 51.7021561 188.2943878
-11.0852814 51.7793198 187.1275635
59.5755615 52.7190361 183.7099457
58.4777832 52.6214218 185.2416534
57.3796692 52.5406456 186.6439209
56.2649155 52.4634514 187.9679260
55.1277351 52.3869743 189.2386322
-10.0524082 52.6132431 189.1572266
-11.0737553 52.6967163 188.0069580
-12.1274605 52.7686157 186.7861481
61.8618050 53.8395844 181.0369568
60.6742439 53.7223701 183.0074921
59.4984589 53.6160164 184.7716675
58.4011078 53.5273895 186.2449646
57.3223991 53.4428291 187.5622559
56.2064819 53.3676834 188.8480530
-11.0590839 53.6130981 188.8543549
-12.1041727 53.6945953 187.6508636
61.7739563 54.7394180 182.1974487
60.6046219 54.6215668 184.0595398
59.4313812 54.5173187 185.7415619
58.3430023 54.4280014 187.1451874
57.2588806 54.3496284 188.4348145
-12.0844479 54.6150742 188.4644318
62.8673973 55.7555122 181.3100586
61.6906509 55.6400833 183.2702332
60.5430222 55.5220757 185.0154114
59.3604279 55.4217148 186.6490784
58.2740593 55.3353691 188.0074768
57.1990776 55.2544785 189.2573395
-12.0837164 55.5331841 189.2190552
-13.1142540 55.6219101 188.0056458
62.7817459 56.6561852 182.3721619
61.6371269 56.5364990 184.2081146
60.4687424 56.4263382 185.9221954
59.3064003 56.3268967 187.4742889
58.2310982 56.2396660 188.7850037
-13.1041002 56.5444565 188.7353363
62.7086105 57.5605774 183.3411713
61.5616837 57.4407654 185.1145172
60.4038620 57.3331680 186.7534485
59.2535324 57.2360840 188.2481995
-13.0976009 57.4631653 189.4409637
63.7851410 58.5844116 182.3756714
62.6454277 58.4619217 184.2218323
61.5005264 58.3453293 185.9344940
60.3529892 58.2392693 187.5079803
59.2033272 58.1422043 188.9770660
63.7082291 59.4928970 183.2639465
62.5848045 59.3689499 185.0447845
61.4369774 59.2550774 186.7097473
60.3011703 59.1489029 188.2224121
-14.1395092 59.4074707 189.4659729
63.6422577 60.3996201 184.0827942
62.5351868 60.2768326 185.7938690
61.3814774 60.1655235 187.4217529
60.2608490 60.0589066 188.8839111
-15.1642914 60.4373932 188.7791138
63.5868797 61.3089523 184.8315582
62.4744720 61.1860199 186.5045929
61.3354416 61.0755310 188.0691986
-15.1520023 61.3646126 189.3596649
64.7224884 62.3532982 183.6175690
63.5401115 62.2196846 185.5125732
62.4267235 62.0995331 187.1459045
61.2975502 61.9886703 188.6667175
64.6544647 63.2689285 184.3106689
63.4869385 63.1325455 186.1538391
62.3797493 63.0134468 187.7377167
61.2477493 62.9019699 189.2499847
-16.1815033 63.3337593 189.0768127
65.8414154 64.3325272 182.9072571
64.6026306 64.1817856 184.9474945
63.4334488 64.0475922 186.7463989
62.3335419 63.9300995 188.2923584
64.5639496 65.1012573 185.5036926
63.3973465 64.9657440 187.2769928
62.2973824 64.8468018 188.8023376
65.7050552 66.1763535 184.0704956
64.5210648 66.0208359 186.0335693
63.3645287 65.8860550 187.7607880
62.2664452 65.7656403 189.2684021
66.8747559 67.2678680 182.4313812
65.6700134 67.0976868 184.5796051
64.4822998 66.9424362 186.5126343
63.3278885 66.8082352 188.2046509
-17.2143593 67.1989975 189.4059448
66.8274231 68.1897736 182.9581909
65.6356201 68.0212402 185.0432129
64.4441376 67.8668365 186.9473419
63.3007278 67.7329559 188.6022186
66.7858505 69.1172256 183.4190674
65.5942993 68.9469147 185.4840088
64.4110870 68.7929077 187.3424683
63.2728195 68.6584015 188.9761658
66.7367783 70.0443726 183.8588257
65.5545044 69.8741837 185.8814240
64.3862152 69.7221832 187.6889648
63.2630310 69.5859146 189.2990112
66.7166138 70.9766693 184.2096863
65.5326920 70.8067093 186.2022400
64.3530350 70.6534424 188.0098114
-18.2548046 71.1069794 189.2042084
66.6937103 71.9129486 184.5131531
65.5146790 71.7427979 186.4812775
64.3408432 71.5877304 188.2706146
67.8862305 73.0446014 182.5811615
66.6632614 72.8517990 184.7847443
65.4876785 72.6790848 186.7462921
64.3194809 72.5238342 188.5139771
67.8641739 73.9887238 182.8255920
66.6425018 73.7931290 185.0169678
65.4671783 73.6191711 186.9628448
64.3074265 73.4634247 188.7081604
66.6211700 74.7368164 185.2151184
65.4527740 74.5627899 187.1324768
64.2911835 74.4042358 188.8874817
66.6076965 75.6851349 185.3571320
65.4363632 75.5090790 187.2711182
64.2844086 75.3489227 189.0198364
66.6025772 76.6383820 185.4465942
66.5774918 77.5908585 185.5391846
66.5809860 78.5519714 185.5434875
66.5848999 79.5173950 185.5049896
66.5933685 80.4872437 185.4261627
66.6002426 81.4597473 185.3211212
66.6201935 82.4396057 185.1693726
65.4198914 82.2348175 187.1592560
64.2871094 82.0589676 188.9360657
66.6366577 83.4228439 184.9781952
65.4318848 83.2128067 186.9815063
64.2931137 83.0326233 188.7782135
66.6558685 84.4133835 184.7288666
65.4540405 84.1969910 186.7522430
64.2909241 84.0074234 188.6001587
66.7021332 85.4162369 184.4057617
65.4712067 85.1855469 186.4957275
64.3101349 84.9910660 188.3540039
65.4885712 86.1799545 186.1934509
64.3338928 85.9826889 188.0522003
65.5205688 87.1829681 185.8242950
64.3446426 86.9752197 187.7337189
63.2246704 86.7991257 189.4643402
65.5665817 88.1957932 185.4035950
64.3653870 87.9745941 187.3644257
63.2371407 87.7913513 189.1166077
65.6297836 89.2209015 184.9303589
64.4104309 88.9882813 186.9303894
63.2559891 88.7911224 188.7278137
64.4526520 89.9961700 186.4795990
63.2813416 89.7965088 188.2880249
64.4985809 91.0308228 185.9360657
63.3082962 90.8109283 187.8018646
64.5473862 92.0618134 185.3592529
63.3512573 91.8361816 187.2525330
62.2240372 91.6436768 189.0056763
63.3939133 92.8690338 186.6511841
62.2487106 92.6645660 188.4530029
63.4252205 93.9042053 186.0164337
62.2909241 93.6949005 187.8294373
63.5119934 94.9714050 185.2465210
62.3298645 94.7337494 187.1596985
61.1984978 94.5406799 188.9091949
62.3929710 95.7903519 186.4038544
61.2243385 95.5714569 188.2449493
62.4498634 96.8570709 185.5938873
61.2696266 96.6228638 187.4968872
60.1717987 96.4407120 189.1690521
62.5383339 97.9482880 184.6658325
61.3244743 97.6849518 186.6705933
60.2000465 97.4850922 188.4069519
61.3885880 98.7663116 185.7676239
60.2538567 98.5449371 187.5591431
59.1273193 98.3524551 189.2520294
61.5038528 99.8860397 184.7330933
60.3061295 99.6231079 186.6615753
59.1635132 99.4108429 188.3919678
59.2215500 100.4874573 187.4659729
58.1202316 100.3029327 189.0599213
59.2956314 101.5882568 186.4593811
58.1640549 101.3703461 188.1212158
59.4059143 102.7247772 185.3156738
58.2403641 102.4706039 187.0723724
57.1047363 102.2741623 188.7077026
58.3203583 103.5924759 185.9396973
57.1685371 103.3660583 187.6402283
56.0687408 103.1906586 189.1785583
57.2388802 104.4827576 186.4984741
56.1113930 104.2774811 188.1008759
57.3440857 105.6446304 185.1894226
56.1828003 105.3998795 186.9164886
55.0672417 105.2016830 188.4669189
56.2930603 106.5439911 185.6617584
55.1404037 106.3286819 187.2646942
54.0439339 106.1424942 188.7353973
55.2373657 107.4906464 185.9310913
54.1023102 107.2656174 187.5029907
53.0273247 107.1023865 188.9245300
54.1795731 108.4238892 186.1594696
53.0880318 108.2117767 187.6462708
51.9851036 108.0586243 189.0398560
53.1852341 109.4032822 186.1647339
52.0369225 109.1834564 187.7033844
50.9703369 109.0407104 189.0093231
53.2651863 110.5987473 184.5839539
52.1170425 110.3574448 186.2135468
51.0257454 110.1748352 187.6229858
49.9460068 110.0216904 188.9217987
-4.1124148 110.8471985 188.3260193
53.4073753 111.8741531 182.7014465
52.2261696 111.5771942 184.5238495
51.1082611 111.3573837 186.0837097
49.9982452 111.1638107 187.4965973
48.9309120 111.0150833 188.7377472
-2.0819817 111.6511841 189.2354126
-3.1235008 111.8428497 188.0827942
51.2443733 112.6155701 184.3515015
50.0929947 112.3623810 185.9063721
49.0023346 112.1749649 187.2333221
47.9099236 112.0249176 188.4578552
49.1019058 113.3975372 185.5458069
47.9835815 113.2052917 186.8944855
46.9078789 113.0509949 188.0900269
45.8419037 112.9206085 189.1841583
-0.0531571 113.6674805 188.5134277
-1.0850437 113.8532944 187.4227142
49.2280426 114.6764603 183.5976410
48.0841255 114.4293823 185.1184387
46.9847755 114.2510605 186.4299011
45.9037170 114.0945282 187.5954590
44.8310776 113.9549637 188.6801910
1.9817868 114.5399399 188.9735565
0.9602112 114.7002563 187.9888611
48.2319374 115.7581253 183.0242920
47.1056480 115.5306702 184.5218811
45.9964905 115.3286285 185.8248901
44.9107513 115.1561050 187.0104675
43.8523941 115.0210114 188.0580444
42.7835617 114.9129562 189.0251312
4.0071454 115.4436798 189.2196655
3.0045485 115.5854950 188.3369446
1.9778111 115.7520752 187.3593750
46.1087799 116.6159286 183.7872467
45.0087967 116.4107895 185.1103363
43.9345551 116.2461929 186.2823639
42.8423462 116.0984192 187.3464355
41.7887497 115.9880753 188.2601318
40.7290344 115.8891449 189.1272278
6.0426111 116.3769836 189.2517548
5.0426035 116.4972229 188.4744720
4.0140500 116.6551285 187.5798492
46.2573280 118.0087891 181.3042450
45.1241608 117.7297897 182.8906860
44.0435257 117.5359344 184.2147827
42.9388161 117.3643875 185.4030151
41.8624802 117.2110748 186.4456024
40.8013115 117.0933762 187.3716736
39.7524834 116.9821320 188.2285004
38.7016487 116.8982162 188.9870453
8.0827818 117.3250275 189.1026611
7.0759525 117.4548645 188.3738098
6.0480003 117.6022034 187.5630188
5.0385051 117.7505875 186.7089539
41.9689255 118.5172882 184.3324890
40.8854523 118.3585052 185.4039459
39.8325806 118.2289429 186.3406677
38.7647018 118.1094360 187.1929321
37.7106857 118.0194473 187.9282837
36.6681519 117.9406128 188.5987396
35.6308212 117.8714294 189.2036285
11.1349583 118.2369766 189.2389526
10.1283379 118.3296356 188.6690216
9.1236067 118.4513550 188.0240631
8.0942163 118.5795441 187.3138733
7.0846152 118.7175140 186.5496521
6.0522251 118.8784103 185.6738739
41.0013428 119.7091217 183.0857544
39.9301682 119.5379028 184.1716461
38.8528366 119.4029770 185.1221008
37.7927246 119.2885208 185.9530945
36.7369766 119.1851578 186.7052002
35.6925583 119.0960999 187.3759460
34.6565628 119.0213013 187.9660339
33.5946083 118.9638519 188.4959106
32.5726204 118.9128265 188.9562683
31.5351028 118.8786163 189.3592834
15.2101631 119.1177826 189.3679504
14.2061768 119.1889038 188.9730225
13.1881447 119.2719574 188.5184326
12.1836395 119.3665619 188.0139923
11.1604624 119.4715805 187.4354401
10.1473646 119.5877533 186.8103638
9.1309052 119.7239685 186.1060638
38.9773636 120.7841949 182.6957092
37.8889656 120.6289063 183.6402740
36.8316231 120.5047073 184.4902496
35.7792282 120.3988037 185.2646637
34.7383461 120.3084412 185.9332886
33.6690178 120.2278671 186.5329590
32.6393585 120.1699677 187.0224609
31.5887718 120.1084442 187.4885254
30.5679722 120.0637970 187.8766785
29.5291901 120.0316162 188.1963654
28.4915714 120.0064545 188.4700317
27.4693718 119.9885941 188.7020721
26.4425602 119.9959946 188.8473663
25.4339714 119.9828644 188.9821472
24.3935127 119.9886551 189.0547638
23.3821983 120.0016403 189.0744781
22.3557987 120.0191269 189.0528717
21.3468723 120.0502167 188.9721375
20.3208447 120.0849533 188.8483429
19.3055840 120.1153870 188.6908569
18.2950611 120.1657104 188.4688416
17.2764015 120.2230072 188.2062988
16.2661762 120.2899323 187.8916168
15.2399197 120.3658600 187.5169220
14.2361021 120.4544525 187.0830383
13.2092171 120.5497131 186.5836182
12.2065945 120.6438522 186.0251617
11.1865263 120.7631226 185.3683472
-20.7965660 156.0674744 -27.6114731
-22.1249313 156.1793518 -28.1899834
-23.4480991 156.2986298 -28.7946949
-24.7561302 156.4235382 -29.4351501
38.0268402 122.1093140 180.7847595
36.9348488 121.9027710 181.8337097
35.8734016 121.7695770 182.7561646
34.8260918 121.6586304 183.5518646
33.7543411 121.5558090 184.2483063
32.7146034 121.4871063 184.8123779
31.6613693 121.4225082 185.3410034
30.6392937 121.3735199 185.7782288
29.6025562 121.3245544 186.1573486
28.5574188 121.2869797 186.4665375
27.5365200 121.2652283 186.7008972
20.3687916 121.3524475 186.8952942
19.3395424 121.3941269 186.7240143
18.3295517 121.4545288 186.4798431
17.3155918 121.5204086 186.1829224
16.3001862 121.5918579 185.8342743
15.2651215 121.6830292 185.3986206
14.2660065 121.7851028 184.8916016
-20.7936592 157.2463379 -27.0006561
-24.7340469 157.6118469 -28.8132267
-26.0552044 157.7566223 -29.5422878
31.7638626 122.8227615 182.7385406
30.7378788 122.7575684 183.2757874
29.6890564 122.7024231 183.7283325
28.6374741 122.6670532 184.0802612
27.6023788 122.6309891 184.3738708
20.4174461 122.7062225 184.6144714
19.3922558 122.7546844 184.4075623
18.3815746 122.8124695 184.1392975
17.3537388 122.8899078 183.7739868
-19.4827938 158.3287048 -25.8993530
-20.7700500 158.4336548 -26.3994713
-24.7260151 158.7975159 -28.2213345
-26.0488663 158.9409790 -28.9308338
-27.3609352 159.0910339 -29.6885414
-28.7063828 159.2477570 -30.5146427
-30.0293179 159.4092255 -31.3812790
-31.3857346 159.5877075 -32.3462944
27.6912003 124.0737457 181.5023651
26.6531792 124.0386047 181.7895203
25.6247444 124.0148087 181.9989014
24.5798874 124.0193481 182.1079865
23.5555477 124.0340271 182.1491394
22.5305996 124.0553818 182.1185303
21.5226288 124.0855484 182.0179291
20.4816208 124.1401215 181.8284912
-15.5468302 159.2497711 -24.1150417
-18.1664429 159.4212341 -24.9061756
-19.4664726 159.5182800 -25.3585052
-20.7734413 159.6222229 -25.8633099
-30.0151596 160.6014404 -30.7992134
-31.3721352 160.7841187 -31.7621727
-32.6968040 160.9743652 -32.7549744
-34.0566330 161.1798859 -33.8570862
-35.4140320 161.3981171 -35.0367699
-36.7605515 161.6307068 -36.2964478
-38.1520844 161.8856812 -37.6964645
-15.5537510 160.4378052 -23.6110744
-16.8726540 160.5265503 -23.9882545
-18.1716900 160.6128540 -24.4090118
-19.4698582 160.7140503 -24.8686218
-20.7678642 160.8189697 -25.3639336
-30.0017948 161.7996826 -30.2476521
-31.3523521 161.9796448 -31.1916313
-32.6744995 162.1694946 -32.1749344
-34.0191040 162.3745270 -33.2568626
-35.3883972 162.5961456 -34.4384727
-36.7112465 162.8293915 -35.6660233
-38.1157341 163.0877228 -37.0808258
-39.4774055 163.3621521 -38.5632515
-40.8827591 163.6681976 -40.2401237
-42.2816238 163.9896545 -42.0310745
40.8519402 164.4574585 -45.2220879
39.4136581 164.1143036 -43.0444717
38.0514679 163.8153839 -41.1623383
-12.9346523 161.4769897 -22.4794617
-14.2543373 161.5548553 -22.8029099
-15.5508394 161.6353455 -23.1405697
-40.8634415 164.8704529 -39.6415596
-42.2378006 165.1946411 -41.4011879
-43.7000275 165.5518036 -43.4066238
43.6968765 166.4902649 -49.7638512
42.2151985 166.0154266 -46.8654518
40.8069649 165.6360474 -44.5108719
39.3943100 165.2955017 -42.3875427
38.0372849 164.9971924 -40.5300446
36.6436958 164.7224274 -38.7830772
35.2915840 164.4802856 -37.2443466
33.9413490 164.2614441 -35.8376122
32.5966949 164.0596771 -34.5344696
31.2625160 163.8746490 -33.3259125
29.9008675 163.6998596 -32.1696587
28.6018906 163.5444031 -31.1538887
27.2569542 163.4002228 -30.1676960
25.9631939 163.2645264 -29.2808723
-12.9416561 162.6818085 -22.0618553
-14.2572155 162.7570496 -22.3792782
-15.5429773 162.8371735 -22.7099190
-40.8463860 166.0777893 -39.0733185
-42.2140846 166.4012909 -40.8187828
43.6019592 167.6611328 -48.9800072
42.1655769 167.2044983 -46.2035561
27.2540722 164.5995331 -29.7268524
25.9332371 164.4688721 -28.8302155
24.6172619 164.3444672 -27.9929638
23.3034668 164.2286682 -27.2056408
-12.9416533 163.8912659 -21.6872425
-40.8265991 167.2932434 -38.5648193
-42.1968346 167.6181030 -40.3000946
43.5675697 168.8526459 -48.3356514
42.1379776 168.3977661 -45.5959969
27.2362919 165.8050385 -29.3039875
25.9370842 165.6735840 -28.4261112
24.6023617 165.5498352 -27.5825558
23.2839222 165.4368591 -26.8080082
21.9889336 165.3354187 -26.1022110
20.7136765 165.2337189 -25.4094219
-10.3704834 164.9722748 -20.8435478
-11.6686163 165.0340881 -21.0757980
-12.9549122 165.1027222 -21.3430061
-40.8164902 168.5196686 -38.1336212
-42.1759377 168.8434143 -39.8413277
-43.6198158 169.2084351 -41.8031311
43.5411606 170.0539398 -47.7622604
42.1222763 169.6045380 -45.0762825
21.9777374 166.5469971 -25.7440948
20.6670208 166.4464874 -25.0530853
-10.3596287 166.1867371 -20.5110435
-40.8025436 169.7538910 -37.7470818
-42.1767616 170.0812531 -39.4638710
-43.6079330 170.4434509 -41.3894119
45.0051346 171.7905579 -50.3698730
43.5414047 171.2760468 -47.3161621
42.0956192 170.8207245 -44.6092911
21.9573631 167.7633820 -25.4240379
20.6585732 167.6682129 -24.7614155
19.3582916 167.5796051 -24.1352367
18.0352840 167.4988861 -23.5488338
-9.0624199 167.3445740 -20.0060406
-10.3700333 167.4050751 -20.2157211
-40.8004379 170.9981232 -37.4252968
-42.1556206 171.3224335 -39.1112518
44.9826813 173.0194244 -49.9370499
43.5209274 172.5031281 -46.9056549
42.0854111 172.0507507 -44.2387085
19.3492203 168.8030090 -23.8646069
18.0361996 168.7224731 -23.2865238
16.7436943 168.6506805 -22.7551956
-9.0757685 168.5721741 -19.7638817
-10.3658676 168.6304779 -19.9602356
-40.7921104 172.2503967 -37.1510696
-42.1545944 172.5773926 -38.8401108
-43.5722542 172.9451294 -40.7533340
44.9608917 174.2565308 -49.5594749
43.5038834 173.7438812 -46.5760651
42.0710449 173.2925415 -43.9350662
19.3465805 170.0295868 -23.6174126
18.0174847 169.9478455 -23.0336075
16.7386208 169.8789978 -22.5250111
15.4424973 169.8160248 -22.0484924
14.1579361 169.7565155 -21.5938683
-9.0722389 169.8032837 -19.5477009
-10.3713303 169.8618622 -19.7415981
-40.7851563 173.5102234 -36.9242401
-42.1439896 173.8384857 -38.6065826
-43.5586815 174.2122040 -40.5351448
43.4915886 174.9971313 -46.3228607
42.0485878 174.5426025 -43.6819534
14.1379976 170.9867249 -21.3816261
-3.9015763 170.8548584 -18.8312931
-9.0753813 171.0360260 -19.3412189
-10.3687506 171.0955811 -19.5414448
-11.6650276 171.1629333 -19.7819157
-12.9472322 171.2336121 -20.0412960
-14.2439804 171.3090820 -20.3296013
-15.5396652 171.3931885 -20.6608982
-43.5476952 175.4853058 -40.3555603
43.4731331 176.2597351 -46.1219559
42.0526772 175.8095398 -43.5234222
14.1396065 172.2231445 -21.2012196
12.8451614 172.1713562 -20.7902985
11.5640993 172.1301880 -20.4301224
10.2660990 172.0873260 -20.0817871
8.9681988 172.0610504 -19.8078671
-0.0729386 172.0182953 -18.6741371
-1.3394382 172.0344696 -18.6397686
-2.6292133 172.0591583 -18.6437893
-3.9158204 172.0908356 -18.6870079
-5.2071271 172.1235352 -18.7365837
-10.3677225 172.3322449 -19.3648930
-14.2592421 172.5501862 -20.1627769
-15.5377684 172.6341095 -20.4921818
-43.5622444 176.7756805 -40.2698364
43.4583359 177.5342255 -45.9934883
42.0354996 177.0774689 -43.3773079
8.9650745 173.2979736 -19.6476574
7.6664801 173.2788086 -19.4111748
6.3604732 173.2571411 -19.1643906
5.0876951 173.2413788 -18.9596233
3.7897694 173.2396545 -18.8110180
-1.3364290 173.2744141 -18.4945984
-2.6474094 173.3039551 -18.5067253
-10.3812523 173.5803986 -19.2329617
-14.2588358 173.7971954 -20.0252457
-15.5431824 173.8817444 -20.3594913
-40.7786446 177.3429108 -36.5541458
-42.1503334 177.6861572 -38.2751007
-43.5609589 178.0735168 -40.2291298
43.4661446 178.8325806 -45.9924202
42.0348511 178.3636169 -43.3325119
8.9470205 174.5413666 -19.5220699
7.6680484 174.5204468 -19.2694511
6.3492594 174.4986877 -19.0308304
5.0802836 174.4877930 -18.8459492
3.7820244 174.4854431 -18.7053032
-9.0803604 174.7664490 -18.9267654
-10.3750973 174.8253784 -19.1190395
-11.6780167 174.8973083 -19.3550491
-12.9571638 174.9683533 -19.6228714
-14.2503920 175.0494385 -19.9228859
-15.5368423 175.1341705 -20.2555351
-40.8038025 178.6473999 -36.5719147
-42.1575623 178.9909210 -38.2883110
-43.5725670 179.3873138 -40.2699356
43.4723816 180.1445160 -46.0605812
42.0232086 179.6606140 -43.3473511
3.7877309 175.7385406 -18.6291237
2.5109987 175.7379913 -18.4989529
1.2218226 175.7403564 -18.3878288
-0.0722743 175.7528687 -18.3249474
-7.7963877 175.9689331 -18.6808968
-9.0696936 176.0166321 -18.8406658
-10.3776741 176.0800781 -19.0435219
-40.8100204 179.9555664 -36.6174393
-42.1627350 180.3053284 -38.3516846
43.4822311 181.4653168 -46.1698914
42.0262146 180.9753723 -43.4505310
3.7846358 176.9921722 -18.5713882
2.5087383 176.9920044 -18.4380970
1.2216762 176.9959259 -18.3358536
-0.0689996 177.0133514 -18.2847557
-1.3492947 177.0352631 -18.2672329
-2.6506870 177.0582581 -18.2639580
-3.9371667 177.0855865 -18.3038559
-5.2479591 177.1338043 -18.3890972
-6.5021315 177.1690369 -18.4908638
-7.7921629 177.2214050 -18.6313076
-9.0961475 177.2846985 -18.8018265
-10.3878307 177.3428650 -19.0025539
-40.8061485 181.2710114 -36.7014275
-42.1717987 181.6310272 -38.4740791
43.5060768 182.8086853 -46.3917694
42.0301094 182.3013000 -43.6182442
-40.8179855 182.6019592 -36.8656654
-42.1868668 182.9708405 -38.6656036
43.5278778 184.1768646 -46.7363625
42.0400162 183.6480865 -43.8852196
-40.8322639 183.9461670 -37.0876617
-42.2044792 184.3212585 -38.9129410
43.5298691 185.5552521 -47.1459312
42.0319176 185.0035706 -44.2130814
-40.8490524 185.2994080 -37.3679390
42.0480843 186.3884125 -44.6616783
-40.8797989 186.6744232 -37.7404823
-42.2747498 187.0805206 -39.6355019
42.0649986 187.7879028 -45.1967125
-38.1410561 187.3377533 -34.7510376
-39.4957924 187.6730042 -36.3450508
-40.9043503 188.0620117 -38.1651001
42.1226082 189.2266235 -45.8670120
-38.1403275 188.7076111 -35.1367340
-39.5074463 189.0578003 -36.7916946
42.1552887 190.6707611 -46.5766754
40.7351036 190.1434937 -43.8170509
39.2974663 189.6734619 -41.3573837
-38.1811256 190.1078491 -35.6456451
-39.5513039 190.4723206 -37.3496513
39.3334274 191.1018524 -42.0288620
-38.1908913 191.5115051 -36.1884460
-39.5801086 191.8973236 -37.9463882
39.3516350 192.5430603 -42.7597160
35.2112236 191.4051971 -36.6996307
33.8637199 191.1143341 -35.1118164
32.5023079 190.8387756 -33.6403618
31.1771374 190.6018219 -32.3196373
-35.4827957 192.2470398 -33.6669388
-36.8355255 192.5728149 -35.1538925
-38.2241554 192.9405212 -36.8482704
39.3683128 194.0164795 -43.6496658
35.2395134 192.8226776 -37.3296394
33.8897629 192.5214691 -35.6820450
32.5199776 192.2335968 -34.1744537
31.1945400 191.9864960 -32.8302116
-35.5172348 193.6687012 -34.2901764
-36.8624153 194.0021820 -35.8323135
39.4121437 195.5318298 -44.6935081
38.0188065 195.0437164 -42.2273865
36.6243477 194.6193542 -39.9936600
35.2632217 194.2588196 -38.0348969
31.2130356 193.3919067 -33.4047661
-35.5523758 195.1098328 -35.0008698
-36.8969498 195.4573059 -36.6016769
-38.3125114 195.8728333 -38.4336472
38.0582809 196.5561218 -43.2713165
36.6456451 196.0945587 -40.9194298
35.2702866 195.7109680 -38.8606148
31.2180557 194.7934570 -34.0201263
-35.5942154 196.5768433 -35.8110809
-36.9494705 196.9466553 -37.4874268
36.6655197 197.5991821 -41.9595757
35.2868195 197.1894836 -39.8017464
33.9321556 196.8384705 -37.9310989
32.5690231 196.5131378 -36.2343903
31.2375469 196.2327423 -34.7463455
-35.6211090 198.0557556 -36.6978760
-36.9961929 198.4541931 -38.4585190
36.7107162 199.1483154 -43.1879654
35.3085518 198.6926880 -40.8600998
33.9485207 198.3173065 -38.8836060
32.5970764 197.9835815 -37.1204872
31.2544479 197.6768951 -35.5469894
-35.6707191 199.5700684 -37.7222214
36.7832756 200.7620392 -44.5869331
35.3401375 200.2478638 -42.1099930
33.9743538 199.8384399 -39.9928856
-30.2459984 199.7117767 -32.7782745
-31.6090698 200.0168152 -34.0778961
-32.9642067 200.3442078 -35.4926834
-34.3294678 200.7055054 -37.0824661
-35.7192459 201.1149597 -38.8586159
35.3813248 201.8404541 -43.4864540
34.0062943 201.3887482 -41.2364960
-30.2842197 201.2029114 -33.7295341
-31.6539612 201.5248413 -35.0940056
-32.9890556 201.8559723 -36.5586739
-34.3910408 202.2686615 -38.2920723
34.0581551 202.9947510 -42.6796227
32.6691818 202.5541382 -40.5280991
31.3244724 202.2034607 -38.6912460
-30.3140831 202.7227478 -34.7804756
-31.6888351 203.0641785 -36.2406921
32.7088928 204.1709900 -42.0330734
31.3571587 203.7768555 -40.0524368
-30.3588867 204.2748108 -35.9791489
-31.7253666 204.6359711 -37.5660210
32.7883492 205.8735199 -43.7920227
31.3856144 205.3954620 -41.5868225
29.9961472 204.9984283 -39.6094055
28.6638298 204.6820374 -37.9510117
-27.6975403 205.1945190 -34.5338821
-29.0873909 205.5359802 -35.9070435
-30.4034691 205.8586273 -37.3285294
-31.7859497 206.2655640 -39.0415955
31.4715614 207.1109314 -43.3935547
30.0450668 206.6492615 -41.2644577
28.6895752 206.2891998 -39.4313164
-27.7602940 206.8023224 -35.8981094
-29.1309223 207.1344299 -37.3243790
-30.4640217 207.4989777 -38.8717194
30.0831928 208.3506470 -43.1457367
28.7174759 207.9458313 -41.1379585
27.3686733 207.5864105 -39.3396873
26.0424042 207.2787323 -37.7745132
-25.0985069 207.7822571 -34.7832260
-26.4583149 208.0875397 -36.0243988
-27.7930412 208.4110107 -37.3720131
-29.1816330 208.8043518 -38.9633179
28.7932758 209.7099304 -43.1383591
27.3903313 209.2587891 -41.1316223
26.0742798 208.9382477 -39.4571190
-25.1506577 209.4187317 -36.3055573
-26.5108185 209.7408752 -37.6442909
27.4513931 211.0331116 -43.2421303
26.0942459 210.6250763 -41.3454208
24.7429428 210.3001404 -39.6866341
23.4008102 210.0126953 -38.2066803
-22.5206871 210.4784851 -35.5520058
-23.8657551 210.7778473 -36.7372208
-25.1972923 211.0927734 -38.0292740
26.1787643 212.4804840 -43.6791229
24.7851563 212.0491791 -41.7403069
23.4208755 211.7084351 -40.0936241
-22.5614510 212.1598206 -37.3153801
-23.9006252 212.4748077 -38.5812416
-25.2644653 212.8544464 -40.0170326
23.4681435 213.5214539 -42.3797493
22.1104851 213.1723938 -40.7255478
20.7884140 212.8968506 -39.3064575
-17.2868233 212.8436432 -35.0561485
-18.5897331 213.0519104 -35.8996773
-19.9472904 213.3258972 -36.9466629
-21.2562218 213.6009064 -38.1001892
-22.5919495 213.9615479 -39.5091095
22.1591434 215.0403595 -43.2110863
20.8089237 214.6682739 -41.5423508
-17.3304157 214.5529480 -36.9088440
-18.6380768 214.7900391 -37.8625603
20.8906403 216.6623688 -44.3488083
19.5306664 216.2789001 -42.6941032
18.1571846 215.9520874 -41.2152405
16.8423023 215.7407990 -40.0475349
15.5096207 215.5222473 -38.9409370
-12.0523129 215.4618378 -35.8158455
-13.3687029 215.6531372 -36.4771233
-14.7102680 215.8608704 -37.2448807
-16.0256500 216.0800018 -38.0955124
-17.3620892 216.3302155 -39.0721588
-18.6868057 216.6226349 -40.1583138
18.2252903 217.9706726 -44.1369324
16.8740883 217.6337280 -42.7060776
15.5322428 217.3619385 -41.4279823
-12.0919895 217.2635345 -37.9740486
-13.4010668 217.4538879 -38.7003784
-14.7476082 217.6844025 -39.5691910
-16.0720844 217.9546814 -40.5450134
-17.4334641 218.2813263 -41.7024879
15.5862894 219.4296265 -44.5158539
14.2563686 219.1239624 -43.1723557
12.9127245 218.8705444 -42.0750504
11.5712376 218.6869202 -41.1076965
10.2598324 218.5370941 -40.2635155
8.9360180 218.4113922 -39.5820732
7.6327214 218.3187103 -39.0152435
-1.5698605 218.1741333 -37.3893280
-2.8928542 218.2010803 -37.4367790
-4.1966248 218.2844238 -37.6261177
-5.5373011 218.3910828 -37.9071617
-6.8314548 218.4865112 -38.2230263
-8.1665297 218.6196289 -38.6567230
-9.4757996 218.7610779 -39.1598206
-10.8043327 218.9312592 -39.7707863
-12.1240835 219.1280670 -40.5010681
-13.4471083 219.3745270 -41.3944321
8.9446831 220.3653259 -42.4962730
7.6300559 220.2281342 -41.7932625
-1.5897839 220.0374451 -39.9036789
-2.9153323 220.1103363 -40.0332718
-4.2288132 220.1831360 -40.2201385
-5.5565672 220.2907867 -40.5211945
-6.8508596 220.3956146 -40.9023666
7.6692657 222.4280090 -45.4269257
6.3166637 222.2421417 -44.6473312
5.0055075 222.1210175 -44.1037369
3.6746771 222.0488739 -43.6413193
2.3599210 222.0066986 -43.3436737
1.0324514 222.0029907 -43.1643753
-0.2903221 222.0272522 -43.0784149
-1.6016195 222.0600586 -43.0897522
-2.9241915 222.1325378 -43.2451096
-6.8895493 222.5279999 -44.3418274
2.3875780 224.4553986 -48.0211487
23.2662182 28.0969582 168.0436707
22.7392235 28.0950279 168.0730591
22.2360096 28.0945263 168.0885010
21.7302475 28.1037464 168.0928345
21.2066879 28.0978603 167.9776154
20.6873016 28.0985413 167.8222656
30.0685253 29.0474606 170.1490936
29.5407276 29.0527668 170.4787903
29.0095291 29.0538425 170.7664642
28.4623489 29.0574093 171.0384521
27.9023342 29.0782299 171.3222046
17.0032883 29.0449257 171.1417236
16.4878521 29.0274963 170.8770447
15.9663620 29.0209942 170.5826721
33.6861229 30.0182610 171.3549957
33.1237526 30.0403175 171.8356628
13.8464804 29.9814548 173.0201569
13.3212366 29.9748669 172.6897888
12.7999763 29.9713116 172.3382568
12.2966261 29.9748611 171.9911804
36.2616615 30.5204906 170.7980804
37.2663612 31.0117073 171.5307922
36.7015533 31.0301342 172.1519165
36.1851006 31.0289288 172.6501160
10.7599735 30.9402905 174.0667877
10.2235422 30.9309826 173.6432037
9.6986656 30.9310722 173.2304077
38.3467522 31.4853916 171.9930878
38.8227234 31.9831123 173.0928040
38.2506828 31.9878883 173.7185364
8.6167622 31.8911743 175.2042694
8.1091223 31.8870811 174.7792969
7.6206865 31.8882313 174.3639679
40.3815155 32.4548340 172.8714752
41.3462105 32.9502068 173.2355957
40.8205948 32.9499550 173.8555450
40.2934914 32.9506378 174.4598846
6.5784559 32.8395348 176.0917206
42.4200516 33.4302750 173.3135986
4.4803109 33.3465118 175.3353119
42.9258499 33.9226913 174.0811615
42.3350754 33.9184990 174.8261261
4.4807696 33.8396187 176.5283661
3.9606473 33.8423004 175.9929504
3.4550931 33.8549156 175.4633942
2.9496207 33.8689957 174.8919373
44.5452156 34.4012566 173.2761536
3.4772229 34.3463669 176.7020416
44.4474068 34.8918228 174.7841492
45.4273491 35.3723335 174.8203278
0.3492269 35.3451653 175.5132599
46.4976501 35.8410873 174.5763245
45.9051781 35.8546715 175.4185791
45.3662910 35.8457375 176.1133423
3.4660554 35.7140808 179.9202271
2.9725685 35.7269516 179.4730377
2.4653146 35.7436485 178.9814758
1.9615613 35.7714119 178.4752808
1.4347366 35.8023682 177.9131927
0.9173647 35.8136673 177.3289642
0.3694160 35.8086052 176.7069244
46.3960915 36.3321495 175.9447937
0.3751247 36.2684669 177.8152466
47.5338745 36.8035202 175.4886475
46.9156418 36.8033218 176.3661346
46.3226357 36.7897911 177.1567383
0.3793246 36.7360802 178.8537445
-0.1691919 36.7295761 178.2450256
-0.7024667 36.7258835 177.6493378
-0.6780012 37.2154503 178.6791382
-0.6699666 37.6801262 179.6215210
-1.1782299 37.6949921 179.0782623
-1.7117032 37.6975937 178.4658508
-2.2321639 37.7034073 177.8746338
30.9520264 37.7657089 189.4783478
30.4681931 37.7606544 189.5971985
29.9830399 37.7477760 189.6923523
29.4857044 37.7419243 189.7948456
28.9678440 37.7338028 189.8968506
28.4346638 37.7277298 190.0038300
16.2406807 37.7408104 189.9495239
15.7422428 37.7489662 189.8400574
15.2247801 37.7495270 189.7096710
14.7133770 37.7666054 189.5934601
14.1789474 37.7723007 189.4395142
50.5654182 38.7747459 175.4859772
50.4837418 39.2384682 176.6804810
35.0687599 38.7312508 189.3254852
34.5768051 38.7166290 189.4980774
34.0751305 38.6994209 189.6735535
33.5514717 38.6880684 189.8680878
11.6523943 38.7127342 189.9085236
11.1408758 38.7252350 189.7165833
10.6231680 38.7351189 189.5096436
10.1171999 38.7469864 189.2973022
-2.7140131 39.1258659 180.1271362
51.0107994 39.7099419 176.9263611
50.4167709 39.6943665 177.7968903
35.0493469 39.1753044 189.9426117
10.1023951 39.1922836 189.9128571
-2.6952701 39.5950737 180.9729004
-3.2199984 39.6059189 180.3952789
-3.7601023 39.6069794 179.7719727
37.0748062 39.6730995 189.6750946
36.5099640 39.6619797 189.9578400
8.5356016 39.6839752 189.8453979
8.0399847 39.6964760 189.6138916
51.4694443 40.6348801 178.1678619
52.6058540 41.1357803 177.3687439
40.1249199 40.6526604 189.2931061
39.6326828 40.6357460 189.5517578
39.1310196 40.6227722 189.8135986
6.0377426 40.6492882 189.8154297
5.5338411 40.6767006 189.5395813
5.0097184 40.6971283 189.2341919
-4.7808785 41.0470390 181.0529633
53.1141930 41.6294327 177.5152435
52.5277557 41.6064453 178.4009552
40.0958786 41.0983734 189.8923035
5.0088058 41.1444511 189.8334198
-4.7684994 41.5158272 181.8186035
-5.3294287 41.5209923 181.1803741
53.6229591 42.1083412 177.6288452
42.2002182 41.6196060 189.1858063
41.6483803 41.6003799 189.5462036
41.0836945 41.5870972 189.9089203
3.9436350 41.6219559 189.7710266
3.4604120 41.6476440 189.4799652
2.9624627 41.6639175 189.1597900
53.5476837 42.5674324 178.6227875
42.1886940 42.0600281 189.7467499
2.9565468 42.1100426 189.7378845
-5.7997794 42.4753456 182.1262817
43.2200546 42.5459442 189.6252594
42.6944923 42.5329666 189.9788513
2.4669340 42.5822067 189.9975586
1.9529511 42.6050720 189.6528015
54.5293732 43.5272636 178.8254395
-6.8189406 43.4450836 182.3582306
45.1854362 43.5241203 189.4084320
44.6801491 43.5040092 189.7687378
0.4175799 43.5757332 189.6959839
-0.1082207 43.6037979 189.3015289
45.1573524 43.9724731 189.9684753
-0.1190228 44.0498314 189.8445587
46.2216301 44.4660225 189.6824799
-0.6427091 44.5236015 189.9908752
-1.1378275 44.5503082 189.6055603
-7.8424063 44.8693085 183.1566010
57.2090111 45.5187187 177.6576843
56.6287727 45.4801941 178.6290131
57.7662430 46.0036392 177.4807434
47.2596855 45.4118958 189.8820038
-2.1309502 45.5053291 189.8781281
-8.8708973 45.8572311 183.1853180
-8.8375082 46.3317184 183.8097687
-9.4085855 46.3533783 183.1054535
57.6358719 46.9082146 179.2217407
49.2923546 46.4058952 189.2296295
48.7907257 46.3750496 189.6455536
-3.6574035 46.4894485 189.6457520
-4.1487904 46.5288200 189.2136688
-9.9028940 46.8717461 183.0332642
58.1690445 47.3979454 179.0557709
57.5717697 47.3637924 180.0338898
49.2617798 46.8515320 189.7490387
-4.1553516 46.9721756 189.7134705
58.6791649 47.8904037 178.9185181
50.2685432 47.3617058 189.3502808
49.7330856 47.3313942 189.8306122
-4.6936536 47.4525490 189.7192383
-5.1918530 47.4930153 189.2653503
59.1913795 48.3745880 178.7588654
58.6162834 48.3429070 179.7122498
50.2544289 47.8070679 189.8346405
-5.1896896 47.9399452 189.7638855
-9.8584709 48.2445145 184.8695831
-10.4122505 48.2596779 184.2140045
58.5597649 48.7899323 180.4706421
51.3681602 48.3125305 189.2561798
50.7843590 48.2913170 189.8181000
-5.7028942 48.4263039 189.7765961
-6.1842113 48.4676399 189.3217163
-10.9268208 48.7458076 184.1405640
59.0605354 49.2802544 180.3211670
58.5099182 49.2419930 181.1853027
51.3310356 48.7684708 189.7621155
-6.1983624 48.9135170 189.7857208
59.5838089 49.7691956 180.1080933
52.3782654 49.2780304 189.2169189
51.8572235 49.2408333 189.7104950
-6.7120314 49.4028778 189.7586823
-7.2154789 49.4434471 189.2595825
59.5132904 50.2216568 180.8246765
52.3573456 49.7267303 189.6905060
-7.2205157 49.8915291 189.7234192
-11.9521198 50.1937866 184.4389038
53.3843651 50.2414818 189.1402435
52.8616714 50.2079926 189.6525726
-7.7424808 50.3777542 189.6511993
-8.2396955 50.4208298 189.1362305
60.6434937 51.2161369 180.1494598
53.3609734 50.6888008 189.6061554
-8.2499475 50.8768921 189.5780640
-11.9166470 51.1277847 185.4720001
61.2550240 51.7063751 179.6861725
60.5994377 51.6672363 180.7893524
-8.2457075 51.3237724 190.0206757
-11.8865738 51.5960159 185.9701385
-12.4465294 51.6150017 185.2994232
60.5317955 52.1178932 181.4590759
-11.8592091 52.0617714 186.4540405
60.4780655 52.5730019 182.0748901
54.3074188 52.1088104 189.9177399
-9.2881556 52.3173485 189.7791595
62.2318993 53.1932220 179.5910034
61.6254616 53.1369591 180.6605225
61.0399437 53.0768700 181.6642761
60.4539146 53.0205727 182.6162262
62.8153000 53.6917267 179.0867767
55.3806114 53.0802803 189.5665436
-10.3181715 53.3184776 189.4868622
-12.9143429 53.5129051 186.4974670
55.3488998 53.5308990 189.9968719
-10.3090582 53.7689972 189.9016571
62.6952477 54.5982170 180.3801727
56.4320488 54.0645676 189.1840820
55.8815880 54.0231361 189.7972717
-10.8053246 54.2729340 189.7458344
-11.2958012 54.3234138 189.1894836
-12.8815317 54.4394188 187.3396149
-13.4268885 54.4726334 186.6952820
62.6494102 55.0498734 180.9610748
56.4138145 54.5150375 189.5859070
-11.3138285 54.7769127 189.5489655
-12.8647509 54.9056091 187.7438660
56.3953438 54.9668198 189.9808807
-11.3115530 55.2327652 189.9277039
-13.9430294 55.4471703 186.8226929
-13.9190741 55.9132843 187.2142639
-14.4890928 55.9470177 186.5145721
63.6874657 56.5133858 180.6102905
57.4481201 55.9492111 189.5161438
-12.3439970 56.2422142 189.4617615
-13.9051476 56.3773041 187.5896454
57.4220810 56.4000664 189.9035645
-12.3435898 56.7005577 189.8188477
-13.8898716 56.8460197 187.9664001
63.6101227 57.4199257 181.6497040
58.4539680 56.9426346 189.0531311
57.9230804 56.8955002 189.6767731
-13.8893642 57.3041382 188.3085785
-14.4192514 57.3495216 187.6525879
63.5588455 57.8728523 182.1522827
58.4277954 57.3942299 189.4299164
-13.8833351 57.7674637 188.6561737
58.4154510 57.8430481 189.7805023
-13.3575220 58.1764565 189.6370392
-13.8820705 58.2295532 188.9933167
-13.3608294 58.6337128 189.9645081
-13.8821335 58.6872520 189.3212128
-14.4086933 58.7394714 188.6581879
-14.9224472 58.7917747 188.0107574
-15.4468155 58.8345985 187.3482208
-15.9899483 58.8773537 186.6605225
64.6391144 59.3567924 181.5228882
59.4463539 58.8464470 189.1533661
58.8868256 58.7947693 189.8510437
-14.9205704 59.2537766 188.3280334
-15.4321957 59.3018837 187.6847076
64.5729523 59.8155975 182.0131989
59.4205856 59.3011665 189.4978027
-14.9123240 59.7180061 188.6504822
64.5352020 60.2703819 182.4371796
59.3943214 59.7545013 189.8363190
-14.4052744 60.1264420 189.5846405
-15.9663734 60.2759209 187.6230774
65.1758804 60.7873230 181.7032166
64.5058746 60.7241554 182.8362274
-14.4037848 60.5889091 189.8775787
-15.9482079 60.7457275 187.9337463
65.1190720 61.2460556 182.1531219
64.4697113 61.1794472 183.2438354
60.4911957 60.7669792 189.0281982
59.9474106 60.7132111 189.7236481
64.4425964 61.6332054 183.6174774
60.4832840 61.2223740 189.3207092
-15.9526329 61.6742363 188.4816742
-16.4735470 61.7246284 187.8185730
60.4738083 61.6772346 189.6075592
-15.4113588 62.0878372 189.4354401
-15.9251127 62.1416779 188.7830811
60.4518433 62.1320839 189.9021912
-15.3998709 62.5523300 189.7114410
-15.9136982 62.6090012 189.0590515
-15.3999081 63.0160637 189.9666748
66.8123627 63.7714996 180.6071777
66.1702576 63.6901855 181.8147278
65.5487366 63.6076851 182.9486847
66.7958679 64.2214890 180.9908905
61.5013847 63.6152077 189.2842255
60.9694748 63.5572586 189.9833221
61.4857826 64.0721817 189.5432281
-16.4400234 64.5326614 189.3117676
-16.9721088 64.5894394 188.6169739
-17.4947414 64.6459427 187.9348602
61.4802933 64.5280533 189.7820282
-16.4449215 64.9994202 189.5233765
-16.9645920 65.0580521 188.8462830
67.2739716 65.6986923 180.8210449
66.6419678 65.6128082 182.0022736
66.0348129 65.5272522 183.1225586
65.4689636 65.4451599 184.1319885
-16.4375172 65.4662476 189.7516937
67.2557220 66.1598282 181.1244507
66.6215363 66.0722046 182.3030090
66.5980530 66.5321579 182.5941772
67.8361893 67.1709900 180.5216064
62.5231552 66.4859009 189.2147217
61.9432220 66.4249802 189.9982758
67.8013611 67.6310501 180.8255157
62.5051117 66.9469147 189.4282684
-17.9833908 67.5263290 188.4550018
-18.5360966 67.5906219 187.7005005
62.4963112 67.4085693 189.6234131
-17.4668865 67.9354401 189.3316650
-17.9914398 67.9992065 188.6186523
-18.5408955 68.0653915 187.8682556
62.4822006 67.8694916 189.8171844
-17.4685535 68.4035110 189.5101471
-17.9876041 68.4691772 188.7990875
62.4637718 68.3316116 190.0124664
-17.4903641 68.8721695 189.6698151
67.7285385 69.4855652 181.8073730
67.6946869 69.9501572 182.0469208
67.6840591 70.4169617 182.2414856
-17.9889183 70.3567352 189.4054871
-18.5300407 70.4323196 188.6188965
-19.0662746 70.5068512 187.8428802
67.6587067 70.8815765 182.4579468
63.5158653 70.3164825 189.1530151
62.9895897 70.2500610 189.8982086
67.6403809 71.3485565 182.6550293
63.4969139 70.7801971 189.3148956
63.4887352 71.2457581 189.4559937
-17.9926624 71.7841339 189.7511292
-18.5055943 71.8572540 189.0044403
63.4803085 71.7120361 189.5837097
-17.9877300 72.2592087 189.8764648
63.4683151 72.1796799 189.7039490
63.4640541 72.6486816 189.8034210
63.4651413 73.1187057 189.8899231
63.4795685 73.5903778 189.9545441
68.1789780 74.7498703 182.4021759
67.5584106 74.6483002 183.5326996
67.5587463 75.1221237 183.6219177
-18.5320587 75.2024765 189.5541382
-19.0574913 75.2827454 188.7934570
67.5597992 75.5977325 183.6912994
-18.5339737 75.6882629 189.5840454
-19.0571785 75.7650070 188.8353882
67.5311127 76.0702515 183.7965393
-18.5329914 76.1719818 189.6070251
-19.0610046 76.2485275 188.8617096
67.5278091 76.5478668 183.8450317
-18.5168400 76.6531754 189.6496277
-19.0659351 76.7326584 188.8820038
67.5206146 77.0259094 183.8905945
-18.5128994 77.1361008 189.6730194
-19.0513039 77.2141953 188.9237518
67.5258789 77.5062180 183.9068909
-18.5240593 77.6220169 189.6704865
-19.0470543 77.6981964 188.9433594
67.5243530 77.9866486 183.9264832
-18.5166626 78.1055832 189.6871643
-19.0508385 78.1841278 188.9438019
67.5335770 78.4699936 183.9168396
-18.5191936 78.5912323 189.6835632
-19.0662708 78.6726227 188.9212494
67.5213394 78.9510040 183.9313202
-18.5308399 79.0792389 189.6614532
-19.0727673 79.1604919 188.9053040
67.5233765 79.4358139 183.9093781
-18.5164528 79.5633011 189.6687164
-19.0724335 79.6479568 188.8911438
67.5174637 79.9197540 183.8911285
-18.5156670 80.0511932 189.6453552
-19.0744476 80.1373825 188.8602295
67.5206909 80.4060364 183.8488007
-18.5210381 80.5416107 189.5926819
-19.0697536 80.6276550 188.8148499
67.5236435 80.8933945 183.7991180
-18.5240631 81.0348282 189.5074615
67.5392990 81.3846054 183.7210999
67.5562973 81.8770218 183.6379089
67.5554657 82.3664474 183.5862274
63.4670334 83.1542511 190.0008850
63.4713821 83.6419373 189.9025421
63.4635468 84.1279526 189.8197021
-18.0103016 84.8973923 189.6651001
-18.5586319 84.9877777 188.8914642
63.4562073 84.6139221 189.7271423
-18.0381641 85.3999786 189.5114288
-18.5749531 85.4889374 188.7539673
63.4839592 85.1110229 189.5677032
66.3935928 86.0996246 184.7494965
63.4975815 85.6057129 189.4188690
66.4255829 86.6064835 184.5466919
63.5056000 86.1010208 189.2676086
66.4538574 87.1154633 184.3356476
66.4660110 87.6189041 184.1466675
66.4945526 88.1295242 183.9282227
62.4680481 88.9221268 189.8324280
62.4677010 89.4193192 189.6332550
62.4682426 89.9205933 189.4274750
62.4741669 90.4237061 189.2049103
65.4651642 91.4741440 184.2863770
62.4853973 90.9277420 188.9627075
61.9190102 90.8363647 189.8374481
-16.0169563 92.6466599 189.6027679
-16.5702705 92.7467422 188.8245392
64.3011856 92.7960358 185.3529816
61.4031754 92.2754669 189.8868561
-16.0264797 93.1638565 189.3357391
-16.5654964 93.2631836 188.5767212
64.9196091 93.3824234 184.1225433
64.2942963 93.3091278 185.0637665
61.4096832 92.7822113 189.6095886
64.3300705 93.8402557 184.6584015
61.4239388 93.2929611 189.3132324
65.0143051 94.5243835 183.0959015
64.3665619 94.3717499 184.2744751
61.4498215 93.8091202 188.9836731
60.8921852 93.7214050 189.8304749
60.3837357 94.6707458 189.9897156
63.2691574 95.7093353 185.1483765
60.3916817 95.1808395 189.6705322
63.9396019 96.4012070 183.6562195
63.3235931 96.2580109 184.7093658
60.4150963 95.7015762 189.3165741
63.4024620 97.3435287 183.7970428
63.4601517 97.9032516 183.2849121
59.3508377 97.0904770 189.8570404
59.3792496 97.6163635 189.4464722
62.9302673 98.8632889 183.3774567
62.2805138 98.6958313 184.4987030
62.3256683 99.2537613 184.0012054
62.4027481 99.8310547 183.4220276
58.3630257 99.0265350 189.7567596
-12.5087605 99.8922272 189.6600952
58.3634720 99.5462799 189.3475494
-11.9800453 100.3216019 189.9137573
-12.4990940 100.4176712 189.2030182
-13.0133152 100.5120544 188.4977722
61.2862587 100.6647873 184.4568787
60.6738091 100.5200500 185.4523773
60.0868034 100.3928299 186.3775482
-11.9684000 100.8475189 189.4466858
-12.4946413 100.9333801 188.7311096
60.1286201 100.9477463 185.8913879
57.3267784 100.4553223 189.9629822
-11.9329996 101.4103165 188.8441772
57.3294334 100.9789734 189.5274811
60.2436523 102.0856323 184.7914124
57.3466911 101.5101471 189.0602570
56.8100166 101.4398651 189.8095856
56.3144455 102.4270782 189.5782928
59.1515770 103.4956360 184.9680481
55.2742577 103.3505096 189.9942322
59.3042679 104.6850204 183.5333099
58.7156715 104.5406876 184.5113220
58.1042404 104.3870010 185.4798126
55.3068733 103.8950577 189.4424591
58.1901169 104.9950180 184.7956390
55.3206444 104.4315643 188.9138336
54.7779274 104.3573303 189.6359711
54.2501259 104.8078461 189.8196411
-7.9243894 105.5773697 189.9894867
-8.4277477 105.6708984 189.3740387
58.2950974 106.1736603 183.3695068
54.2655449 105.3547211 189.2641449
53.7544060 105.2939377 189.9221344
-7.9303312 106.1343079 189.4748077
57.7600861 106.6256943 183.6318359
57.1352234 106.4616623 184.6441040
53.2624435 106.3087158 189.4831543
56.1721497 107.9054489 184.3892212
52.2276039 107.2762527 189.6437073
55.6364136 108.4816818 184.3663788
55.0279617 108.3230133 185.2704163
55.1018372 108.9514236 184.4939728
51.2050743 108.2473907 189.6691284
-4.8771095 108.9713593 189.6813202
54.5847321 109.4259872 184.5624084
53.9814682 109.2731628 185.4272308
-4.3624954 109.4459915 189.6541748
-4.8807149 109.5569916 189.0352936
-5.4054189 109.6882095 188.3863831
54.0477715 109.8879013 184.6277924
50.1778564 109.2116089 189.6357422
-3.8565733 109.9379959 189.5917511
-4.3574204 110.0184937 189.0266571
-4.8834906 110.1170578 188.4155426
-3.3630273 110.4282990 189.5010986
54.2060204 111.1604919 182.7292023
49.1723213 110.2095566 189.4842072
-2.3380868 110.8326111 189.9622650
-2.8501980 110.9162369 189.4085693
-3.3613992 111.0005798 188.8465881
48.1344070 110.6472244 189.9348450
-3.8875680 111.6918106 187.5638123
48.1442490 111.1971893 189.2551880
47.6014137 111.1299896 189.8437195
-1.3287522 111.8215561 189.6953278
53.2330360 112.7914352 181.6438446
52.6293564 112.6211700 182.6669312
52.0566483 112.4841232 183.5715179
47.1067009 111.6588593 189.6598358
