-0.7980605 206.4131317 -11.0463085
-5.9161730 206.6248779 -11.4573774
-11.0491915 206.9623108 -12.4299326
-16.2101402 207.4418335 -14.0274143
-21.4017906 208.0815582 -16.3325233
14.5793009 211.8797302 -14.5821428
9.4378376 211.6905975 -13.2273598
4.3047566 211.6470184 -12.5020647
-0.8202432 211.7359161 -12.3583145
-5.9469995 211.9620361 -12.8039284
-11.0894680 212.3292389 -13.8629665
-16.2608395 212.8520813 -15.5886574
-21.4618874 213.5513763 -18.0857582
19.7731056 217.8241577 -19.0002213
14.5919600 217.4220886 -16.7537727
9.4328012 217.2026215 -15.2873688
4.2902637 217.1470642 -14.5167408
-0.8461562 217.2445374 -14.3901348
-5.9864492 217.4889374 -14.8915997
-11.1432142 217.8959351 -16.0741920
9.4347115 222.9709015 -18.3116379
4.2741098 222.8949890 -17.4619408
-0.8767325 222.9969330 -17.3425598
-6.0346427 223.2739258 -17.9428272
-11.2104540 223.7366333 -19.3098297
9.4485054 229.1264648 -22.7579384
4.2644186 229.0141907 -21.7642326
-0.9155056 229.1206360 -21.6483250
28.3070965 48.5061989 182.7817688
26.2392712 48.4899902 183.1090240
24.1956520 48.4937668 183.1738129
22.1336536 48.5112610 183.0207062
34.3822289 50.2693253 185.5118561
24.0891800 50.1603584 187.8161469
-17.4225807 181.3269806 -15.9382057
-14.8339863 183.4880676 -14.3224049
-17.4156227 183.7071228 -15.1724176
-20.0109825 183.9586487 -16.1858253
-22.6184616 184.2458649 -17.3793945
-12.2570314 185.6963654 -12.9980240
-14.8334923 185.8891449 -13.7007542
-17.4154663 186.1109467 -14.5474968
-20.0052586 186.3653107 -15.5542603
-22.6158180 186.6542969 -16.7345047
-25.2206192 186.9787292 -18.0921803
-27.8472290 187.3484192 -19.6726112
-30.4830265 187.7651672 -21.4877567
-33.1436615 188.2407227 -23.5936813
-35.8292770 188.7853241 -26.0418777
42.2874908 191.2000885 -33.2353821
39.5561295 190.5194702 -29.6058712
36.8504944 189.9593506 -26.5711861
34.1716461 189.4939880 -24.0067978
-12.2668400 188.1175232 -12.5063267
-14.8349152 188.3114777 -13.2003489
-17.4142818 188.5354919 -14.0419436
-20.0056267 188.7940979 -15.0519419
-22.6142006 189.0877380 -16.2330570
-25.2104874 189.4147034 -17.5803070
-27.8399162 189.7909851 -19.1662598
-30.4770393 190.2150879 -20.9872780
-33.1464653 190.7010803 -23.1092911
-35.8274040 191.2525635 -25.5530739
-38.5524979 191.8972778 -28.4515591
42.2686615 193.6702118 -32.7971649
39.5307655 192.9768219 -29.1501999
36.8334427 192.4118347 -26.1319466
34.1580315 191.9412384 -23.5735168
31.5098553 191.5438080 -21.3748417
28.8731461 191.2067413 -19.4681244
26.2631302 190.9187775 -17.8043804
23.6510811 190.6766357 -16.3618927
21.0654221 190.4766388 -15.1257601
18.4723625 190.3085480 -14.0482960
-14.8381948 190.7548828 -12.8176422
-17.4206314 190.9832916 -13.6642179
-35.8251953 193.7504272 -25.2264061
-38.5460434 194.4083557 -28.1441994
42.2536430 196.1843567 -32.5816879
39.5187607 195.4750824 -28.9051208
36.8173904 194.8996735 -25.8741283
34.1398468 194.4186554 -23.2980480
31.4996338 194.0152893 -21.0962791
28.8611259 193.6716919 -19.1817245
26.2521458 193.3817902 -17.5236320
23.6407242 193.1339722 -16.0716667
21.0511837 192.9315338 -14.8369350
18.4656849 192.7626801 -13.7646742
15.8975439 192.6265717 -12.8488064
13.3269444 192.5227356 -12.0919361
-14.8412056 193.2206116 -12.5540180
-17.4173355 193.4521027 -13.4017963
-35.8299599 196.2857361 -25.0870762
-38.5518608 196.9619141 -28.0490532
42.2495422 198.7480316 -32.6106834
39.5098381 198.0169678 -28.8763371
15.8876324 195.1002045 -12.6743917
13.3185577 194.9930573 -11.9173908
10.7599068 194.9253235 -11.3214188
8.1963120 194.8768921 -10.8329735
5.6272545 194.8614197 -10.5001583
3.0794411 194.8704071 -10.2779741
0.5265217 194.9048920 -10.1827984
-2.0338845 194.9707184 -10.2297764
-4.5918875 195.0635376 -10.4037571
-7.1445289 195.1812744 -10.7005424
-9.7103958 195.3291626 -11.1370525
-12.2706127 195.5023499 -11.6966343
-14.8485861 195.7126770 -12.4178495
-17.4328556 195.9523010 -13.2857723
-35.8442917 198.8619385 -25.1439533
-38.5657883 199.5606079 -28.1692123
42.2567520 201.3686218 -32.9122963
39.5129166 200.6055908 -29.0612793
15.8795109 197.6013489 -12.6369839
13.3144798 197.4961090 -11.8830051
10.7507257 197.4173431 -11.2558823
8.1915026 197.3739319 -10.7867298
5.6240706 197.3571472 -10.4420891
3.0732131 197.3663940 -10.2247915
0.5233859 197.3987885 -10.1258240
-2.0500607 197.4683228 -10.1780453
-4.5978723 197.5649872 -10.3632870
-7.1430888 197.6854095 -10.6669445
-9.7206173 197.8404846 -11.1160069
-12.2840157 198.0182495 -11.6857586
-14.8513126 198.2308197 -12.4129658
-17.4414635 198.4762878 -13.2945766
-35.8696594 201.4834290 -25.4147797
39.5139084 203.2398987 -29.4635162
31.4819717 201.6317291 -21.2368660
28.8428650 201.2547760 -19.2339897
26.2299843 200.9406738 -17.5259209
23.6256027 200.6773987 -16.0432911
21.0358353 200.4565887 -14.7579727
18.4483814 200.2732544 -13.6525841
-30.5287018 202.9431610 -20.8861351
-33.1945572 203.5000916 -23.1757393
-35.8947678 204.1484528 -25.8767014
39.5367470 205.9431458 -30.1588631
31.4907913 204.2439575 -21.6207428
28.8458691 203.8532715 -19.5756874
26.2343712 203.5319519 -17.8457775
23.6192188 203.2516327 -16.3123188
21.0277405 203.0233765 -15.0065632
18.4440041 202.8393555 -13.8988237
-30.5556126 205.6055603 -21.3974133
-33.2364502 206.1933289 -23.7836628
39.5651360 208.7111206 -31.1439552
36.8482361 207.9810333 -27.5805836
34.1517448 207.3905640 -24.6595688
31.4973335 206.9008789 -22.1985779
28.8553467 206.4959869 -20.1072006
21.0281029 205.6313629 -15.4301071
18.4452229 205.4397125 -14.2978745
-25.3004532 207.3199005 -18.1996727
-27.9399509 207.7843170 -20.0028419
-30.5901661 208.3150940 -22.1044960
-33.2681885 208.9308624 -24.5902710
36.8810883 210.7666016 -28.6568031
34.1753387 210.1353455 -25.5775776
31.5215073 209.6184998 -23.0237789
28.8626709 209.1867065 -20.8360271
18.4448586 208.0762787 -14.8485994
-25.3397274 210.0392151 -18.9791813
-27.9798355 210.5235291 -20.8525391
-30.6318932 211.0830078 -23.0584373
-33.3228226 211.7422638 -25.6917324
36.9209633 213.6394653 -30.0883102
34.2024994 212.9515076 -26.7906342
31.5398197 212.3919983 -24.0785828
28.8796959 211.9319916 -21.7860374
18.4469166 210.7550354 -15.5688334
-25.3761063 212.8027039 -19.9527855
-28.0225945 213.3194275 -21.9388752
-30.6931992 213.9262695 -24.2979431
34.2400284 215.8549500 -28.3491821
31.5709000 215.2414398 -25.4278545
28.9102478 214.7411499 -23.0001678
26.2760162 214.3334045 -20.9630089
23.6556492 213.9939575 -19.2235527
21.0513210 213.7156830 -17.7471790
18.4571476 213.4860840 -16.4932098
-25.4247074 215.6373138 -21.1958733
-28.0800819 216.1919556 -23.3156738
34.2982941 218.8680115 -30.3558235
31.6170120 218.1799622 -27.1321526
28.9475918 217.6358795 -24.5228157
26.3058052 217.1835785 -22.3347092
23.6690369 216.8139801 -20.4877224
-15.0101299 216.8772583 -16.7124901
-17.6054993 217.2027588 -17.8352966
-20.2130432 217.5837708 -19.1865311
-22.8430424 218.0298462 -20.8106003
-25.4797440 218.5449829 -22.7315922
-28.1460400 219.1534119 -25.0332527
31.6626282 221.2360382 -29.3077011
28.9790878 220.6156921 -26.3991089
26.3331909 220.1166840 -24.0307617
23.6932373 219.7134399 -22.0464745
-15.0454750 219.7446289 -18.1282387
-17.6486931 220.0939636 -19.3285294
-20.2598801 220.5056458 -20.7865944
-22.9025421 220.9900818 -22.5473862
-25.5458603 221.5517273 -24.6357155
29.0394726 223.7407379 -28.8291359
26.3791256 223.1727600 -26.1762867
23.7274227 222.7150574 -23.9989433
21.1100330 222.3484802 -22.2121201
18.4936581 222.0528870 -20.7067413
15.8993473 221.8250122 -19.4855156
13.3112221 221.6495209 -18.4866009
-15.0865269 222.6905518 -19.8391056
-17.6955395 223.0727844 -21.1477489
-20.3178291 223.5197449 -22.7409096
-22.9605293 224.0555115 -24.6778374
23.7742691 225.8396301 -26.4168491
21.1419106 225.4228821 -24.4249687
18.5225658 225.0880737 -22.7774582
15.9147396 224.8330536 -21.4548225
13.3197470 224.6313171 -20.3681946
-15.1364002 225.7394562 -21.9282665
-17.7536736 226.1610107 -23.3816948
-20.3895435 226.6715088 -25.1810646
23.8301392 229.1365967 -29.5123177
21.1852055 228.6414032 -27.1995716
18.5536308 228.2589722 -25.3564949
15.9367609 227.9606628 -23.8670998
13.3350515 227.7341461 -22.6725197
-4.7870603 227.7379456 -20.7842903
-7.3688917 227.9405365 -21.3397827
-9.9692059 228.1996765 -22.1299515
-12.5650063 228.5258179 -23.1747189
-15.1925583 228.9286346 -24.5237789
-17.8200207 229.4034424 -26.1806679
18.5977077 231.6136322 -28.6403980
15.9717426 231.2491150 -26.8862610
13.3619576 230.9806671 -25.5256538
-4.8149891 230.9417419 -23.4536133
-7.4067259 231.1734009 -24.1096916
-10.0229454 231.4736481 -25.0392532
13.3959875 234.4682922 -29.2853279
10.7663212 234.2292175 -28.0363312
8.1652031 234.0647430 -27.1136703
5.5532246 233.9897156 -26.5261288
2.9590559 233.9747925 -26.2018623
0.3566095 234.0291443 -26.1458168
-2.2434781 234.1502991 -26.3566132
-4.8501353 234.3442078 -26.8539276
-7.4555459 234.6179352 -27.6563110
5.5565910 237.6697235 -31.0087204
30.0049191 47.2999077 177.3493958
28.9604950 47.2822113 177.7847290
27.9062424 47.2783318 178.1188202
26.8649197 47.2930374 178.3484802
25.8476582 47.2930717 178.4931641
24.8206463 47.2915955 178.5491028
23.7824154 47.2965622 178.5378723
22.7308502 47.2826920 178.4329224
21.7203293 47.2766876 178.2672119
20.7032337 47.2886925 178.0017853
19.6648006 47.3053513 177.6265259
35.1666794 48.2374763 177.8806305
34.1033783 48.2073975 178.7190552
33.0384216 48.1906662 179.4451904
31.9674740 48.1706924 180.0645905
30.9436951 48.1451035 180.5317993
29.9101429 48.1232224 180.9378204
20.6479988 48.1247025 181.3821869
19.6188831 48.1483688 181.1012573
18.5816250 48.1708908 180.7461243
37.1357269 49.1290245 179.7453156
36.0665474 49.1000023 180.6121826
35.0394325 49.0612297 181.3329620
33.9854698 49.0292015 182.0061035
32.9326134 48.9909210 182.5571136
31.8752670 48.9669151 183.0594788
30.8525848 48.9438477 183.4488525
29.8251305 48.9310188 183.7908936
20.5962753 48.9372330 184.1287231
19.5673542 48.9534111 183.8706970
18.5320435 48.9773026 183.5762939
17.5097389 48.9910736 183.1899414
16.5154724 49.0252686 182.7671509
15.4901505 49.0657959 182.2322693
14.4633560 49.1006279 181.6348114
13.4221592 49.1169052 180.9459686
39.1784630 50.0330658 180.9705048
38.1012421 49.9911804 181.9190063
37.0170174 49.9443741 182.7725220
35.9642868 49.8999252 183.4819641
32.8482628 49.8147202 185.1314392
31.7852097 49.7894135 185.5410156
30.7679882 49.7755127 185.8813171
29.7621651 49.7556992 186.1361847
28.7252159 49.7525368 186.3960876
27.6769524 49.7499428 186.5994110
26.6462708 49.7389641 186.7124939
25.6478653 49.7434921 186.7961731
22.5631599 49.7517662 186.7240601
21.5583572 49.7612724 186.6156921
20.5511036 49.7754326 186.4453735
19.5259590 49.7868958 186.2115784
18.4958439 49.8102875 185.9546204
17.4749317 49.8303490 185.6219177
16.4735641 49.8581161 185.2492828
15.4662943 49.8909531 184.8044128
14.4438400 49.9283524 184.2862854
13.4108982 49.9685364 183.6911011
12.3990927 50.0065575 183.0300293
11.3838501 50.0397682 182.2969513
42.2754822 50.9936638 180.6738739
41.1607628 50.9495811 181.8737640
40.1087379 50.8991547 182.8756409
39.0614128 50.8472137 183.7531281
37.9973526 50.7983627 184.5461731
36.9227753 50.7616234 185.2775269
35.8667831 50.7289085 185.9099121
32.7739258 50.6528778 187.3319397
31.7164612 50.6384201 187.7147064
30.7044468 50.6188240 188.0006714
29.6867943 50.6096497 188.2587585
28.6600590 50.5964394 188.4610901
27.6207390 50.5861588 188.6309814
26.5935688 50.5775604 188.7596588
25.5970058 50.5701408 188.8117676
22.5175323 50.5844116 188.7744293
21.5136986 50.5964928 188.6639099
20.5102272 50.6168289 188.4971924
19.4901276 50.6346207 188.2859192
18.4567375 50.6599846 188.0512695
17.4285774 50.6725082 187.7302551
16.4384651 50.7017975 187.4032745
15.4232635 50.7277222 186.9890747
14.4095984 50.7648315 186.5464172
13.3707151 50.7961922 185.9914551
12.3665714 50.8388557 185.4164276
11.3651657 50.8833656 184.7795105
10.3390274 50.9260139 184.0384521
9.3064041 50.9689751 183.2107849
44.3130264 51.9523697 181.0257263
43.2266655 51.8852768 182.3022766
42.1341782 51.8269081 183.4637451
41.0377693 51.7669296 184.4954071
39.9979439 51.7137680 185.3488922
38.9609833 51.6711121 186.1081085
37.9088936 51.6322937 186.7978668
36.8329964 51.5987320 187.4473572
35.7870407 51.5695534 188.0083313
34.7765846 51.5426025 188.4790344
33.7501488 51.5105057 188.9043274
32.7038345 51.4853745 189.2986755
16.4032211 51.5272636 189.3388367
15.3933067 51.5575218 188.9571533
14.3834476 51.5937691 188.5455627
13.3514462 51.6362076 188.0513458
12.3496304 51.6776619 187.5286560
11.3454132 51.7203484 186.9490204
10.3250341 51.7671356 186.2867737
9.3002892 51.8166656 185.5432587
45.2338943 52.8428383 182.5389252
44.1782570 52.7769203 183.7664795
43.1026573 52.7014313 184.8245392
42.0214920 52.6491051 185.8349457
40.9392128 52.5952759 186.7302246
39.9046974 52.5519562 187.4923553
38.8774376 52.5123978 188.1647339
37.8249817 52.4709702 188.7971191
36.7625580 52.4272461 189.3745270
12.3151178 52.4955444 189.4154358
11.3183537 52.5473137 188.8848877
10.3061342 52.5987282 188.2768250
9.2808933 52.6516495 187.5924683
8.2614832 52.7012711 186.8534546
7.2597704 52.7599640 186.0606537
6.2425227 52.8170242 185.1523743
5.2046289 52.8523521 184.1600342
47.3294067 53.7982864 182.3427734
46.1988525 53.7308121 183.7769623
45.1173286 53.6546936 185.0042267
44.0758743 53.5899048 186.0347595
43.0051804 53.5304871 186.9815063
41.9281082 53.4798889 187.8743744
40.8485107 53.4327545 188.7070160
39.8300629 53.3796310 189.3875580
8.2355633 53.5319214 188.7377625
7.2469740 53.6012764 188.0201263
6.2332134 53.6688423 187.2049408
5.2138762 53.7317657 186.2999420
4.1732268 53.7873421 185.2818909
3.1383960 53.8311462 184.1821899
49.3977966 54.7811546 181.8848419
48.3003845 54.7098923 183.4121094
47.1934547 54.6292877 184.7961884
46.0920792 54.5466881 186.0258636
45.0136414 54.4859848 187.1274109
43.9723969 54.4295654 188.0626678
42.9161110 54.3654099 188.9116669
6.2108898 54.4816055 189.0426941
5.2077160 54.5643005 188.2098389
4.1746964 54.6406708 187.2715759
3.1613531 54.7122803 186.2830658
2.1364353 54.7661171 185.1882477
50.3461533 55.6976089 182.8363647
49.2534409 55.6168594 184.3438721
48.1773529 55.5336723 185.6866760
47.0877419 55.4528732 186.8977509
45.9867477 55.3837738 188.0202942
44.9115524 55.3118744 189.0147247
4.1512723 55.4556007 189.0732422
3.1547987 55.5474472 188.1599426
2.1466241 55.6299515 187.1522827
1.1175656 55.6920662 186.0438232
50.2078934 56.5269966 185.1638336
49.1495514 56.4358978 186.4693146
48.0750656 56.3601227 187.6654816
46.9884758 56.2863617 188.7733154
2.1350665 56.4557953 188.9143372
1.1249170 56.5462341 187.8833160
0.0962794 56.6220970 186.7815094
52.3607445 57.5365677 184.1512756
51.2252808 57.4455986 185.7487488
50.0974045 57.3531265 187.1820679
49.0336838 57.2718544 188.3815460
52.2292976 58.3696365 186.2389221
51.1276436 58.2727699 187.6501465
50.0097580 58.1798973 188.9519653
54.3210754 59.3953590 185.1112976
53.2192383 59.2988548 186.6672211
52.1264114 59.2031441 188.0843201
-2.9550037 59.4441528 188.3322449
55.3466072 60.3392220 185.3991699
54.2011642 60.2299881 187.0203552
53.1243515 60.1274185 188.4241943
56.3778038 61.2846451 185.4615173
55.2011719 61.1708298 187.2458649
54.0938263 61.0594978 188.7462463
57.3907471 62.2491684 185.5009003
56.2439346 62.1228638 187.2789917
55.1048393 62.0009918 188.8929138
57.2676735 63.0838242 187.2824097
56.1396103 62.9549561 188.9138947
58.2750854 64.0364151 187.2193909
57.1681976 63.9102325 188.8593750
59.2893295 65.0018387 187.0888824
58.1792908 64.8743057 188.7741699
59.1821671 65.8410339 188.6301880
61.3118973 67.8127136 187.7966614
61.2123985 68.6529694 189.1681519
62.2692871 69.6548996 188.6080017
63.2174454 71.5084305 189.2313538
-15.4860249 178.2159729 -16.4018459
-16.8016205 178.3221588 -16.8439693
-18.0803509 178.4328613 -17.3050957
-14.2215996 179.2894135 -15.5523233
-15.4925089 179.3906250 -15.9333630
-16.7924290 179.5006409 -16.3694496
-18.0724754 179.6116943 -16.8347855
-19.3665390 179.7396240 -17.3445911
-12.8814259 180.3804169 -14.7527723
-14.1970997 180.4681854 -15.0904884
-15.4802961 180.5683594 -15.4800243
-19.3763847 180.9171448 -16.8973389
-20.6663647 181.0514526 -17.4462585
-21.9778576 181.1923370 -18.0447617
-23.2831726 181.3373260 -18.6720848
-11.6135654 181.4825745 -14.0452824
-12.8987846 181.5566406 -14.3299770
-14.1956005 181.6496429 -14.6797647
-15.4766188 181.7514191 -15.0673923
-19.3640900 182.0993958 -16.4606552
-20.6557121 182.2332611 -17.0070229
-21.9787483 182.3775024 -17.6202583
-23.2703457 182.5281830 -18.2556801
-24.5623932 182.6872864 -18.9410439
-25.8750954 182.8580017 -19.6887817
-9.0472450 182.5129547 -13.1521063
-10.3358870 182.5829010 -13.3841028
-11.6192503 182.6587219 -13.6416512
-12.8964128 182.7448425 -13.9466162
-24.5634632 183.8805542 -18.5524693
-25.8891411 184.0511475 -19.2868195
-27.1814041 184.2323914 -20.0667343
-28.5189533 184.4304047 -20.9423885
-29.8227139 184.6311035 -21.8334351
-31.1733017 184.8510742 -22.8261185
-32.5069427 185.0836182 -23.8773880
-10.3339844 183.7708130 -13.0229130
-11.6023684 183.8499146 -13.2823830
-12.8868265 183.9374084 -13.5956612
-24.5633354 185.0805664 -18.1937313
-25.8869743 185.2529449 -18.9322300
-27.1823769 185.4333649 -19.7108574
-28.5281925 185.6327362 -20.5833206
-29.8112373 185.8342590 -21.4655724
-31.1610603 186.0574646 -22.4601898
-32.4826202 186.2910461 -23.5028210
-33.8277931 186.5446320 -24.6504765
-35.1801796 186.8157501 -25.8860016
-36.5098076 187.0995636 -27.1823826
-37.8578529 187.4212036 -28.6534576
45.8320580 189.3200378 -40.2108765
-10.3303432 184.9681549 -12.7005777
-37.8830414 188.6386261 -28.3177834
-39.2463608 188.9789734 -29.8879051
-40.6377029 189.3598022 -31.6549797
45.8210373 190.5190582 -39.7633743
44.3922768 190.0090332 -37.0742035
43.0043335 189.5716553 -34.7581406
41.6147423 189.1863861 -32.6983261
40.2441635 188.8507690 -30.8880177
38.8759155 188.5464325 -29.2333241
37.5358124 188.2712708 -27.7295933
36.1723366 188.0156097 -26.3169479
34.8434486 187.7839661 -25.0290051
33.5140800 187.5707703 -23.8332710
32.1943016 187.3787231 -22.7433701
30.8792610 187.2013397 -21.7270203
24.3316746 186.4951782 -17.5473881
23.0193176 186.3845825 -16.8642502
21.7346745 186.2866211 -16.2447624
20.4505043 186.1939697 -15.6576729
-7.7742438 186.0317993 -11.9846382
-9.0466337 186.0979462 -12.1855412
-10.3323841 186.1722565 -12.4246645
-37.8742599 189.8648071 -28.0153999
-39.2245026 190.2068329 -29.5803318
-40.6319733 190.5936890 -31.3632259
45.7948914 191.7296906 -39.3731422
44.3777313 191.2179413 -36.6984901
32.1887512 188.5858765 -22.4504242
30.8785114 188.4076233 -21.4357414
29.5398579 188.2384033 -20.4635220
28.2406464 188.0865021 -19.5805454
26.9224262 187.9418945 -18.7329559
25.6298332 187.8148499 -17.9720535
24.3208237 187.6967316 -17.2559013
23.0218353 187.5883789 -16.5883121
21.7348862 187.4891663 -15.9675446
20.4304161 187.3956146 -15.3713779
19.1659050 187.3247223 -14.8210564
17.8544827 187.2398987 -14.3301125
-7.7822933 187.2394104 -11.7341700
-9.0508633 187.3077087 -11.9431763
-10.3374481 187.3832245 -12.1858578
-40.6209259 191.8320160 -31.0996246
45.7778358 192.9544983 -39.0620308
44.3795509 192.4475708 -36.4295197
32.1849289 189.8006287 -22.1973381
30.8673172 189.6201477 -21.1776600
29.5370064 189.4523315 -20.2176132
28.2383442 189.2993317 -19.3350220
26.9236336 189.1555939 -18.4957390
25.6307983 189.0261841 -17.7295685
24.3072624 188.9050293 -17.0015755
23.0142365 188.7976837 -16.3403320
21.7189770 188.6965027 -15.7144852
20.4169426 188.6033478 -15.1264706
19.1415234 188.5238800 -14.6038218
17.8387451 188.4502258 -14.1101580
16.5685177 188.3824921 -13.6482697
-7.7814741 188.4513245 -11.5111752
-9.0554190 188.5222321 -11.7274904
-10.3424263 188.5984497 -11.9719601
-40.6240311 193.0847473 -30.9097214
-41.9888153 193.4980164 -32.8005486
45.7815018 194.2028503 -38.8691101
44.3550072 193.6794739 -36.1741676
16.5561543 189.5951691 -13.4356699
15.2678442 189.5363007 -13.0181322
-9.0573721 189.7393188 -11.5294619
-10.3379707 189.8155518 -11.7707911
-11.6204157 189.8960571 -12.0354500
-12.8996029 189.9864807 -12.3461208
-40.6215401 194.3481293 -30.7741928
-41.9953880 194.7713165 -32.6976166
45.7555923 195.4550323 -38.7019958
44.3372574 194.9280090 -36.0052147
16.5469723 190.8154297 -13.2644329
15.2546711 190.7570801 -12.8506145
13.9879198 190.7085114 -12.4809885
12.7011757 190.6630554 -12.1264200
11.3915195 190.6194458 -11.7999649
1.1747849 190.5820618 -10.5598497
-0.0956887 190.6031494 -10.5423880
-1.3784022 190.6399841 -10.5807867
-11.6396255 191.1232910 -11.8720951
-12.9115353 191.2146606 -12.1879864
-40.6267815 195.6235657 -30.7001362
-42.0016937 196.0528564 -32.6378098
45.7469559 196.7303925 -38.6470184
44.3471146 196.2021332 -35.9564743
11.3963680 191.8511963 -11.6804504
10.1246834 191.8182068 -11.4012280
8.8394003 191.7900696 -11.1316195
6.2727985 191.7818451 -10.7424545
5.0051785 191.7718658 -10.6394272
3.7277260 191.7773895 -10.5418758
2.4577661 191.7842712 -10.4568596
1.1685064 191.8031311 -10.4057560
-0.1110046 191.8313904 -10.4020596
-1.3665403 191.8601379 -10.4352169
-11.6360025 192.3517456 -11.7372055
-12.9115181 192.4450684 -12.0548983
-40.6396065 196.9106903 -30.6776505
45.7525330 198.0234680 -38.6796799
44.3382492 197.4793854 -35.9344902
11.4038916 193.0848999 -11.5714779
10.1261606 193.0518341 -11.2938995
8.8399067 193.0271606 -11.0371361
7.5469332 193.0029907 -10.8165646
6.2613873 193.0007935 -10.6564503
5.0037737 193.0053406 -10.5398922
3.7200756 193.0065308 -10.4258137
2.4474416 193.0179443 -10.3385124
1.1688128 193.0348358 -10.2981958
-0.1064806 193.0616760 -10.2962332
-1.3790514 193.0967560 -10.3233433
-2.6689992 193.1279602 -10.3635025
-3.9266710 193.1698761 -10.4316540
-5.2305212 193.2292175 -10.5646954
-6.4992423 193.2875671 -10.7174110
-7.7825150 193.3474274 -10.8855810
-9.0660257 193.4227600 -11.0977516
-10.3601189 193.5048218 -11.3556538
-11.6350603 193.5894928 -11.6346588
-12.9200621 193.6846619 -11.9534044
-40.6464386 198.2057800 -30.6924210
45.7655563 199.3352356 -38.7869301
44.3255005 198.7687378 -35.9643135
-40.6461067 199.5124817 -30.7715645
44.3295212 200.0781860 -36.0937958
-40.6491203 200.8352051 -30.9289322
44.3578072 201.4173431 -36.3453445
-37.9057503 201.3476563 -27.5670052
-39.2656784 201.7367554 -29.2512722
-40.6766205 202.1799774 -31.1682262
44.3536682 202.7549133 -36.5999069
-37.9272842 202.6833801 -27.7962418
-39.2671051 203.0724945 -29.4826374
44.3856697 204.1283722 -36.9873810
42.9705124 203.6052246 -34.4613571
41.5596313 203.1408691 -32.1596909
-37.9499855 204.0337524 -28.0818634
-39.2992973 204.4367065 -29.8156395
44.4271164 205.5279846 -37.5014496
42.9807968 204.9724121 -34.8632126
41.5663795 204.4896393 -32.4967422
-37.9540443 205.3876343 -28.4040680
-39.3214912 205.8092194 -30.1895542
43.0025101 206.3659058 -35.3688583
41.5792160 205.8638611 -32.9302750
-35.2588043 206.0081940 -25.6354523
-36.5914230 206.3595886 -27.1159840
-37.9761200 206.7657928 -28.8194580
-39.3597450 207.2061005 -30.6519871
43.0166588 207.7700806 -35.9282303
41.5896072 207.2490540 -33.4270248
-35.2752609 207.3746948 -26.0270691
-36.6118965 207.7408447 -27.5603428
-37.9907303 208.1599274 -29.3165436
43.0624924 209.2132263 -36.6164589
41.6113663 208.6659088 -34.0425987
26.8845406 205.5739441 -18.5927448
25.5872574 205.4214783 -17.7631207
24.2724228 205.2767944 -16.9743786
22.9691658 205.1412811 -16.2570305
-35.3045387 208.7681732 -26.5036221
-36.6310043 209.1408539 -28.0894604
41.6282730 210.0995178 -34.7378235
26.8784409 206.8911285 -18.8652115
25.5916405 206.7399597 -18.0377407
24.2561131 206.5770874 -17.2571945
22.9463654 206.4390869 -16.5439205
-35.3269653 210.1686554 -27.0416126
-36.6646957 210.5612793 -28.6883278
-38.0846252 211.0293732 -30.5678062
41.6645164 211.5659637 -35.5536270
40.2772293 211.0545807 -33.1476364
38.9012718 210.6188660 -31.0423813
26.8857784 208.2326050 -19.2052956
21.6822777 207.6758118 -16.1804981
20.3820858 207.5583191 -15.5395136
-35.3583832 211.5946960 -27.6635838
-36.7120323 212.0092468 -29.3577194
41.7229118 213.0719910 -36.4657555
40.3117142 212.5322876 -34.0103569
38.9176483 212.0513000 -31.7632465
26.9078255 209.5880585 -19.6060925
21.6772022 209.0064697 -16.5118561
20.3850994 208.8922577 -15.8715773
-35.3905106 213.0395966 -28.3669491
40.3360977 214.0265503 -34.9520493
38.9485512 213.5295868 -32.6244545
26.8922806 210.9349365 -20.0245705
25.6057930 210.7708893 -19.1415405
24.2946606 210.6200867 -18.3266068
22.9918613 210.4856873 -17.5878487
21.6901054 210.3526764 -16.8931637
20.3874683 210.2343140 -16.2363586
-32.6895828 213.7071228 -25.9465446
-34.0454330 214.0828857 -27.4630833
-35.4233627 214.5099335 -29.1815224
-36.7879372 214.9743347 -31.0371513
40.4060898 215.5752258 -36.0431938
38.9551888 215.0159912 -33.5554466
26.9134083 212.3262482 -20.5444260
25.6242962 212.1599426 -19.6643047
24.2759247 211.9737549 -18.7941132
22.9893608 211.8434296 -18.0339870
21.6953392 211.7123718 -17.3204880
20.3873768 211.5802765 -16.6484375
-32.7290192 215.1689453 -26.7200050
-34.0941925 215.5701752 -28.3271217
-35.4607162 216.0127563 -30.1146698
39.0129051 216.5680542 -34.7073479
37.6417084 216.0740814 -32.4496574
36.2704620 215.6620789 -30.4744873
-30.0543003 215.9249725 -24.7188969
-31.4184036 216.2812805 -26.1031303
-32.7556114 216.6477509 -27.5801487
-34.1398163 217.0835571 -29.2865086
39.0794411 218.1668701 -36.0084915
37.6648178 217.6120300 -33.5921593
36.2863274 217.1585388 -31.4628201
-30.0794563 217.3944397 -25.5482082
-31.4666481 217.7822723 -27.0314102
37.7308884 219.2239380 -34.9597397
36.3159065 218.6951294 -32.6199303
-30.1167030 218.8966675 -26.4920578
-31.4723854 219.2819977 -28.0203705
36.3652039 220.2987518 -34.0113373
-30.1587124 220.4327393 -27.5651646
36.4407768 221.9749603 -35.5749512
35.0182457 221.4383698 -33.2406387
33.6487770 220.9911499 -31.2123795
-27.5250168 221.2555542 -25.8907890
-28.8776398 221.6237335 -27.2771912
-30.2152767 222.0123291 -28.7923126
35.1096687 223.1373138 -34.8536301
33.7063980 222.6220703 -32.6717911
-27.5657043 222.8178253 -27.0640678
-28.9244576 223.2034454 -28.5409126
-30.2563744 223.6148071 -30.1358204
33.7589951 224.3063049 -34.3252144
32.3868942 223.8288574 -32.2682152
31.0503063 223.4421844 -30.4647446
-24.9218845 223.7147980 -25.7239933
-26.2854156 224.0659027 -27.0192375
-27.6048679 224.4223328 -28.3964920
-28.9848289 224.8495178 -30.0138588
32.4533768 225.5260925 -33.9938583
31.0827484 225.0772552 -32.0159760
-24.9584942 225.3028412 -27.0165844
-26.3248024 225.6824341 -28.4294891
31.1356888 226.8058624 -33.8448982
29.7397690 226.3560181 -31.8978996
28.4198723 226.0137634 -30.2752209
27.0675201 225.6809082 -28.7625465
25.7654877 225.4049530 -27.4581604
-22.3490772 226.2799225 -26.0276337
-23.6814671 226.6024933 -27.2053967
-25.0068169 226.9421387 -28.5026894
-26.3683891 227.3462524 -30.0149498
29.8070793 228.1346130 -33.8181686
28.4617958 227.7147522 -32.0070381
27.1067810 227.3439484 -30.3695259
25.7814541 227.0265198 -28.9203148
-22.4000988 227.9316559 -27.5238152
-23.7352276 228.2813416 -28.8090572
-25.0665054 228.6593628 -30.2291794
27.1373138 229.0576477 -32.1971436
25.8293591 228.7299652 -30.6635628
-19.7842274 228.9760895 -26.8373623
-21.1003418 229.2759705 -27.9410934
-22.4412498 229.6235199 -29.2050705
27.1910591 230.8987579 -34.4543381
25.8588104 230.4832153 -32.6681328
-19.8182888 230.6754761 -28.5498104
-21.1490669 231.0134583 -29.8006973
25.9301338 232.3990631 -35.0974426
24.5453186 231.9508209 -33.3061447
23.2068520 231.6221313 -31.7645988
21.8835354 231.3330078 -30.4269390
20.5651093 231.0727539 -29.2350368
-11.9676094 230.8944702 -25.0654640
-13.2655153 231.0817108 -25.7136650
-14.5884466 231.3139038 -26.4774933
-15.8891582 231.5497131 -27.3034344
-17.2290649 231.8249817 -28.2716160
-18.5346718 232.1184387 -29.3315563
-19.8740635 232.4573669 -30.5735188
21.9227791 233.1668091 -32.6216965
20.5877285 232.8454590 -31.2885208
-11.9944391 232.5962219 -26.7597809
-13.3005657 232.8061829 -27.4836044
-14.6313820 233.0533600 -28.3361473
-15.9213343 233.2917786 -29.2531204
-17.2678471 233.5992432 -30.3409157
-18.5877552 233.9546509 -31.5288963
21.9870186 235.1722717 -35.4183044
20.6370621 234.7509766 -33.7990036
19.3069000 234.4435577 -32.4548721
17.9679928 234.1844177 -31.2537403
16.6596069 233.9666748 -30.2149887
15.3419209 233.7795715 -29.3061199
-9.3930235 233.9505005 -27.3689899
-10.7179937 234.1520691 -28.0058136
-12.0184040 234.3577576 -28.7114735
-13.3259850 234.5948486 -29.5347404
19.3752842 236.4923706 -35.3362694
18.0035763 236.1319275 -33.8685875
16.6793175 235.8701172 -32.6807251
15.3616924 235.6398163 -31.6616402
-9.4255314 235.7738647 -29.5172958
-10.7545738 235.9965515 -30.2538109
-12.0585947 236.2288666 -31.0621052
-13.3797350 236.5341034 -32.0186653
15.3935957 237.6554413 -34.5687790
14.0774803 237.4099579 -33.5032349
12.7571459 237.1950378 -32.5506287
11.4413023 237.0618134 -31.8066883
10.1395779 236.9458771 -31.1695328
8.8253765 236.8286133 -30.5776100
7.5311060 236.7574463 -30.1346321
3.6011872 236.6657257 -29.3315182
2.3135943 236.6660919 -29.2151089
0.9987407 236.7024536 -29.1996861
-0.3065223 236.7583466 -29.2643280
-1.6125462 236.8232727 -29.4035034
-2.9199035 236.9190216 -29.6386509
-4.2272444 237.0208130 -29.9366589
-5.5444517 237.1557312 -30.3334255
-6.8315067 237.2901917 -30.7797127
-8.1499147 237.4869385 -31.3891983
-9.4601765 237.7076721 -32.1105881
-10.7975321 237.9828644 -32.9795418
12.8015823 239.3671112 -35.8373451
11.4751940 239.1625977 -34.9264183
10.1576023 238.9598999 -34.1366501
8.8374739 238.8216858 -33.4697647
7.5315742 238.7341766 -32.9371033
3.5964789 238.5990143 -31.9713058
2.2983093 238.6034851 -31.8334808
0.9899940 238.6382294 -31.8101521
-0.3244481 238.6874237 -31.8830299
-1.6242473 238.7700195 -32.0793533
-2.9372344 238.8743591 -32.3480453
-4.2458506 239.0113525 -32.6947250
-5.5722952 239.1889648 -33.1834183
-6.8588428 239.3599854 -33.7734528
-8.1920271 239.6039734 -34.4918098
8.8716269 241.1466827 -37.3089371
7.5690675 240.9974976 -36.5702438
6.2297144 240.8886261 -36.0420380
4.9212565 240.7831726 -35.6781502
3.5973792 240.7596283 -35.3840942
2.3067565 240.7432556 -35.2160378
-0.3396491 240.8206329 -35.3185883
-1.6444254 240.9623413 -35.5239372
26.6703129 46.6409111 175.1449738
26.1665707 46.6356125 175.2590485
25.6595898 46.6322289 175.3238525
25.1323338 46.6371918 175.3992920
24.6166916 46.6317596 175.3936768
24.0897522 46.6330719 175.3941345
23.5686874 46.6350479 175.3585968
23.0442982 46.6399498 175.3009644
30.8181839 47.0862083 175.8589478
18.8916531 47.0911865 176.2726898
32.8649673 47.5258331 176.7268982
32.3197479 47.5229988 177.1192932
31.7899990 47.5293427 177.4752808
31.2729454 47.5391312 177.7643127
30.7617855 47.5344810 177.9997711
18.8767052 47.5424309 178.3194733
18.3455296 47.5318832 178.0643311
17.8426170 47.5465355 177.8231354
17.8136635 47.9790955 179.6060333
14.7536068 48.0418015 177.7755737
36.4336777 48.4591599 177.7650452
35.8888969 48.4808998 178.2920380
17.8002300 48.3830376 181.2321625
17.3003540 48.3877411 181.0090637
16.7902660 48.3977203 180.7380981
16.2815952 48.4178162 180.4638824
15.7718458 48.4508438 180.1905670
15.2576590 48.4673729 179.8722992
14.7574692 48.4711571 179.5628052
14.2274036 48.4561539 179.1709900
13.7072592 48.4490280 178.7636261
37.9997559 48.9273262 178.1331940
12.6636763 48.8934631 179.6276093
39.0095291 49.3679352 178.7597809
38.4714546 49.3724213 179.3201141
37.9253807 49.3656998 179.8516388
12.6627760 49.3527527 181.1757813
12.1499758 49.3542213 180.7786255
11.6419611 49.3624763 180.3674927
11.1330690 49.3712730 179.9249115
10.6059866 49.8215561 180.9968872
41.0042877 50.2863350 179.8886261
40.4651375 50.2780495 180.4726563
39.9389877 50.2693176 181.0064240
10.6004515 50.2682762 182.3618469
10.0978231 50.2811890 181.9623718
9.5636921 50.2883835 181.4840698
9.0361719 50.2976608 180.9908295
8.5160046 50.7625923 181.8612061
44.1925583 51.2963028 179.0464630
43.6500168 51.3189430 179.9109802
43.0801506 51.2848358 180.5886078
45.1694221 51.7685280 179.1645813
31.9313507 51.2679062 189.1015778
31.4060764 51.2539368 189.2593079
30.9114017 51.2329445 189.3770294
30.4142952 51.2331848 189.5233459
29.9025822 51.2351265 189.6602478
29.3902645 51.2192345 189.7413025
28.8727856 51.2095680 189.8271942
28.3655529 51.2075424 189.9228516
27.8442307 51.1982002 190.0015259
20.7299442 51.2217827 189.9612274
20.2256527 51.2338524 189.8656158
19.7211628 51.2406349 189.7601776
19.2033386 51.2456741 189.6438141
18.6774178 51.2551575 189.5240936
18.1622906 51.2715454 189.4096832
17.6571560 51.2867928 189.2813873
17.1647511 51.3015594 189.1377563
45.6139145 52.2378235 180.0571747
45.0845604 52.2142868 180.7602997
31.8994102 51.6640739 190.0123444
8.5146513 52.0572739 185.4916229
8.0117197 52.0784111 185.0870819
7.5097218 52.1043816 184.6630859
7.0110922 52.1369209 184.2139893
6.4989886 52.1685905 183.7158356
5.9776731 52.1872673 183.1845398
46.0990791 52.6865005 180.7985077
35.9935799 52.1985970 189.3219452
35.4830627 52.1792755 189.5599518
34.9910660 52.1580772 189.7651215
34.4830055 52.1425972 189.9829102
14.1015263 52.2131691 189.8403625
13.5659676 52.2313004 189.5700836
13.0692072 52.2595596 189.3431244
46.6103668 53.1273041 181.4270325
46.0224304 53.1073532 182.2219543
4.4113135 53.1039467 183.9168854
3.8791003 53.1213188 183.3553772
39.0746117 53.1360664 189.4075623
38.5580025 53.1086960 189.7123718
10.5283623 53.1810112 189.7900085
10.0319090 53.2209625 189.5013123
9.5215607 53.2529526 189.1758575
9.0043859 53.2841644 188.8275909
8.9835615 53.6794548 189.6990204
2.3653438 54.0863609 183.8629150
1.8436456 54.1035995 183.2707672
42.1405792 54.1177483 189.0770111
41.6049767 54.0930824 189.4957886
41.0632248 54.0623283 189.8932495
7.9789219 54.1531181 189.9144287
7.4855175 54.1923523 189.5733337
6.9823356 54.2299423 189.2110596
42.1184311 54.5305557 189.9805298
1.3592825 55.0153503 184.8356934
0.8213050 55.0268364 184.2094574
44.1576462 55.0648766 189.2487793
43.6507607 55.0253830 189.6470795
5.4342055 55.1409607 189.7386017
4.9245391 55.1887665 189.3125610
51.1888542 55.9833260 182.2252197
0.3502127 55.9493332 185.6817017
51.1033134 56.3860855 183.4127197
46.2019463 56.0275345 189.1219635
45.6505623 55.9892006 189.6430054
3.3871660 56.1271744 189.6977539
2.8883553 56.1792755 189.2307587
51.6167259 56.8453178 183.7299042
51.0349884 56.8022537 184.5542603
46.1572609 56.4297523 189.9888458
48.2707825 57.0031128 188.7574921
47.7447968 56.9617844 189.2837067
47.1923904 56.9202766 189.8284149
1.8717686 57.0898209 189.9233856
1.3733879 57.1428986 189.4388580
0.8703239 57.1937065 188.9451447
0.3623508 57.2362061 188.4105225
53.1856155 57.8086739 183.4318237
48.2343407 57.4065094 189.6015167
0.8592476 57.5882492 189.7720032
0.3447781 57.6398277 189.2426758
53.1044693 58.2341042 184.5521088
49.2453308 57.9095802 189.3869934
48.7137718 57.8693733 189.9454498
-2.6589720 58.3559418 186.1931610
53.5893936 58.6966629 184.8048248
53.0276604 58.6566010 185.6183777
-2.1781833 58.7679749 188.0508728
-2.7016547 58.8050461 187.4032593
-3.2410254 58.8300285 186.7350616
51.3184929 58.9208984 188.6624451
50.7764740 58.8689842 189.2855988
50.2226868 58.8222809 189.9126892
-1.6967791 59.0746422 189.4477386
-2.1801245 59.1535378 188.8663635
55.1320419 59.6763916 184.3705902
51.2813034 59.3358269 189.4976959
-2.1917038 59.5638809 189.6386871
-3.7409127 59.7220955 187.7763214
52.3334503 59.8438759 189.0087128
51.7707443 59.7967682 189.6924438
-2.6984787 60.0456429 189.8024445
-3.2014658 60.1046181 189.2102356
-3.7167192 60.1539040 188.5931091
52.2915421 60.2509995 189.8137054
-3.2059927 60.5230064 189.9571228
-3.6922271 60.5789757 189.3936462
57.3103981 61.1572876 183.4955902
53.3309250 60.7733040 189.3293915
52.7996216 60.7167892 189.9638367
57.1929245 61.5895576 184.5722961
54.2918358 61.7075233 189.6199341
58.2251358 62.5446014 184.5487671
58.7298965 63.0180283 184.5400238
58.1540756 62.9658852 185.5016937
55.3379250 62.6458702 189.6497040
58.0890465 63.3830032 186.4063110
56.3592834 63.6041260 189.6572876
59.0890541 64.3352966 186.3225861
57.3774300 64.5645065 189.5964661
60.1604271 65.2970963 186.0627594
58.3907433 65.5279617 189.4774933
60.0755997 66.1388397 187.5652313
59.9668350 66.6068420 188.4533539
59.4115562 66.4956894 189.2445526
61.1221352 67.1329575 187.1635437
60.5235023 67.0671616 188.1425018
59.9435043 66.9918976 189.0515289
59.3747025 66.9123077 189.9221802
60.4767647 67.4913635 188.8338013
59.9036827 67.4149399 189.7318420
62.1897736 68.1288147 186.6617279
60.4288864 67.9137802 189.5252991
62.0491791 68.9816360 188.1027985
61.4234390 69.3221588 189.7108459
63.1086884 69.9808273 187.4860840
63.0486259 70.4104843 188.1598206
62.4818497 70.3306961 189.1125488
63.5742912 70.9124146 187.8166504
63.0131187 70.8345718 188.7690430
62.4510880 70.7489243 189.7110443
64.1334076 71.4160995 187.3980713
64.0357513 71.8497543 188.1181488
64.6508026 72.3518829 187.5769196
64.0052643 72.2717590 188.6900330
63.4414787 72.1860962 189.6445160
63.9694290 72.6966705 189.2634125
64.5569305 73.2129898 188.7343903
63.9199944 73.1216125 189.8489685
65.0916977 73.7394409 188.3134003
64.4987793 73.6382751 189.3347473
65.5993500 74.6804504 188.3462982
64.9947433 74.5871201 189.4315491
65.5457687 75.1136246 188.9019775
64.9623108 75.0138779 189.9391785
66.1066284 75.6360321 188.3488617
65.5054169 75.5397415 189.4243469
66.0543137 76.0659485 188.8985291
65.4720306 75.9666595 189.9338531
68.0943527 80.3844681 188.5982513
67.5074921 80.2734756 189.7104034
68.0614014 80.8195572 189.0137177
68.0282440 81.2545624 189.4259186
68.5977325 81.8115540 188.6330719
67.9871597 81.6889114 189.8353729
68.5520325 82.2456512 189.0521240
-15.8621969 176.8118439 -17.0740242
-15.2001610 177.3261414 -16.6437817
-15.8272295 177.3567200 -16.8597088
-16.4771938 177.4096375 -17.0828171
-17.1272831 177.4649048 -17.3101120
-14.5340548 177.8415985 -16.2211418
-13.8790121 178.3844604 -15.7970438
-14.5241241 178.4344635 -15.9875965
-19.0467167 178.8173676 -17.5547523
-19.7267876 178.8782349 -17.8321762
-11.9075699 179.4522858 -14.9020939
-12.5779104 179.4801788 -15.0332060
-13.2347488 179.5165558 -15.1721001
-21.6202908 180.3199463 -18.2210217
-22.2937984 180.4013519 -18.5278149
-11.9190578 180.0439606 -14.6803322
-24.2423401 181.1505890 -19.2581196
-11.2584238 180.5848389 -14.4343014
-11.9393463 180.6324768 -14.4544954
-24.2372227 181.7492371 -19.0543785
-24.9114189 181.8338470 -19.4315434
-25.5651646 181.9255829 -19.8218746
-26.1510983 182.0175171 -20.1943512
-10.6739836 181.1699829 -13.9997129
-9.3373861 181.6432343 -13.4951286
-9.9874687 181.6907349 -13.6184206
-10.6448870 181.7275391 -13.7419968
-26.8755054 183.2801514 -20.1619778
-27.5164471 183.3869476 -20.5893478
-28.1878986 183.5128479 -21.0322666
-28.8546810 183.6291809 -21.4676208
-29.5048523 183.6824036 -21.9057636
-30.1616917 183.7811127 -22.3528919
-33.5005569 185.5694733 -24.6170235
-34.1808052 185.7021637 -25.2195129
-34.8724174 185.8395538 -25.8544140
-35.5143929 185.9724731 -26.4584427
-36.2034492 186.1143951 -27.1176662
-8.1230631 183.3466034 -12.7221975
-8.7409544 183.3819733 -12.8193245
-9.3483734 183.4194794 -12.9231806
-9.3675489 184.0132599 -12.7530556
-41.6795235 188.7756195 -33.2792053
-42.3821831 188.9375305 -34.2447968
44.7524185 188.6311188 -38.2570686
-9.3619938 184.6108856 -12.5891171
-41.6765480 189.3495026 -33.1235695
-42.3888855 189.5552063 -34.0912666
44.7121124 189.2183533 -37.9607124
44.0565224 188.9925690 -36.7745705
43.3754463 188.7765198 -35.6280289
42.6639404 188.5672302 -34.5079880
41.9509888 188.3722687 -33.4567146
41.2765961 188.1966400 -32.5100441
40.5931778 188.0294037 -31.5988579
39.9208641 187.8712463 -30.7452221
39.2200317 187.7151031 -29.8954811
20.7714233 185.3161163 -16.0191822
20.1393204 185.2716980 -15.7347403
-9.3442888 185.2104187 -12.4365396
-41.6796494 189.9662170 -32.9691887
29.8752060 186.7706909 -21.0557632
25.3111858 186.2834778 -18.1584682
-41.6672935 190.5794373 -32.7990303
29.8778973 187.3724213 -20.9043884
29.2188568 187.2921753 -20.4399052
28.5774479 187.2200165 -20.0170269
27.9209290 187.1476135 -19.5891953
27.2510796 187.0753784 -19.1565399
26.6009216 187.0051575 -18.7439594
25.9756680 186.9414215 -18.3698387
25.3205662 186.8832397 -18.0086269
19.5430031 186.4341888 -15.1777782
18.6649399 186.3686676 -14.7401314
-6.8283052 186.2846680 -11.7855644
-41.6734657 191.2004395 -32.6696701
46.9716682 191.8776093 -41.8238258
-41.6786499 191.8251343 -32.5581856
46.9224892 192.4706726 -41.5553818
16.9067593 187.4931793 -13.9434052
16.2549725 187.4593048 -13.7090321
-41.6572533 192.4467163 -32.4354362
-42.3589935 192.6632233 -33.4302444
-43.1009483 192.8977661 -34.5064964
46.9421005 193.0951538 -41.4505577
15.5872364 188.0278168 -13.3602686
-43.0847778 193.5276947 -34.4182205
46.9228401 193.7085114 -41.2870674
15.5955391 188.6381683 -13.2590780
14.9454317 188.6094360 -13.0499287
-3.8878546 188.3798828 -10.0210733
-4.2630825 188.2264252 -9.2342892
-6.8218651 188.7039337 -11.3054457
-43.0848503 194.1644745 -34.3582687
46.9089699 194.3282928 -41.1567612
14.3133497 189.1945190 -12.7717495
-1.7161704 189.1257477 -10.8082895
-3.5214837 189.1395721 -10.6903906
-3.8910069 188.9913330 -9.9385633
-4.2575011 188.8395996 -9.1639938
-6.8243961 189.3136902 -11.2017536
-7.4696946 189.3475800 -11.3037853
-8.0958881 189.3794708 -11.4064999
-43.0645599 194.7950134 -34.2777100
46.8988190 194.9527893 -41.0593529
14.3116388 189.8046112 -12.6907578
13.6798830 189.7819519 -12.5126743
-1.0558407 189.7149963 -10.6923885
-1.7063874 189.7333374 -10.7212067
-3.5325735 189.7487183 -10.6005144
-3.8976073 189.5994568 -9.8438816
-4.2590928 189.4480438 -9.0731087
-8.1010294 189.9876862 -11.3071413
-43.0823784 195.4420013 -34.2649078
46.8960876 195.5863342 -41.0083580
10.4622211 190.2965088 -11.6277990
2.1536891 190.2647400 -10.6399059
-2.3670747 190.3642273 -10.6635065
-4.2636352 190.0540314 -8.9747543
-8.7449284 190.6358948 -11.3285398
-9.3889589 190.6732941 -11.4474430
-10.0133514 190.7086487 -11.5634222
-10.6756268 190.7514801 -11.6943064
-43.0806580 196.0835571 -34.2360001
46.8835869 196.2266541 -40.9797173
10.4629669 190.9117126 -11.5690756
9.8126507 190.8960571 -11.4305325
9.1534796 190.8787689 -11.2854204
8.5392570 190.8674774 -11.1476955
5.9283147 190.8877563 -10.7670012
5.3279815 190.8417206 -10.7324953
4.6962004 190.8494568 -10.6941738
4.0395570 190.8493195 -10.6553402
3.4061465 190.8620453 -10.6180267
2.7883124 190.8699493 -10.5860376
2.1408126 190.8734589 -10.5552359
-2.3522406 190.9741974 -10.5776138
-8.7623816 191.2481842 -11.2376575
-10.6843529 191.3653717 -11.6143904
-43.0666122 196.7235565 -34.1983566
46.8800774 196.8807220 -41.0149078
7.9166193 191.4808350 -10.9830446
7.2505145 191.5075836 -10.8985424
-2.3477836 191.5873566 -10.4973431
-8.1206102 191.8248291 -11.0335770
-10.6947193 191.9793243 -11.5447998
-41.6724396 196.9090118 -32.1208153
-42.3661575 197.1371155 -33.1429100
-43.0935440 197.3793030 -34.2257042
47.6265411 197.8717804 -42.7335625
46.8545761 197.5151062 -40.9688072
7.8916011 192.0876160 -10.9456863
7.2480483 192.0829163 -10.8437157
-2.3490846 192.1986084 -10.4301119
-5.5753064 192.3222656 -10.6708174
-6.1966124 192.3504791 -10.7481737
-6.8054833 192.3731689 -10.8227701
-7.4422626 192.4007874 -10.9019699
-8.1148882 192.4409180 -10.9890957
46.9033585 198.1792297 -41.0548973
46.9132614 198.8374481 -41.1010170
46.9249916 199.5066376 -41.1928940
46.9075279 200.1551208 -41.2144547
-41.7087250 200.1784668 -32.2683334
46.9372063 200.8326416 -41.3626747
46.1330299 200.4699097 -39.6060410
45.4197540 200.1690369 -38.1136475
-41.7046356 200.8427124 -32.3585663
45.4383507 200.8323975 -38.1921844
-41.7127953 201.5144653 -32.4749222
45.4397392 201.4957886 -38.2872963
-41.7537155 202.2032471 -32.6436996
45.4886208 202.1931152 -38.5037193
-41.7454300 202.8729248 -32.7445602
45.4822273 202.8640900 -38.6354599
-40.3345833 203.0714111 -30.8522682
45.4826813 203.5443726 -38.7997742
-40.3568802 203.7557526 -31.0080204
-40.3680420 204.4398041 -31.1716595
-40.4057045 205.1399536 -31.3864574
44.8344040 206.7531586 -38.6642113
44.0843658 206.4341431 -37.2204132
44.1049271 207.1478271 -37.5087433
44.1358223 207.8769989 -37.8638725
44.1560974 208.6062775 -38.2369843
-37.6548157 209.1036530 -29.3020725
-37.6725655 209.8185425 -29.6142635
43.5107231 210.5074005 -38.0260620
42.7221527 210.1576843 -36.5191269
42.7451286 210.8937683 -36.9181633
42.7877960 211.6666870 -37.4242897
25.9265041 207.7804565 -18.4841404
25.2654972 207.6893921 -18.0746193
42.8494263 212.4532318 -38.0215302
25.9307232 208.4596558 -18.6574097
25.9239979 209.1168976 -18.8194275
23.2650700 208.8051605 -17.2499771
22.6422710 208.7526855 -16.9192162
-36.3749313 212.9776611 -29.4264355
25.9338169 209.7967377 -19.0172081
22.6602573 209.4462738 -17.1108551
-36.4082489 213.7277527 -29.8603306
-37.1244965 213.9751129 -30.8378811
41.4001274 214.0732880 -36.5812798
41.4730530 214.8852844 -37.2517166
-36.4984245 216.0043945 -31.3217773
-36.5105934 216.7665253 -31.8126316
40.0890846 216.6162415 -36.2977867
-35.1890869 217.0663605 -30.4501495
-35.8661194 217.3042450 -31.3924637
40.1500092 217.4390106 -37.0163307
-32.4507523 217.6828613 -27.9073830
-33.1179504 217.8845825 -28.7024937
-33.8238182 218.1169739 -29.6004715
-34.5311012 218.3662415 -30.5458431
-35.2503014 218.6327209 -31.5319481
-32.4520035 218.4328003 -28.4055977
38.7966576 219.2566223 -36.4676857
38.8320503 220.1014709 -37.2577705
38.1764870 220.6437225 -36.7641678
37.4232368 220.2957153 -35.4113388
-31.1697617 220.3484650 -28.4654388
37.4834557 221.1538239 -36.2617073
-31.1861725 221.1334991 -29.0652771
37.5525627 222.0485992 -37.2274437
-31.2199974 221.9300690 -29.7063122
-31.9303150 222.1829071 -30.6144829
-31.2593613 222.7509308 -30.3873558
36.1602898 223.1380768 -36.2206230
-31.3216705 224.4127655 -31.8830185
-29.9742413 224.7592773 -30.8776836
-30.6665516 225.0079803 -31.7841930
-30.0141773 225.6117401 -31.7123241
34.1989174 225.8086548 -36.4213524
33.4611282 225.4722748 -35.1378098
-27.2961674 225.5391846 -29.1207848
33.5236320 226.3970490 -36.1253815
32.8545799 227.0292816 -36.0119247
32.1566658 226.7342529 -34.8880959
32.2194061 227.6832123 -35.9706230
31.5832825 228.3512268 -36.0289650
30.8243961 228.0254517 -34.8242912
-26.0854855 228.5476837 -30.9503403
30.9146748 229.0129700 -36.0145149
-26.1269665 229.4432831 -31.9086189
28.8708744 229.1979218 -33.9267349
28.1757450 228.9550171 -33.0253525
-23.4392509 229.4668732 -29.7680225
-24.1061096 229.6618500 -30.4795532
-24.7806168 229.8775330 -31.2446346
-25.4724445 230.1160126 -32.0640450
28.2254963 229.8869171 -34.1330109
-23.4726791 230.3473816 -30.7073288
28.2511806 230.8414307 -35.3494682
-22.1340885 230.8354492 -30.2711296
-22.8305798 231.0629120 -31.0160522
28.2685852 231.8090820 -36.6319351
27.6131973 232.5526581 -37.0247536
26.9237175 232.2635193 -35.8816185
-20.8437862 232.2610168 -31.0251427
25.6725159 233.8357391 -36.8018265
24.9818325 233.5802155 -35.7568054
24.2691650 233.3584747 -34.7662849
23.6238575 233.1470184 -33.8821487
22.9503422 232.9738922 -33.0580711
-19.5834675 233.7723083 -31.9321766
-20.2850952 234.0073547 -32.6846008
23.1128197 233.7277374 -33.8974495
22.9843597 234.9953308 -35.9646416
-14.3202152 234.3216858 -29.6539383
-14.9741335 234.5053406 -30.2010384
-15.6032209 234.7382202 -30.8416424
-16.2650528 234.9052277 -31.4571629
-16.9762840 235.0616302 -31.9944115
-17.6560860 235.1407166 -32.4470634
-18.3171883 235.3565063 -33.0924225
-14.3489361 235.2736359 -30.8293819
21.0373688 236.4626312 -36.4554291
20.3650665 236.2416077 -35.6364632
18.4617500 237.8420410 -36.5467224
17.7967472 237.5560760 -35.6622658
17.1516743 237.3321533 -34.9381104
16.3909950 237.3647003 -34.5963974
-11.7767820 237.6686707 -32.8888435
-12.4261189 237.8343048 -33.3570099
16.4316940 238.4816132 -36.3172722
15.7778072 239.4715271 -37.6374702
15.1158905 239.3005219 -36.9174576
14.4625893 239.1426392 -36.2934036
13.7909136 238.9693756 -35.7143478
-9.1615849 239.2077026 -34.1772881
-9.8331718 239.4040680 -34.6824341
-10.4969015 239.5670166 -35.1675415
13.8344946 240.1987610 -37.7447166
11.2047701 240.9070892 -37.6516762
10.5347757 240.7562103 -37.1567001
9.8546019 240.6163025 -36.7423134
