-16.7308273 206.1125488 -8.0590439
-21.8916359 206.7494812 -10.3598270
-27.1041489 207.5651093 -13.4488640
34.5416489 211.9096375 -16.7932034
29.2940598 211.1168976 -12.8079166
24.1093864 210.5536346 -9.8225002
18.9606457 210.1654816 -7.6033444
13.8473616 209.9257660 -6.0321417
-16.7490292 211.1017151 -7.9504347
-21.9107571 211.7702942 -10.3143959
-27.1324787 212.6333008 -13.5138531
29.2993546 216.2394104 -13.2880077
24.1013756 215.6356049 -10.1944752
18.9520721 215.2231140 -7.9108372
13.8342371 214.9695435 -6.3001447
8.7369423 214.8551178 -5.2836351
3.6493564 214.8692627 -4.8140459
-1.4415039 215.0114441 -4.8818979
-6.5356069 215.2775269 -5.4748282
-11.6427364 215.6728821 -6.6187296
-16.7756386 216.2176208 -8.3846846
-21.9473324 216.9307861 -10.8637543
-27.1765556 217.8571014 -14.2375669
29.3190727 221.5349884 -14.4712553
18.9529991 220.4252930 -8.7980986
13.8285732 220.1528778 -7.1356521
8.7237835 220.0278015 -6.0851388
3.6276731 220.0457153 -5.6192837
-1.4640197 220.1917877 -5.6937704
-6.5649395 220.4764709 -6.3330746
-11.6810589 220.9048615 -7.5652080
-16.8168983 221.4894714 -9.4447842
-21.9996433 222.2635803 -12.0979538
24.1372871 226.3112946 -12.9562836
18.9646645 225.8088989 -10.3864393
13.8278532 225.5056152 -8.6187038
8.7166939 225.3683777 -7.5235257
3.6110282 225.3771973 -7.0270367
-1.4900472 225.5380402 -7.1378789
-6.5998955 225.8449402 -7.8374853
-11.7238369 226.3110352 -9.1774445
-16.8797836 226.9565277 -11.2403412
13.8350544 231.0747681 -10.8953390
8.7138891 230.9120483 -9.7050171
3.5963721 230.9188232 -9.1932287
-1.5186677 231.0919189 -9.3333263
-6.6420712 231.4311371 -10.1302118
-11.7814789 231.9503784 -11.6375675
13.8566837 236.9524841 -14.2532940
8.7141380 236.7476807 -12.9157963
3.5764384 236.7420959 -12.3565578
-1.5526433 236.9330139 -12.5438337
-6.6951504 237.3191528 -13.4898376
-10.3139343 197.0859528 -7.5458441
-12.8697872 197.2814178 -8.1943445
-15.4333878 197.5110321 -9.0007496
-10.3141594 199.4655304 -6.9757385
-12.8716345 199.6655426 -7.6319199
-15.4307213 199.8971558 -8.4336357
-18.0119324 200.1645813 -9.3975039
-20.5919380 200.4671936 -10.5231533
-23.1813717 200.8073273 -11.8203154
-10.3170624 201.8667145 -6.5191908
-12.8696308 202.0716400 -7.1849484
-15.4424858 202.3099365 -7.9995642
-18.0096149 202.5791779 -8.9575186
-20.5911179 202.8864746 -10.0853424
-23.1786652 203.2324219 -11.3883915
-25.7884541 203.6266174 -12.9071980
-28.4159927 204.0720978 -14.6572647
-31.0415230 204.5726624 -16.6597939
-33.7149544 205.1537170 -19.0193195
43.9806366 207.7941132 -27.4885979
41.2393570 207.0209351 -23.7406769
38.5488586 206.3974609 -20.6705341
35.8776093 205.8775177 -18.0638351
22.8350849 204.2651978 -9.4924154
20.2659874 204.0824585 -8.4085255
17.6952591 203.9325714 -7.4727898
-12.8710289 204.5011292 -6.8560357
-31.0450401 207.0563354 -16.4190826
-33.7112961 207.6449432 -18.7809181
-36.4009552 208.3262939 -21.5541248
43.9678726 210.3146515 -27.3985291
41.2279358 209.5209045 -23.6007404
38.5394669 208.8843231 -20.5029240
35.8697701 208.3511810 -17.8694077
33.2285461 207.9044342 -15.6241398
30.6101875 207.5316467 -13.7002172
28.0044060 207.2116089 -12.0106659
25.4060669 206.9339600 -10.5224590
22.8210564 206.7127838 -9.2678833
20.2585049 206.5262451 -8.1796103
17.6865330 206.3713379 -7.2319012
15.1386337 206.2579346 -6.4622016
12.5827456 206.1740417 -5.8253107
10.0338440 206.1200562 -5.3255806
2.4078102 206.1391754 -4.6141672
-0.1447939 206.2055054 -4.6506095
-12.8826828 206.9589844 -6.6542783
-31.0584583 209.5735168 -16.3329010
-33.7243118 210.1791687 -18.7351665
-36.4123993 210.8807373 -21.5616684
43.9731674 212.8983917 -27.5846329
41.2311630 212.0700989 -23.6759872
38.5336380 211.4129181 -20.5235786
10.0315847 208.5875092 -5.2208261
7.4742203 208.5578918 -4.8342295
4.9358625 208.5664368 -4.6116476
2.4017901 208.6010742 -4.4985771
-0.1500691 208.6694641 -4.5268040
-2.6991735 208.7680359 -4.6933336
-5.2383604 208.8905334 -4.9609084
-7.7849488 209.0422821 -5.3587565
-10.3421974 209.2241211 -5.8899097
-12.8908014 209.4418945 -6.5773411
-31.0693130 212.1273193 -16.4148178
-33.7464066 212.7592926 -18.8926392
-36.4294281 213.4827576 -21.7789688
41.2366219 214.6754150 -23.9943790
38.5366020 213.9872894 -20.7452087
10.0156527 211.0725708 -5.2131343
7.4715848 211.0516663 -4.8499122
4.9285545 211.0596313 -4.6206412
2.3973088 211.0929871 -4.5058289
-0.1637179 211.1645660 -4.5355930
-2.6939383 211.2573090 -4.6844912
-5.2357774 211.3828735 -4.9624615
-7.7938585 211.5421448 -5.3813877
-10.3499565 211.7339325 -5.9372187
-12.9069281 211.9595337 -6.6408687
-31.0937901 214.7284698 -16.6900826
-33.7681808 215.3804474 -19.2255287
41.2578506 217.3429871 -24.5708523
38.5482674 216.6128082 -21.1822853
35.8662071 216.0160217 -18.3651047
33.2217827 215.5261536 -16.0029697
-31.1206722 217.3731537 -17.1505699
-33.8022537 218.0579224 -19.7836494
41.2759552 220.0720825 -25.4064560
38.5626526 219.2965698 -21.8525448
35.8834457 218.6709290 -18.9378777
33.2350922 218.1575165 -16.4983120
-31.1575241 220.0732880 -17.8265228
-33.8419762 220.7955322 -20.5887909
38.5913277 222.0494995 -22.7978935
35.9032631 221.3787689 -19.7244606
33.2488670 220.8319092 -17.1773720
25.3983021 219.6718445 -11.5350761
22.8107719 219.4084167 -10.1670427
-25.9006977 221.6123657 -14.2177229
-28.5464134 222.1779022 -16.2934189
-31.1933918 222.8290863 -18.7252655
38.6369858 224.8923035 -24.0864487
35.9311218 224.1578827 -20.7932034
33.2673798 223.5679321 -18.0917168
25.4136391 222.3474731 -12.2431297
22.8245239 222.0734253 -10.8284531
-25.9389267 224.3660583 -15.1490259
-28.5868092 224.9663696 -17.3354645
-31.2575073 225.6712341 -19.9426460
35.9786682 227.0258942 -22.1871376
33.3061905 226.3857269 -19.3076839
30.6649017 225.8662567 -16.9127483
28.0307846 225.4295197 -14.8734035
-20.7504730 226.1536713 -12.6887894
-23.3599586 226.6350098 -14.3590527
-25.9868965 227.1880341 -16.3327732
-28.6484127 227.8380432 -18.6801109
36.0236969 229.9952087 -23.9781704
33.3446312 229.2876434 -20.8398895
30.6954365 228.7063751 -18.2383461
28.0569477 228.2447815 -16.0966873
-20.7864094 228.9794312 -13.9082031
-23.4108143 229.4960632 -15.6990986
-26.0440178 230.0948792 -17.8208199
33.3925400 232.3020630 -22.7907524
30.7304230 231.6514740 -19.9327164
28.0916786 231.1445313 -17.6307678
25.4683189 230.7209625 -15.6807032
22.8621845 230.3764648 -14.0430527
20.2777882 230.0969543 -12.6617785
17.6898460 229.8804779 -11.5220509
-15.6314049 231.0049438 -12.4692812
-18.2308750 231.4177704 -13.8292770
-20.8359413 231.8910828 -15.4321308
-23.4679871 232.4474487 -17.3601570
-26.1087513 233.0982361 -19.6650219
30.7822113 234.7190399 -22.0795288
28.1269894 234.1426392 -19.5225048
25.5022926 233.6688538 -17.4046631
22.8909607 233.3037109 -15.6613178
20.2916660 232.9926605 -14.1884766
17.7013893 232.7498169 -12.9671001
-15.6707821 233.9288330 -14.0655327
-18.2739296 234.3759766 -15.5334797
-20.8918190 234.8936005 -17.2926598
-23.5326042 235.5122681 -19.4290581
28.1820526 237.2895508 -21.9551353
25.5485420 236.7461700 -19.5735817
22.9219208 236.3169403 -17.6280632
20.3183517 235.9781799 -16.0412750
17.7168903 235.7126465 -14.7245703
-10.5409603 236.2033997 -13.6467361
-13.1227455 236.5516052 -14.7127800
-15.7264977 236.9663391 -16.0442123
-18.3295975 237.4492188 -17.6501236
-20.9594860 238.0325623 -19.6270275
25.6023655 239.9837036 -22.3105583
22.9631653 239.4856720 -20.1124916
20.3559742 239.0916443 -18.3286705
17.7425079 238.7836609 -16.8774872
-10.5824528 239.2902222 -15.7964954
-13.1712170 239.6663208 -16.9824333
-15.7788086 240.1244659 -18.4664974
-18.3955917 240.6780090 -20.3034286
23.0184937 242.8474121 -23.3179836
20.4007111 242.3731079 -21.2175636
17.7756958 242.0116882 -19.5695972
15.1829805 241.7417450 -18.2653313
12.5866432 241.5401154 -17.2334118
10.0095882 241.4169006 -16.4854088
7.4337997 241.3504181 -15.9576778
4.8538876 241.3414001 -15.6568241
2.2811522 241.3880615 -15.5624647
-0.2985995 241.4970093 -15.6865301
-2.8685305 241.6525116 -16.0128384
-5.4509048 241.8686829 -16.5669956
-8.0295486 242.1598511 -17.3809891
-10.6294355 242.5096741 -18.4457092
-13.2274866 242.9521942 -19.8333054
17.8185463 245.4689941 -23.0824947
15.2145252 245.1279297 -21.5102539
12.6117640 244.8794098 -20.3089256
10.0174675 244.7277374 -19.4514523
7.4349895 244.6419373 -18.8537750
4.8533359 244.6251221 -18.5198078
2.2764013 244.6716919 -18.4222946
-0.3095524 244.7805481 -18.5596962
-2.8945179 244.9608765 -18.9588356
-5.4858589 245.2174683 -19.6325531
-8.0731163 245.5425720 -20.5839825
-10.6830311 245.9583893 -21.8693810
2.2677426 248.1934662 -22.1352043
-0.3351966 248.3281250 -22.3471336
-2.9231396 248.5353088 -22.8494415
31.3344879 59.7754974 181.4660950
30.3092518 59.7601013 181.9270325
29.2894821 59.7105446 182.2591705
28.2531700 59.7154007 182.5219116
27.2062702 59.7367744 182.7100525
26.1898346 59.7497711 182.7627563
25.1675529 59.7370377 182.7413177
24.1428223 59.7436981 182.6505432
23.1137276 59.7604599 182.4550323
20.0478325 59.8437996 181.3275146
36.4597015 60.6590195 182.0504761
31.2385464 60.4964752 185.2394409
30.2195759 60.4711075 185.5386353
29.1905613 60.4546432 185.8074036
28.1680355 60.4449844 186.0032196
27.1186543 60.4406281 186.1099854
26.1150093 60.4406395 186.1537933
25.0889492 60.4472809 186.1496277
24.0709991 60.4572372 186.0719910
23.0526485 60.4736023 185.9300385
22.0234585 60.4940376 185.7025452
21.0164509 60.5321808 185.4036865
19.9977493 60.5681953 185.0287323
18.9874516 60.6051865 184.5910492
37.4058075 61.4327927 184.8273315
36.3327522 61.4054108 185.6461639
35.3015709 61.3628311 186.2962646
34.2654343 61.3257256 186.8590240
33.2314835 61.2814636 187.3331604
32.1873436 61.2433167 187.7546692
31.1433125 61.2153625 188.1127625
30.1366234 61.1882858 188.3857727
29.1092415 61.1746216 188.6183014
28.0854454 61.1640091 188.7616577
27.0483513 61.1642456 188.8608246
26.0431290 61.1654282 188.8974609
25.0256538 61.1703072 188.8811035
24.0069942 61.1811218 188.8105011
22.9795380 61.1933289 188.6642151
21.9574852 61.2157707 188.4813843
20.9582996 61.2510262 188.2400208
19.9387474 61.2971497 187.9279785
18.9342785 61.3358498 187.5462036
17.9060211 61.3647766 187.0981598
16.9093018 61.4225883 186.6121521
15.8978338 61.4799957 185.9961853
14.8757677 61.5170441 185.3032837
40.4378433 62.3563194 185.3010254
39.3906746 62.3027496 186.2476807
38.3350601 62.2448616 187.0907135
37.2997017 62.1836433 187.8052063
36.2327728 62.1236649 188.4727325
35.2086105 62.0762329 189.0245514
16.8523483 62.1440582 189.2132263
15.8529406 62.2122269 188.7033997
14.8460026 62.2809601 188.1151733
13.8211050 62.3416901 187.4161377
42.4662781 63.2420769 186.1567993
41.3815918 63.1794090 187.2558136
40.3227997 63.1025085 188.1746216
39.2921371 63.0244637 188.9572296
12.7652073 63.1347809 189.2199402
11.7840462 63.2305832 188.4942780
10.7684708 63.3081551 187.6497955
44.4799576 64.1575317 186.7010193
43.4102135 64.0798950 187.8456268
42.3486786 63.9862900 188.8644104
9.7262897 64.1245804 189.2199097
46.5060425 65.0895844 186.9241028
45.4147263 64.9981384 188.2133484
47.4694672 65.9458923 188.2231140
49.5136566 66.9146729 187.9365234
50.4765396 67.7847977 188.9327698
52.5716362 68.7978363 188.1315155
53.5536385 69.6974030 188.7835388
-10.9564257 193.0447693 -9.0096092
-12.2245646 193.1189728 -9.3110981
-13.5281982 193.2161407 -9.6593533
-9.6712551 194.0979309 -8.2804756
-10.9536457 194.1875763 -8.5714922
-12.2286892 194.2801514 -8.8881454
-13.5132027 194.3876495 -9.2553940
-14.7882233 194.5047302 -9.6679993
-8.4000149 195.1875916 -7.6505489
-9.6675329 195.2692871 -7.9010401
-10.9641066 195.3587646 -8.1895008
-12.2180262 195.4545135 -8.5064507
-13.5169344 195.5623169 -8.8840933
-14.8001766 195.6756134 -9.2917509
-16.0802383 195.7960205 -9.7213840
-17.3728123 195.9251251 -10.1960506
-18.6630573 196.0620422 -10.7123127
-8.3910627 196.3658295 -7.3021131
-17.3722153 197.1099854 -9.8588457
-18.6557655 197.2493896 -10.3787317
-19.9451504 197.4011841 -10.9534473
-8.4008360 197.5494995 -6.9898710
-17.3722534 198.2993011 -9.5485268
-18.6513062 198.4394836 -10.0673590
-19.9500370 198.5921173 -10.6418352
-21.2248344 198.7506866 -11.2437410
-22.5521126 198.9205933 -11.9010639
-23.8339386 199.0941925 -12.5761347
-25.1363430 199.2839661 -13.3244162
-8.3940945 198.7399902 -6.7107263
-25.1409912 200.4907837 -13.0647335
-26.4329758 200.6976013 -13.8812551
-29.0888729 201.1644897 -15.6848269
-8.4042244 199.9340515 -6.4521394
-25.1357975 201.6963196 -12.8050852
-26.4372177 201.9008026 -13.6086378
-27.7504787 202.1204529 -14.4799528
-29.0657120 202.3535919 -15.4123850
-30.3795929 202.5995331 -16.4045525
-31.7201958 202.8665466 -17.4898052
-33.0399170 203.1458893 -18.6350651
-34.4009209 203.4566040 -19.9173946
-35.7100105 203.7736816 -21.2364292
17.0705624 200.8843079 -7.7171707
-8.4111757 201.1341553 -6.2245874
-35.7143669 205.0153351 -21.0804806
-37.0784302 205.3760681 -22.5818825
-38.4189987 205.7653961 -24.2186699
-39.7750359 206.2052612 -26.0411987
-41.2323723 206.6740112 -28.0576725
47.5110168 207.2102966 -33.8335342
46.0621567 206.6375580 -31.1030235
44.6713333 206.1513062 -28.7570648
43.3027878 205.7255859 -26.6869373
41.9271698 205.3418884 -24.8090439
40.5665970 205.0011139 -23.1267776
39.2393150 204.6972351 -21.6133575
37.9014740 204.4168396 -20.2030811
36.5720673 204.1606750 -18.9055023
35.2093811 203.9181213 -17.6747189
33.9150047 203.7118683 -16.6051350
24.7782249 202.6111298 -10.6880960
23.4776363 202.4995270 -10.0480776
22.2113209 202.4026794 -9.4785175
20.9200439 202.3119965 -8.9311266
19.6420956 202.2283173 -8.4217329
18.3418236 202.1517944 -7.9422569
17.0584469 202.0874634 -7.5176649
15.7977381 202.0342102 -7.1411924
-7.1190062 202.2556000 -5.7866187
-8.3994665 202.3366089 -6.0130534
-35.7150803 206.2571716 -20.9278374
-37.0800781 206.6222534 -22.4373131
-38.4363899 207.0164642 -24.0801086
-39.8045425 207.4489136 -25.8972454
47.5137024 208.4539032 -33.6613388
46.0653763 207.8826599 -30.9618454
33.8991394 204.9286499 -16.4316349
32.5776978 204.7289124 -15.3929577
31.2849445 204.5465851 -14.4379330
29.9591160 204.3728333 -13.5237331
28.6567211 204.2178650 -12.6867619
27.3565426 204.0715332 -11.8998423
26.0737877 203.9412079 -11.1772795
24.7693558 203.8178406 -10.4932880
15.7847033 203.2393646 -6.9605074
14.5071764 203.1949615 -6.6265664
3.0505607 203.0857239 -4.9548216
1.7723374 203.1128845 -4.9366145
0.4851932 203.1407166 -4.9301348
-7.1279488 203.4697266 -5.6145015
-8.3982286 203.5441589 -5.8284335
-9.6703815 203.6325836 -6.0967851
-10.9752407 203.7353668 -6.4163899
-38.4468842 208.2789154 -23.9981785
-39.8138657 208.7170410 -25.8298054
46.0724602 209.1434326 -30.9000416
33.9060593 206.1562805 -16.2928562
32.5770645 205.9515839 -15.2420578
31.2738647 205.7664490 -14.2825441
29.9588203 205.5953369 -13.3822937
28.6552639 205.4374390 -12.5439548
27.3631783 205.2920227 -11.7608099
26.0674953 205.1579895 -11.0235624
24.7839508 205.0361176 -10.3427143
15.7931957 204.4525452 -6.8093362
14.5010204 204.4025269 -6.4645376
13.2328663 204.3619537 -6.1494851
11.9495049 204.3269043 -5.8561559
10.6998968 204.3050537 -5.6126165
9.3992901 204.2834167 -5.3911295
8.1289825 204.2687988 -5.2013931
6.8477759 204.2675476 -5.0545759
4.3098865 204.2799835 -4.8504381
3.0394626 204.2967529 -4.7961330
1.7904958 204.3165131 -4.7638969
0.4861773 204.3527069 -4.7780685
-0.7645110 204.3930054 -4.8269782
-9.6779270 204.8532410 -5.9650593
-10.9750643 204.9551392 -6.2808862
-38.4408379 209.5497131 -23.9577026
-39.8269997 210.0010376 -25.8270760
46.0613327 210.4158630 -30.8845158
8.1306581 205.4841919 -5.0762177
6.8466353 205.4816589 -4.9200325
5.5765328 205.4837341 -4.8018689
4.3124762 205.4950256 -4.7241449
-2.0547564 205.6611328 -4.7777009
-5.8916769 205.8467102 -5.1802416
-9.6789455 206.0786896 -5.8598876
-10.9763441 206.1792603 -6.1663642
-38.4404373 210.8333282 -23.9781456
47.5357246 212.3246460 -33.7855835
46.0536613 211.7000732 -30.9236107
8.1282187 206.7075806 -4.9740987
6.8500767 206.6998596 -4.8154626
5.5773287 206.7106628 -4.7111912
4.3099575 206.7237701 -4.6410732
-2.0607395 206.8899536 -4.7109337
-3.3274746 206.9445496 -4.8088074
-4.6039753 207.0007324 -4.9418669
-5.8693781 207.0692902 -5.1122632
-7.1359749 207.1432495 -5.3027153
-8.4265814 207.2261505 -5.5279093
-9.6770954 207.3068390 -5.7792163
-10.9705534 207.4074554 -6.0829124
-38.4637299 212.1406555 -24.0888901
46.0860901 213.0157471 -31.0819759
-38.4670639 213.4516907 -24.2247772
46.0983429 214.3429871 -31.3013611
-38.4643974 214.7708740 -24.4069386
-39.9055367 215.2749329 -26.3958073
46.1112976 215.6906891 -31.6121578
44.6751099 215.1213989 -29.0327396
43.2901955 214.6274414 -26.7549782
-35.7685738 215.2646332 -21.2680264
-37.1426430 215.6814423 -22.9230881
-38.5041046 216.1258545 -24.7051811
44.6915092 216.4750366 -29.3816509
43.3125229 215.9700623 -27.0660057
-35.7820053 216.5989380 -21.5275230
-37.1519318 217.0249176 -23.2135715
-38.5408020 217.4931488 -25.0495758
44.6963120 217.8379517 -29.7727489
43.3165588 217.3176880 -27.4089413
-35.7885437 217.9457550 -21.8341827
-37.1688461 218.3885498 -23.5652733
44.7285042 219.2355499 -30.2755203
43.3280449 218.6894531 -27.8451042
-35.8259583 219.3232422 -22.2505207
44.7659988 220.6656799 -30.9093990
43.3451233 220.0874481 -28.3847179
-35.8455696 220.7082977 -22.7122784
43.3702621 221.5095978 -29.0120163
-35.8740921 222.1171570 -23.2552338
43.4022446 222.9544830 -29.7319355
41.9885597 222.4022064 -27.2989082
40.6205635 221.9455566 -25.2047482
-33.1929207 222.6820831 -20.5571785
-34.5685806 223.1067505 -22.1744270
-35.9086151 223.5478210 -23.8678417
43.4758949 224.4607086 -30.6292763
42.0074272 223.8497620 -28.0432262
40.6275520 223.3589783 -25.8416195
-33.2116127 224.0938416 -21.1376038
-34.6021423 224.5408936 -22.8304996
42.0499802 225.3402710 -28.9270000
40.6498108 224.8108826 -26.6037426
-33.2360725 225.5313873 -21.8119888
-34.6278343 226.0018311 -23.5798893
42.1188126 226.8701630 -29.8982182
40.6717300 226.2829437 -27.4589462
-33.2803917 227.0054932 -22.6095219
-34.6663437 227.4953308 -24.4515038
40.7347565 227.8168030 -28.4884472
39.3281555 227.2855530 -26.2224712
37.9838600 226.8496552 -24.2753448
-30.6141472 227.6379852 -20.2697411
-31.9750023 228.0539856 -21.8051395
-33.3254318 228.5023651 -23.4993210
-34.7223282 229.0259094 -25.4393196
40.7998962 229.3608093 -29.5590172
39.3739052 228.8160095 -27.2609024
38.0113068 228.3374939 -25.1902580
-30.6500740 229.1192017 -21.1038799
-32.0142517 229.5543213 -22.7186813
-33.3452568 230.0139771 -24.4625397
39.4133873 230.3836975 -28.4633293
38.0462303 229.8762817 -26.2736530
-28.0234375 229.8569489 -19.2101574
-29.3546276 230.2262726 -20.5569191
-30.6820869 230.6273804 -22.0554905
39.4939270 232.0241547 -29.8556957
38.0835266 231.4400024 -27.4790230
-28.0542603 231.3524933 -20.1101265
-29.3893623 231.7397156 -21.5348434
-30.7137794 232.1637726 -23.1362343
38.1357956 233.0606842 -28.8403397
36.7559090 232.5342102 -26.6479950
35.3832932 232.0867310 -24.6844215
-28.0882187 232.8865509 -21.1378269
-29.4448967 233.3115692 -22.6833801
36.8116760 234.1678619 -28.0689125
35.4193535 233.6673889 -25.9656715
-28.1391773 234.4578247 -22.3164902
-29.4873867 234.9052582 -23.9322624
35.4701576 235.3213501 -27.4470177
34.1075172 234.8628845 -25.4956646
32.7522240 234.4541321 -23.7172070
-25.4900551 235.2306366 -20.6449203
-26.8239021 235.6214142 -22.0372658
-28.1903038 236.0721893 -23.6233635
34.1542625 236.5174866 -27.0290756
32.7833252 236.0515137 -25.0856476
-25.5446587 236.8533630 -21.9602642
34.2310867 238.2706909 -28.8028793
32.8229752 237.7270050 -26.6807938
31.5120029 237.3088226 -24.9032631
30.1633186 236.9602203 -23.3197193
-22.9406796 237.7229156 -20.6837788
-24.2277756 238.0659180 -21.9197235
-25.5791206 238.4925842 -23.4141235
32.9096031 239.5236816 -28.5785236
31.5414295 239.0045929 -26.5853825
30.1880512 238.5949097 -24.8350239
-22.9772434 239.3703308 -22.1163521
31.6205330 240.8181152 -28.5635681
30.2285061 240.3190918 -26.6337185
28.8781796 239.9231567 -24.9372272
27.5704727 239.6035767 -23.4912262
-20.3664207 240.3143616 -21.1471748
-21.6767731 240.6586914 -22.3610001
-23.0268688 241.0689545 -23.7525978
28.9386826 241.7149506 -26.8591461
27.5962925 241.3028107 -25.2127609
-20.4093990 242.0195313 -22.8030510
-21.7343407 242.4076080 -24.1440773
27.6420898 243.0989380 -27.2663345
26.3114319 242.7030945 -25.6130924
24.9901562 242.3757324 -24.1891518
-15.1634750 242.4612579 -20.2053623
-16.4830151 242.7433777 -21.1376553
-17.8001633 243.0632019 -22.1959724
-19.1148567 243.4077454 -23.3793182
-20.4486847 243.7993774 -24.7192535
26.3617992 244.5821533 -27.8946247
25.0273323 244.1860657 -26.2954216
-15.2086811 244.1956940 -21.9478512
-16.5276546 244.5077057 -22.9872513
-17.8444309 244.8489380 -24.1527557
25.1056881 246.1577301 -28.8249664
23.7292385 245.7290649 -27.1518917
22.4086361 245.3948212 -25.7474022
21.0824966 245.1006775 -24.4872246
19.7856522 244.8609314 -23.4152412
-12.6125908 245.4158783 -22.0210018
-13.9365273 245.6947327 -22.9276581
-15.2400837 245.9979858 -23.9201450
-16.5748253 246.3656616 -25.1044731
22.4773159 247.3856201 -28.3119125
21.1231651 247.0021667 -26.8913651
19.8083267 246.7003326 -25.6351795
-12.6467457 247.2441101 -24.1293373
19.8689919 248.7109375 -28.3527985
18.5226440 248.3902588 -27.0721855
17.1987343 248.1388397 -25.9731579
15.8954020 247.9398804 -25.0526047
14.5914583 247.7640076 -24.2276707
13.2988720 247.6140747 -23.5195541
11.9792919 247.4982147 -22.9276352
10.6836224 247.4029541 -22.4391251
9.3772573 247.3281708 -22.0177040
8.0940990 247.2665405 -21.6702728
6.7877989 247.2253418 -21.3925781
5.4938111 247.2167969 -21.2089500
4.2115822 247.2348633 -21.1139336
-4.8723516 247.7986450 -22.2508831
-6.1649685 247.9556580 -22.7173023
-7.4522862 248.1525574 -23.2969494
-8.7769470 248.3696136 -23.9740372
-10.0666971 248.6035461 -24.7308178
-11.3878355 248.8933105 -25.6608200
-12.6860571 249.2289734 -26.6970329
17.2628460 250.2494507 -28.9180527
15.9360924 249.9637909 -27.8396053
14.6175299 249.7269592 -26.8412743
13.3129902 249.5368195 -25.9894810
11.9931908 249.3791656 -25.2828865
10.7069130 249.2933655 -24.7636375
9.3964653 249.1904297 -24.2717323
8.1107559 249.1376801 -23.9122448
6.7945309 249.0924072 -23.6127281
5.4864683 249.0681305 -23.4075336
4.2014523 249.0642853 -23.2683792
-4.8860130 249.6935577 -24.6075420
-6.1866698 249.8822174 -25.1726151
-7.4873276 250.0967102 -25.8447437
-8.7963438 250.3473511 -26.6338348
5.4905071 251.0328369 -26.0284233
4.2111907 251.0728149 -25.8594093
2.8974600 251.1064758 -25.7893524
1.6102206 251.1413879 -25.8072205
0.2947069 251.2151642 -25.9496670
-0.9869187 251.3263855 -26.2015991
-2.2985973 251.4456024 -26.5154572
-3.5950410 251.5997467 -26.9440536
30.1960354 59.1918755 178.4615479
29.7320824 59.1674347 178.9061279
29.3559513 59.1925888 179.4751434
28.9963741 59.2122574 179.9760284
28.0417690 59.1494255 179.2673187
27.5405674 59.1437836 179.3408966
27.0126839 59.1505966 179.3801575
26.5331097 59.1641884 179.3197632
26.1017647 59.1776276 179.1112823
25.4790840 59.1783409 179.3856964
24.9559612 59.1595383 179.4040070
24.4508877 59.1546135 179.3668518
23.9390450 59.1582832 179.2678223
23.4230728 59.1716576 179.1254120
22.9068661 59.2022858 178.9784088
19.2897587 59.6317825 179.8305511
22.3075180 59.9327888 183.2135925
21.8156681 59.9617729 183.1005096
20.8052540 60.0234413 182.7328644
19.2720089 60.0254745 182.0277557
18.7597923 60.0189667 181.7287445
18.2470741 60.0366821 181.4024811
17.7247524 60.0858116 181.0332184
35.6979904 60.4673882 181.7268372
33.6493568 60.3321991 183.2760620
33.1464539 60.3402748 183.5798187
32.5711975 60.3115044 183.8625336
32.0428467 60.3238335 184.0922394
18.2229462 60.4533653 183.3279877
35.6452751 60.8343010 183.6835632
35.1292648 60.8129234 184.0547180
34.6095657 60.7912025 184.3794861
34.0749931 60.7671852 184.7045746
33.5629387 60.7341576 184.9559326
33.0326767 60.7143288 185.2363281
32.5229034 60.6860504 185.4522095
31.9546967 60.7038689 185.8266602
18.2079697 60.8221588 185.0393677
15.6564016 60.8906631 183.4368134
15.1446190 60.8874016 183.0495605
14.1147013 61.3286362 183.9414978
40.2944069 61.7361832 182.9984589
39.7756081 61.7152748 183.5366974
39.2365417 61.6983452 184.0894470
38.7114410 61.6737633 184.5629883
38.1654549 61.6622162 185.0545349
14.1103754 61.7560005 185.5176239
13.5919495 61.7832527 185.0970001
34.4476929 61.8728714 188.7831268
33.9463501 61.8522911 189.0148163
33.4280243 61.8240395 189.2143555
32.9173431 61.8050613 189.4114075
32.3912392 61.7859650 189.5890961
31.8557720 61.7751694 189.7852936
31.3501110 61.7619858 189.9567871
20.6672554 61.7855377 190.0192413
20.1593246 61.8096542 189.8710175
19.6529789 61.8352470 189.7252655
19.1471882 61.8573418 189.5689392
18.6402626 61.8739052 189.3909607
18.1206989 61.8888702 189.1819458
17.6007080 61.9151154 188.9642334
11.5456753 62.2743683 184.8599701
11.0258760 62.2874718 184.3661652
41.7594795 62.6038170 184.7446289
41.2113457 62.5856552 185.3110657
34.4173698 62.2156372 190.0126190
13.0517340 62.5612030 187.5484467
12.5588369 62.6070633 187.1765900
12.0684299 62.6543083 186.7903137
11.5505161 62.6823883 186.3278351
11.0358601 62.7056160 185.8623657
10.5135708 62.7202988 185.3586884
43.3275490 63.0754318 184.4663086
38.5336800 62.7934265 188.8807678
38.0113945 62.7613831 189.2449036
37.4995613 62.7276878 189.5680542
36.9678688 62.6933517 189.8919983
14.5611458 62.8165321 189.8108826
14.0538845 62.8534775 189.4951477
13.5325165 62.8840027 189.1464691
10.0054312 63.1570320 186.3000488
44.3359566 63.5429153 184.7781219
43.7822075 63.5276031 185.4591217
43.2297554 63.4934044 186.0625000
10.0016842 63.5590057 187.6328735
9.5010958 63.5952530 187.1689301
41.5757942 63.7380600 188.9661255
41.0366478 63.6898384 189.4244385
40.5146637 63.6433907 189.8365784
10.9967976 63.8389130 189.6857300
10.4872808 63.8875313 189.2750244
46.3507309 64.4764023 185.1377411
45.7933578 64.4462128 185.8524170
45.2445831 64.4122162 186.5191803
8.9470425 64.3641281 189.1400299
8.4482002 64.4259796 188.6844940
7.9607611 64.5032959 188.1926422
7.4889283 64.5795364 187.6752930
44.6556892 64.7418671 188.4309235
44.1291313 64.6929321 188.9762268
43.6015434 64.6390915 189.4802246
43.0720291 64.5853424 189.9671631
8.4306078 64.8363724 189.7592316
7.9691901 64.8964005 189.2248688
6.5108962 65.0546036 187.4350586
47.2970848 65.3459930 186.5828247
44.6015778 65.0988083 189.6829376
6.9440613 65.3644409 189.4974365
6.4334898 65.4127274 188.9816437
48.3422470 65.8263626 186.5050964
46.6757355 65.6836472 188.5935059
46.1423912 65.6216354 189.1871338
45.6040573 65.5574951 189.7660217
49.3590317 66.3154297 186.3801270
48.8197517 66.2675934 187.1055145
48.2728271 66.2138748 187.8103180
46.6408768 66.0351410 189.7646637
50.3955650 66.7889633 186.1158142
48.7424812 66.6498184 188.3946228
48.2075653 66.5871735 189.0624542
47.6684875 66.5178986 189.6984558
50.8891487 67.2464981 186.6670227
50.3112259 67.1849823 187.4345245
48.6823616 67.0092316 189.5838623
51.3837585 67.7275391 187.2659454
49.6894379 67.5080185 189.4185181
51.3083458 68.0825958 188.4177246
51.7732277 68.5033798 188.7860260
51.2388573 68.4320145 189.5242310
53.9572678 69.1514435 186.5130005
53.3812218 69.0941238 187.4366913
51.7216492 68.8751373 189.9048462
52.7540550 69.3990097 189.4553986
54.3498802 69.9916382 188.1032562
54.2828445 70.3617096 189.2551727
-12.5497284 191.7032013 -9.9879646
-11.9519415 192.2773285 -9.5956030
-12.5721807 192.2699280 -9.7436972
-13.2067566 192.3176880 -9.8908443
-13.8487911 192.3677368 -10.0622215
-10.0148611 192.7038574 -8.8645363
-14.5058460 193.0021210 -10.0582905
-9.3717403 193.2069244 -8.5004768
-10.0007029 193.2464447 -8.6640587
-14.4870358 193.5929260 -9.8597555
-15.0576572 193.6582031 -10.0648775
-8.7129250 194.3276062 -7.9820390
-15.7804384 194.8794098 -9.8910208
-16.4006634 194.9430389 -10.1068640
-17.0544987 195.0074463 -10.3477669
-17.7082958 195.0697479 -10.5896969
-19.6392384 195.8736877 -11.2070103
-19.6393623 196.4685364 -11.0437536
-20.2751045 196.5444183 -11.3329048
-7.4281054 196.0126801 -7.2072248
-7.4423542 196.5998077 -7.0396914
-20.8821316 197.8273621 -11.3365583
-21.5273247 197.9345551 -11.6386518
-22.2084446 198.0441437 -11.9596720
-22.8696480 198.0689697 -12.2990036
-26.0913944 199.7411652 -13.8749819
-26.6952572 199.8615112 -14.3014936
-7.5024695 198.3481140 -6.6164646
-30.0595951 201.0193024 -16.4605370
-27.4240913 201.1555023 -14.4393377
-28.0912628 201.2712708 -14.9023685
-30.0675316 201.6266937 -16.3370972
-30.7230301 201.7510223 -16.8422222
-31.4059792 201.8856201 -17.3906689
-32.0723915 202.0195007 -17.9383430
-7.4314389 199.5753479 -6.3400507
-6.7857528 200.1318359 -6.0940485
-7.4394341 200.1718292 -6.2097135
-36.7496872 204.3531036 -22.3171501
-37.4304733 204.5395813 -23.1029739
-38.0924873 204.7310638 -23.9128246
-38.7340965 204.9318390 -24.7542171
-39.5006599 205.1907196 -25.8411465
-40.1917877 205.4374390 -26.9926281
47.9328804 205.8239746 -34.8304863
-7.4245782 200.7684326 -6.0875187
47.8833809 206.4290924 -34.6757431
47.1507874 206.1358490 -33.2769775
46.4244919 205.8492279 -31.9059715
39.5829849 203.8547821 -22.1281166
38.9242897 203.7104797 -21.3971348
38.2452431 203.5667114 -20.6697769
19.9584293 201.3427887 -8.6893024
19.3276043 201.3078156 -8.4668779
18.6864128 201.2722626 -8.2315207
18.0243759 201.2339630 -7.9876342
16.1358376 201.1446381 -7.3756180
-7.4565554 201.3757629 -5.9909673
25.7491608 202.3984985 -11.2415895
-40.8866959 207.4959106 -27.4421787
32.9207878 203.8663330 -15.7806234
32.2664871 203.7705994 -15.2830677
31.6146374 203.6787872 -14.8067074
30.9707298 203.5918121 -14.3437357
30.3025455 203.5038300 -13.8765106
29.6179752 203.4171600 -13.4224768
28.9745407 203.3424225 -13.0161190
28.3421783 203.2702637 -12.6221552
27.7040272 203.2000732 -12.2346725
27.0348225 203.1291046 -11.8462696
26.3890114 203.0635376 -11.4843435
25.7490482 203.0016022 -11.1388264
14.8126755 202.2974091 -6.8255181
14.1757784 202.2731781 -6.6787210
1.4569355 202.2161102 -5.0690422
0.7995007 202.2300110 -5.0665126
0.1785307 202.2442322 -5.0645022
-40.8934937 208.1292114 -27.3935966
13.5516253 202.8736572 -6.4539256
12.9333916 202.8924103 -6.3074484
10.9702225 202.7866211 -5.8446155
-40.8935089 208.7649078 -27.3617458
13.5683661 203.4684601 -6.3563766
12.9129620 203.4483032 -6.2031059
10.9994364 203.3898926 -5.7699890
10.3746672 203.3867035 -5.6537943
9.7202110 203.3757324 -5.5411510
3.9926436 203.3746338 -4.9467735
-0.4475892 203.4662170 -4.9031878
-1.0703460 203.4821472 -4.9267921
-1.7184625 203.5046692 -4.9529757
-40.9097519 209.4112701 -27.3700447
47.1507263 209.2448273 -32.8719673
5.2584209 204.0356903 -4.9409719
-6.1956882 204.3315887 -5.3623614
-6.7925711 204.3584290 -5.4583917
-40.9236794 210.0588989 -27.3841267
47.1547623 209.8829956 -32.8675079
5.8856740 204.5734863 -4.9302988
5.2622399 204.5736237 -4.8761649
-6.2123561 204.9461823 -5.3079300
-6.8205724 204.9779816 -5.4065437
-40.9324722 210.7052155 -27.3956089
47.1462097 210.5253906 -32.8757553
-2.9941676 205.3936768 -4.8318939
-6.7911930 205.5821533 -5.3493505
-8.7410374 205.7069092 -5.6772013
-39.4789352 210.8470459 -25.3394089
47.1434975 211.1758118 -32.9308128
-2.9966965 206.0075684 -4.7981806
-3.6058025 206.0512085 -4.8242183
-4.2583346 206.1094971 -4.8934555
-4.9495654 206.1532745 -4.9831309
-6.8035922 206.1974487 -5.3060770
-7.4528084 206.2380371 -5.4063244
-8.0796442 206.2707825 -5.5128422
-8.7251148 206.3160400 -5.6350636
-39.5081253 211.5027008 -25.3936119
-39.5208435 212.1579742 -25.4525261
-39.5217171 212.8146973 -25.5145245
-39.5298080 213.4770660 -25.6014042
-39.5530968 214.1490784 -25.7255611
46.5089531 216.8886566 -32.6294899
45.7449951 216.5543365 -31.1866932
45.7789574 217.2532806 -31.4162388
45.7986603 217.9506683 -31.6508350
45.8065186 218.6463470 -31.8909378
-38.2523232 219.1021271 -25.0819645
45.8299026 219.3589478 -32.1875420
-36.8323441 219.3005829 -23.4143581
-37.5708504 219.5598297 -24.3833523
-38.2810898 219.8082581 -25.3284168
-36.8395004 219.9931030 -23.6301079
-36.8764191 220.7036743 -23.9045258
-36.9011040 221.4143066 -24.1929035
-37.6251717 221.6728058 -25.1576519
45.1764374 221.9302368 -32.1810150
44.3918228 221.5655060 -30.6819553
-36.9185486 222.1274567 -24.4853001
-37.6590233 222.4006348 -25.4797058
44.4725037 222.3311310 -31.1365108
44.4737244 223.0529785 -31.4877052
44.5230026 223.8166046 -31.9716282
-35.5851173 224.5050812 -23.9190273
-35.6181259 225.2510376 -24.3250999
-36.2898865 225.4897919 -25.2298908
43.1828766 225.4548035 -30.7197609
-35.6530571 226.0032654 -24.7578831
-36.3262787 226.2534027 -25.6745930
43.2215843 226.2389221 -31.2725735
-35.6641464 227.4876404 -25.6227913
-35.7258568 228.2830658 -26.1765232
41.8127785 227.8856354 -30.0596981
41.8598213 228.6767120 -30.6519470
-34.4012489 230.0372620 -25.7036648
-34.4324875 230.8374329 -26.2988701
40.4944382 230.4445801 -29.9524193
-31.6977711 230.5820465 -23.0614986
-32.3502045 230.7935333 -23.9047089
-33.7443695 231.2988586 -25.8400307
40.5386810 231.2839508 -30.7199783
-31.7115288 231.3563690 -23.6515350
-31.7285442 232.1300812 -24.2311497
-31.7792301 232.9473267 -24.8363533
39.2052040 233.1294861 -30.3060436
-30.4023895 233.2238312 -23.5585155
-31.0938835 233.4781647 -24.4612331
-30.4310551 234.0319366 -24.1832142
38.5760040 234.5241547 -30.7005119
37.8510857 234.1848755 -29.4351063
-30.4678020 234.8532562 -24.8471699
37.9272461 235.0847931 -30.3286419
37.2547569 235.6181335 -29.8466663
36.5256882 235.3031616 -28.6847763
-29.2116394 236.0258789 -24.5495739
36.6009369 236.2180786 -29.6273746
35.9005203 236.7701569 -29.2234287
35.1684380 236.4469757 -28.0927105
-26.5534344 236.7565002 -22.7146091
-27.1940231 236.9523773 -23.4330578
-27.8617191 237.1773529 -24.2346630
-28.5859165 237.4625244 -25.1866455
-29.2684097 237.7193298 -26.1080112
35.2111320 237.3558502 -29.0136242
-26.5634422 237.5740509 -23.4295616
35.2614136 238.2614746 -29.9854031
33.9609146 239.5097046 -29.7345428
-23.9373646 239.2138977 -22.6912804
-24.5822525 239.4057312 -23.3747311
-25.2738457 239.6376801 -24.1806755
-25.9769764 239.9012299 -25.0731850
-23.9666615 240.0762024 -23.5053711
32.6488495 240.7993011 -29.6505756
-23.9913883 240.9369354 -24.3506756
31.4005146 242.1721191 -29.9013519
30.6457481 241.8347168 -28.6732197
29.9398117 241.5805969 -27.6563778
-22.7613869 242.3169556 -24.8006592
29.9995842 242.5462189 -28.7276707
29.3445282 243.2509613 -28.9072666
28.6602364 242.9954987 -28.0295830
-21.4460506 243.6578827 -25.2716656
28.7184486 243.8821259 -29.1906548
-21.4819489 244.6130524 -26.3686619
28.7506008 245.0095520 -30.7076435
28.0531292 244.7293701 -29.6058292
27.3621826 244.4533844 -28.5949059
-18.8096199 244.6513824 -24.5409889
-19.4696732 244.8522491 -25.2062378
-20.1588631 245.0972748 -25.9622307
-20.8508911 245.3582916 -26.7539082
27.4368839 245.4932404 -29.9320583
-18.8453560 245.6109467 -25.6604481
26.7784538 246.2736969 -30.4498119
26.0848389 245.9634247 -29.4496517
-17.5711784 246.1807404 -25.5010262
-18.2361393 246.3970337 -26.1749935
-18.9018860 246.6295624 -26.8773365
26.1556339 247.0900879 -31.0475197
24.1581917 247.4154663 -29.6630192
23.4491844 247.1560211 -28.7239437
-13.6316261 247.0049896 -24.2766323
-13.6367216 247.9372253 -25.4588051
-14.3168612 248.1355743 -26.0572090
22.2238102 248.9260254 -30.2769642
21.5298824 248.6798706 -29.4113255
20.8356838 248.4352570 -28.6079197
-13.6593647 248.9678345 -26.8264046
-14.3575468 249.2238464 -27.5184803
20.8855076 249.5928802 -30.2826939
19.6067944 250.3278503 -30.4869747
18.9197731 250.1231689 -29.6855431
18.2493629 249.9499664 -29.0032959
-9.7662363 250.0360413 -26.5496120
-11.0981007 250.3377075 -27.5529385
16.3315258 251.7780457 -30.7140522
15.6599693 251.6157227 -30.0535393
14.9958153 251.4794769 -29.4732075
14.3578243 251.3577271 -28.9591541
13.7053089 251.2370605 -28.4508419
13.0215263 251.1215515 -27.9809532
12.3547983 251.0570374 -27.6292362
11.7021284 250.9724731 -27.2608299
11.0593100 250.8893433 -26.9255123
10.4008884 250.8128052 -26.6128635
9.7451925 250.7727509 -26.3654366
9.0913200 250.7150879 -26.1174488
8.4376087 250.6493683 -25.8855400
7.7886376 250.6286469 -25.7395973
7.1417875 250.5886993 -25.5935802
-5.8829823 251.4095001 -27.2243633
-6.5263443 251.4939117 -27.5463619
-7.1692786 251.6058350 -27.9168320
-7.8336339 251.7516937 -28.3285275
-5.9241967 252.5422516 -28.8756580
-6.5587201 252.6345520 -29.2503948
