-14.1507912 229.4752350 0.8149648
-19.2652340 230.1903076 -1.4573716
36.7624702 235.5177307 -8.7572956
31.5424881 234.5872803 -4.6230655
26.3780327 233.9276733 -1.5426042
21.2648029 233.4816895 0.7187527
1.0212523 233.2362213 3.8085122
-4.0304246 233.5207367 3.2518797
-9.0928516 233.9437561 2.1589346
-14.1764326 234.5262604 0.4581082
-19.2987823 235.2865601 -1.9224131
-24.4662590 236.2696381 -5.1544542
-7.7794895 220.3340912 2.0460947
-10.3185015 220.5540924 1.4108651
-7.7793541 222.7185974 2.4062734
-10.3187160 222.9429932 1.7633871
-12.8574858 223.2034760 0.9800132
-15.4089184 223.4947662 0.0673421
2.3270283 224.5435486 3.9284163
-7.7859383 225.1310883 2.6450176
-10.3292942 225.3607788 1.9959469
-12.8624191 225.6223755 1.2161981
-15.4114752 225.9248810 0.2756977
-17.9732399 226.2702942 -0.8366523
-20.5309143 226.6583252 -2.1201029
-23.1093540 227.0957642 -3.6019890
14.9322281 226.9561157 2.8136284
4.8290601 226.9071198 4.0646067
2.3146420 226.9749451 4.0644860
-0.2160833 227.0774689 3.9216042
-2.7379179 227.2088318 3.6667874
-5.2733483 227.3742218 3.2858872
-7.7902150 227.5706940 2.7712245
-10.3317738 227.8046570 2.1108966
-23.1228065 229.5873413 -3.5821872
-25.7150383 230.0979919 -5.3301144
-28.3365631 230.6801453 -7.3515043
-30.9620361 231.3379822 -9.6804504
-33.6320496 232.1096802 -12.4493742
43.4196854 233.2853699 -15.3279324
40.7176895 232.5294495 -12.0903187
38.0716858 231.9163513 -9.4050045
35.4429321 231.3981323 -7.1037827
32.8272629 230.9588623 -5.1128759
30.2449894 230.5902405 -3.4002156
27.6607704 230.2804718 -1.9110534
25.1058807 230.0217590 -0.6282977
22.5386543 229.8059387 0.4856243
19.9966259 229.6348267 1.4236554
17.4468346 229.4982147 2.2231748
14.9254541 229.4074097 2.8504906
4.8222790 229.3601379 4.1035814
2.2982223 229.4303894 4.0975266
-0.2336931 229.5399628 3.9384332
-2.7508471 229.6739655 3.6781416
-5.2821722 229.8439941 3.2842653
-7.8051634 230.0443268 2.7636292
-10.3482790 230.2856598 2.0931072
-23.1386089 232.1134186 -3.7049313
-25.7375584 232.6444702 -5.5009241
-28.3548737 233.2442169 -7.5739679
-30.9891605 233.9309387 -9.9778118
43.4316635 235.9190979 -15.8299198
40.7336082 235.1314240 -12.4902859
17.4420033 231.9842682 2.1357951
14.9144640 231.8907471 2.7729146
12.3806858 231.8287964 3.2805126
9.8620348 231.8003693 3.6515846
7.3326511 231.8068237 3.9003687
4.8128357 231.8492737 4.0108738
-28.3796196 235.8573303 -7.9760284
-31.0139961 236.5731659 -10.4701920
43.4656639 238.6337891 -16.6316528
40.7480736 237.7844849 -13.0944309
17.4417343 234.5082550 1.9093055
14.9089413 234.4080658 2.5602922
12.3743296 234.3495789 3.0604744
9.8515453 234.3216248 3.4368577
7.3314939 234.3208466 3.6964655
4.7978959 234.3618774 3.8043036
-28.4142342 238.5288544 -8.5927277
-31.0580292 239.2884216 -11.2144556
40.7886887 240.5249329 -13.9980545
38.1109734 239.7920380 -10.9520969
35.4596710 239.1912842 -8.4043598
32.8502808 238.7029419 -6.2639275
30.2539921 238.2845306 -4.4123807
27.6644688 237.9393311 -2.8266580
25.1034527 237.6464691 -1.4552951
22.5369396 237.4128723 -0.2938153
19.9958572 237.2220306 0.6982987
17.4395962 237.0739441 1.5278549
14.9059792 236.9702454 2.1931539
12.3717766 236.8956299 2.7279954
9.8461161 236.8766174 3.0881052
7.3198519 236.8775024 3.3422670
4.7947245 236.9243164 3.4462757
2.2713480 236.9997711 3.4240429
-0.2551207 237.1093903 3.2738771
-2.7720571 237.2537079 2.9867849
-5.3135614 237.4434967 2.5486865
-7.8425813 237.6694336 1.9655954
-10.3876629 237.9332275 1.2423468
-12.9225502 238.2354126 0.3604940
-15.4809093 238.5858917 -0.6911064
-18.0453339 238.9895020 -1.9471300
-20.6195850 239.4468384 -3.4010367
-23.2122650 239.9711304 -5.1029472
-25.8104057 240.5635681 -7.0752201
-28.4490185 241.2608337 -9.4264660
35.4854507 241.9114075 -9.2720718
32.8648987 241.3839722 -7.0228310
30.2678223 240.9463806 -5.1090221
27.6782665 240.5805511 -3.4604304
25.1107368 240.2733765 -2.0386577
22.5468082 240.0306702 -0.8479652
19.9955902 239.8301392 0.1682431
17.4439030 239.6777344 1.0056384
14.9068642 239.5706787 1.6855912
12.3716526 239.4993591 2.2208331
9.8498507 239.4684448 2.5991549
7.3215475 239.4738464 2.8512378
4.7907271 239.5116882 2.9673953
2.2705660 239.5975342 2.9292455
-0.2682773 239.7148590 2.7604480
-2.7908356 239.8598938 2.4712844
-5.3275957 240.0583649 2.0118697
-7.8608618 240.2955780 1.4102383
-10.4021473 240.5574646 0.6731628
-12.9453611 240.8840027 -0.2619594
-15.4974728 241.2435303 -1.3433819
-18.0712299 241.6694489 -2.6523061
-20.6470146 242.1448975 -4.1704588
-23.2453003 242.6978149 -5.9556766
-25.8467293 243.3229980 -8.0244093
-28.4948921 244.0694885 -10.5295610
20.0013657 242.4899292 -0.5399236
2.2561140 242.2391968 2.2798331
-0.2760727 242.3553162 2.1072979
-2.8074663 242.5202332 1.7841573
-5.3418016 242.7158203 1.3194673
-20.6860733 244.9086609 -5.1523528
25.9569168 78.2263107 187.3207703
-5.8819828 216.0812378 1.5307295
-7.1368351 216.1689301 1.2916126
-8.4058571 216.2682648 1.0114230
-4.6217003 217.1632233 2.0410674
-5.8752546 217.2445374 1.8357283
-7.1341124 217.3342590 1.5949094
-8.4042969 217.4368744 1.3027422
-3.3407736 218.2541504 2.5087543
-4.6184611 218.3329468 2.3161626
-5.8696737 218.4149475 2.1085491
-7.1254115 218.5062866 1.8633378
-8.4055738 218.6089478 1.5724447
-9.6675529 218.7176208 1.2557597
-10.9613438 218.8374634 0.8987769
-12.2106524 218.9597473 0.5231917
-13.4959927 219.0931854 0.1077908
-5.8807554 219.5961609 2.3354955
-12.2145672 220.1462708 0.7449588
-13.4903641 220.2806396 0.3237811
-14.7558537 220.4232483 -0.1311282
-0.8140453 220.4819031 3.2250528
-5.8813620 220.7831421 2.5367455
-12.2059784 221.3357697 0.9456623
-13.4950542 221.4728394 0.5200108
-14.7690697 221.6148376 0.0781380
-16.0416622 221.7660217 -0.4113985
-17.3243923 221.9364014 -0.9674300
1.6993084 221.5783997 3.5343161
0.4211520 221.6225891 3.4816523
-0.8316003 221.6791077 3.3907287
-4.6242905 221.8848572 2.9489088
-5.8848410 221.9730225 2.7269256
-17.3319530 223.1400452 -0.8069413
-18.5955734 223.3151245 -1.3870769
-19.8949127 223.5081482 -2.0296845
-21.1689816 223.7066650 -2.7040071
4.2104201 222.6942749 3.7358260
2.9528034 222.7260132 3.7383461
1.7108496 222.7646637 3.7112746
0.4137957 222.8185425 3.6448090
-0.8298204 222.8729706 3.5527415
-4.6169057 223.0783691 3.1106339
-5.8778501 223.1667480 2.8813214
-17.3372974 224.3493347 -0.6720868
-18.5933685 224.5237122 -1.2526723
-19.8924026 224.7194977 -1.8997359
-21.1591549 224.9205933 -2.5796416
-22.4757156 225.1421051 -3.3292272
-23.7404022 225.3631592 -4.0944176
-25.0394821 225.6082153 -4.9508252
13.0502110 223.8829346 2.9815917
11.7575941 223.8496857 3.2316585
10.5239534 223.8332367 3.4358556
9.2457037 223.8319702 3.5778365
7.9988651 223.8439178 3.6741443
6.7309809 223.8502655 3.7745233
5.4623203 223.8657532 3.8499768
4.2128754 223.8908844 3.8789117
0.4274036 224.0081329 3.7915149
-0.8307564 224.0715942 3.6855178
-4.6336856 224.2910614 3.2142451
-5.9054098 224.3822174 2.9838765
-25.0517731 226.8421326 -4.8779697
-26.3534985 227.1028595 -5.7867317
-27.6557579 227.3821106 -6.7778831
-28.9782543 227.6845245 -7.8457046
-30.2824898 227.9995422 -8.9711628
-31.6315289 228.3505554 -10.2292786
16.8308067 225.1960602 2.2455428
15.5645313 225.1438141 2.5876942
14.3066225 225.1113892 2.8624349
13.0476227 225.0822449 3.1111002
11.7657700 225.0579071 3.3396866
10.5120363 225.0492859 3.5132017
9.2515202 225.0453186 3.6584482
7.9957547 225.0435791 3.7883110
6.7261887 225.0507050 3.8953643
5.4553094 225.0687866 3.9549265
4.2147002 225.1005707 3.9825034
0.4130476 225.2218323 3.8859429
-0.8521482 225.2879639 3.7692528
-2.1095104 225.3511047 3.6387982
-3.3564160 225.4180145 3.4924202
-4.6342759 225.5013885 3.2955472
-5.9089761 225.5943146 3.0711081
-25.0606422 228.0839844 -4.8416533
-26.3571281 228.3469543 -5.7597027
-27.6772366 228.6345367 -6.7657003
-28.9768143 228.9332733 -7.8261805
-30.2798519 229.2536011 -8.9681158
-31.6216240 229.6054993 -10.2257032
-32.9371185 229.9715576 -11.5524940
-34.3047791 230.3885193 -13.0638838
-35.6182404 230.8155823 -14.6345730
-37.0062981 231.3111267 -16.4522781
49.6710472 232.5290222 -25.4084301
48.2071304 231.8163605 -22.4698505
23.1804657 226.7817993 0.1843664
21.9206963 226.6839600 0.7037373
20.6297340 226.5966644 1.1753402
19.3954887 226.5334167 1.5784169
18.1044407 226.4659882 1.9737513
16.8249454 226.4020233 2.3446364
13.0447330 226.2917480 3.1862812
11.7594719 226.2806091 3.3995256
8.0042791 226.2549133 3.8783469
6.7186975 226.2642365 3.9746201
-35.6270447 232.1111450 -14.7561312
48.2476044 233.1395874 -22.6881962
46.8052139 232.5182190 -20.1001816
45.4495277 232.0102692 -17.9323044
44.0720634 231.5483856 -15.9754353
42.7381439 231.1491852 -14.2492943
41.3881111 230.7824402 -12.6566792
40.0434380 230.4514160 -11.2178764
38.7347946 230.1604919 -9.9222136
37.3965836 229.8779449 -8.6892128
36.0949020 229.6298523 -7.5648355
34.7656059 229.3938599 -6.4996686
33.4868965 229.1882935 -5.5364285
32.1660347 228.9837341 -4.6030407
30.8936195 228.8120270 -3.7754102
29.5916939 228.6434021 -2.9787962
28.3053093 228.4922485 -2.2339332
27.0306740 228.3552551 -1.5537519
25.7218857 228.2171326 -0.8957047
24.4561195 228.1057587 -0.3117820
23.1752529 227.9996338 0.2421690
21.9205818 227.9080200 0.7486020
20.6272659 227.8199158 1.2158540
19.3726044 227.7490997 1.6313870
18.0861263 227.6782837 2.0355160
16.8204346 227.6280823 2.3927355
13.0355492 227.5074768 3.2353759
11.7569542 227.4957581 3.4544725
7.9943361 227.4709625 3.9298658
6.7192416 227.4847717 4.0162740
-35.6295509 233.4182281 -14.9232597
48.2895546 234.4841919 -22.9910145
46.8166313 233.8296356 -20.2994957
45.4710541 233.3153229 -18.1136341
13.0429707 228.7363892 3.2600141
11.7501478 228.7104034 3.4850714
10.5094213 228.7065582 3.6669207
9.2350025 228.7005615 3.8225024
7.9912524 228.7009583 3.9439075
6.7112331 228.7118073 4.0293355
-32.9607048 233.8453064 -11.9107981
-34.3250198 234.2886200 -13.4989586
-35.6571732 234.7550201 -15.1865015
48.2807732 235.8415527 -23.3713512
46.8171577 235.1591797 -20.5828876
45.4740829 234.6298370 -18.3452072
13.0269260 229.9751587 3.2523112
11.7445555 229.9453888 3.4743054
10.5063877 229.9399872 3.6530004
9.2301512 229.9271240 3.8129172
7.9762273 229.9352264 3.9359543
6.6989942 229.9450989 4.0219197
-32.9689941 235.1643066 -12.1429510
-34.3625526 235.6335602 -13.8051996
46.8310623 236.5207672 -20.9829445
45.4836502 235.9691925 -18.6689053
-33.0041084 236.5114746 -12.4639072
-34.3601685 236.9747467 -14.1145420
-35.6889801 237.4565430 -15.8299017
46.8583412 237.9139557 -21.4994640
45.4935226 237.3293304 -19.0775528
-33.0277596 237.8692322 -12.8310776
-34.3998489 238.3518372 -14.5319986
46.9120369 239.3409119 -22.1084538
45.5145187 238.7195740 -19.5932293
-33.0327454 239.2348175 -13.2318668
-34.4045410 239.7308960 -14.9819469
45.5287018 240.1269226 -20.1716805
-33.0614052 240.6319122 -13.7368460
-34.4355774 241.1520996 -15.5627546
45.5844879 241.5884094 -20.9048576
44.1516304 240.9681091 -18.4489784
42.8135223 240.4672089 -16.3892822
-30.4044571 241.1355133 -11.1428709
-31.7546844 241.5748138 -12.6579275
-33.1008492 242.0551300 -14.3385468
-34.4723587 242.5934296 -16.2119331
44.1906319 242.4209442 -19.1770592
42.8395309 241.8871155 -17.0151978
-30.4235020 242.5383759 -11.6805296
-31.7965584 243.0067749 -13.2792101
-33.1297150 243.4961548 -14.9926548
44.2125015 243.8895569 -19.9863834
42.8477364 243.3228607 -17.7185440
41.4744682 242.8296661 -15.7042217
40.1223831 242.3977051 -13.9390116
38.7969055 242.0214844 -12.3770475
37.4631157 241.6766815 -10.9357557
-30.4622040 243.9725189 -12.3196526
44.2771721 245.4199982 -20.9698467
42.8884659 244.8096924 -18.5798492
41.4980812 244.2768250 -16.4484863
40.1529427 243.8390656 -14.6297941
38.8085861 243.4356995 -12.9953823
37.4674034 243.0674286 -11.4886723
-30.4947224 245.4290161 -13.0441151
38.8367195 244.8662872 -13.6690092
37.5070915 244.4907227 -12.1109200
36.1913452 244.1533661 -10.7148314
34.8334656 243.8310394 -9.4044762
33.5371819 243.5675049 -8.2748375
32.2188988 243.3073120 -7.1952972
30.9375725 243.0935059 -6.2283878
29.6223965 242.8739929 -5.2965837
28.3337479 242.6855469 -4.4503059
27.0424271 242.5074768 -3.6616023
25.7522926 242.3502197 -2.9336112
24.4707527 242.2069244 -2.2781017
23.1711044 242.0751648 -1.6729574
21.9072437 241.9493713 -1.1066900
18.0709763 241.6905365 0.3214988
16.8073158 241.6360779 0.6935883
15.5374107 241.5696411 1.0352290
14.2773256 241.5302734 1.3513055
13.0100269 241.4783936 1.6419537
11.7308578 241.4595032 1.8732097
10.4765759 241.4499817 2.0598178
9.1987543 241.4370728 2.2231958
7.9503889 241.4355927 2.3517823
6.6799245 241.4490967 2.4415417
5.4083962 241.4858398 2.4874148
4.1546860 241.5026245 2.5062037
-7.2259607 242.2113342 1.0794519
-8.4996853 242.3366241 0.7419797
-9.7780724 242.4887390 0.3453935
-11.0599518 242.6431122 -0.0965707
-12.3202820 242.8041077 -0.5708947
-13.6113224 242.9862823 -1.0954335
-14.8795013 243.1734314 -1.6486237
-16.1582565 243.3709106 -2.2567554
-17.4531288 243.5908966 -2.9320321
-18.7228642 243.8167725 -3.6514332
-22.6254158 244.6277466 -6.2417107
-23.9105988 244.9332733 -7.2288904
-25.2308311 245.2709503 -8.3284006
-26.5371590 245.6207123 -9.5055819
-27.8753281 246.0239716 -10.8378754
-29.2008438 246.4466553 -12.2738829
-30.5196934 246.9078674 -13.8754940
25.7722778 243.7140045 -3.3850715
21.9217224 243.3167419 -1.5351733
18.0825634 243.0286560 -0.0552537
16.8156643 242.9687347 0.3122618
15.5501280 242.9139862 0.6549532
14.2757607 242.8518982 0.9927634
13.0107546 242.8148499 1.2713912
11.7234287 242.7870331 1.5006865
10.4756317 242.7766571 1.6900851
9.2053814 242.7672272 1.8582270
7.9481025 242.7691650 1.9923756
6.6705103 242.7764893 2.0844183
5.4142714 242.8056641 2.1277635
4.1522799 242.8326263 2.1444850
-7.2432203 243.5651855 0.6780448
-8.5169897 243.6957703 0.3237379
-9.7880421 243.8411560 -0.0663022
-11.0679379 243.9954529 -0.5065825
-12.3282995 244.1618042 -1.0021830
-13.6214266 244.3498840 -1.5411451
-14.8919544 244.5400391 -2.1027455
-22.6393261 246.0375977 -6.8139954
-23.9358273 246.3577576 -7.8450294
4.1542196 244.1846161 1.7573655
2.8724589 244.2239990 1.7319883
1.6225069 244.2755890 1.6730218
0.3424871 244.3360138 1.5888525
-0.9053178 244.4044952 1.4644310
-2.1883187 244.4897461 1.2966335
-3.4529870 244.5785370 1.0941608
-4.7236290 244.6851044 0.8455651
-5.9917622 244.8025665 0.5602036
-7.2426424 244.9202881 0.2421412
-8.5317345 245.0669708 -0.1173260
-8.5406866 -66.0507965 120.9451523
-9.1080132 -66.0591278 121.0817795
-8.6429510 -65.5739517 120.5135956
-9.2224874 -65.5580215 120.6298447
28.7607441 77.9492874 187.5610504
26.7272511 78.0915604 186.2211914
25.2261124 78.1207123 185.9678955
32.8244591 78.3804398 187.5216522
32.3151627 78.3723450 187.7919464
31.7959290 78.3501892 187.9578094
28.7176895 78.2638397 188.6413879
28.2325001 78.2389679 188.7150879
27.1935368 78.3284531 188.6796875
26.6840954 78.3387909 188.6655731
25.1694775 78.3593750 188.3775635
23.6416855 78.4266510 187.9187775
23.1385937 78.4527206 187.6968231
22.6182880 78.4766083 187.4429779
33.2780991 78.6686020 189.4972839
32.7703323 78.6530991 189.7081757
32.2488022 78.6319580 189.8836060
23.6129169 78.6907883 189.9822083
23.1127892 78.7237701 189.8174438
22.5799541 78.7479324 189.5551453
-6.1714067 214.6498260 1.0767817
-6.8069911 214.6924896 0.9609919
-4.9332485 215.1476440 1.4518262
-5.5798454 215.1887817 1.3433503
-6.1899166 215.2302399 1.2360516
-6.8169370 215.2733002 1.1196327
-7.4597850 215.3206635 0.9899356
-8.1043491 215.3694305 0.8515763
-8.7304459 215.4174042 0.7107890
-4.9343324 215.7286224 1.6122645
-4.2922091 216.2681732 1.8708202
-4.9316764 216.3093109 1.7690101
-9.2814741 216.6469727 0.8486035
-9.3148632 217.2435303 0.9860321
-9.9466667 217.3245697 0.8222777
-10.6233654 217.3969421 0.6586185
-9.3493128 217.8120422 1.1331234
-9.9918537 217.8672180 0.9687372
-10.6370115 217.9234467 0.8001074
-11.2679434 217.9814148 0.6245029
-11.9032621 218.0433655 0.4382144
-12.5343819 218.1049652 0.2469300
-14.4483938 219.4950562 -0.1712528
-15.0813475 219.5705566 -0.4165805
-15.7228184 219.6524658 -0.6848912
-3.0358748 219.1131592 2.7548897
-3.6634376 219.1524048 2.6602683
-4.2988539 219.1926270 2.5609338
-4.9465146 219.2362671 2.4521952
-0.5043316 219.5812531 3.1077349
-4.9524641 219.8296509 2.5577831
0.0917458 220.1517639 3.2364628
-1.7843983 220.2344208 3.1006923
-4.9510350 220.4233551 2.6545389
-18.2687740 221.7639923 -1.4305661
1.3824447 220.6984863 3.3815587
0.7416315 220.7193756 3.3612137
0.1061633 220.7413483 3.3318770
-1.7633868 220.8272552 3.1817598
-2.4200449 220.8672638 3.1130354
-4.3108835 220.9732666 2.8590603
-4.9611540 221.0184631 2.7489142
-18.2577667 222.3619537 -1.3425071
-18.9137135 222.4549408 -1.6493407
-19.5646572 222.5501099 -1.9678806
-20.2046242 222.6465607 -2.2922678
-20.8437042 222.7455444 -2.6239293
-1.7872540 221.4288940 3.2595725
-2.4246898 221.4610138 3.1912920
-3.6724007 221.5235443 3.0623960
-22.1623764 223.5665131 -3.2854574
4.5369968 221.7888947 3.5966930
3.9133210 221.8082428 3.6136129
3.2674763 221.8271790 3.6147540
2.6447215 221.8447266 3.6049170
-22.1505089 224.1718445 -3.2210720
-22.7884064 224.2790680 -3.5911813
-23.4191418 224.3884888 -3.9685993
-24.0627174 224.5036926 -4.3665118
-24.7264252 224.6266327 -4.7900438
-25.9461498 225.5004272 -5.6334500
12.7777433 223.0254974 2.9461603
11.4596758 223.0146179 3.1822014
10.8344364 222.9420929 3.2966912
10.2195644 222.9357452 3.3979912
9.5775948 222.9310455 3.4815722
8.9366369 222.9214783 3.5421369
8.3304329 222.9324341 3.5773296
7.6949592 222.9835510 3.5978348
7.0713506 223.0241699 3.6145978
6.4156303 222.9860687 3.6879950
-25.9807796 226.1117554 -5.5922074
-28.6474514 226.7553864 -7.6233673
-29.3201828 226.8345490 -8.1677418
13.9846745 223.5966034 2.7748597
-3.6652966 223.9241333 3.3463511
-32.5914154 228.2913208 -11.1631536
13.9968672 224.1976318 2.8413846
-1.7767930 224.4205322 3.6127834
-2.4035692 224.4511414 3.5455999
-3.0402088 224.4892273 3.4733281
-3.6637404 224.5264435 3.3902230
-32.6125832 228.9305420 -11.1921549
-33.3008804 229.1289978 -11.9060278
-33.9655075 229.3265533 -12.6326399
-34.6295471 229.5330963 -13.3899403
-35.2986259 229.7475281 -14.1799154
-35.9693146 229.9699402 -14.9945765
-38.0355301 231.3733063 -17.8407974
20.3023510 225.6638947 1.2294948
19.6916981 225.6339264 1.4317682
19.0716457 225.6076813 1.6352346
18.4332485 225.5790405 1.8249277
17.7661762 225.5406799 2.0078731
-38.0491180 232.0298462 -17.9263668
24.1541462 226.5534363 -0.2421757
10.8336744 225.9621429 3.5170467
10.1907396 225.9573059 3.6026764
9.5478334 225.9482880 3.6858277
8.9344311 225.9546051 3.7622457
-36.6700134 232.1601105 -16.0895729
-37.3353310 232.4088898 -16.9992390
-38.0687256 232.6918945 -18.0195522
47.1413574 231.6752472 -20.5423374
46.4348297 231.4001312 -19.3800240
45.7831154 231.1642303 -18.3565102
41.7348480 229.9247589 -12.9919071
41.0545502 229.7494507 -12.2271929
26.7014751 227.4012756 -1.4147172
26.0817623 227.3452911 -1.0988283
25.4489498 227.2785797 -0.7818327
24.7923450 227.2123718 -0.4770756
24.1354694 227.1589508 -0.2007979
8.9317665 226.5534058 3.8071911
-36.6764946 232.8141479 -16.1630840
50.0973892 233.7353210 -26.4090061
49.3353462 233.3397369 -24.8148804
8.9281216 227.1573944 3.8390329
-36.6749725 233.4690399 -16.2390862
10.8169537 227.7860718 3.6180706
8.9210482 227.7722473 3.8537116
-36.6991348 234.1396027 -16.3748760
-36.7096748 234.8136597 -16.5092583
-36.7260017 235.4876862 -16.6574688
-35.3516083 235.6463928 -14.9812298
49.4296570 236.7764282 -25.8255329
-35.3562164 236.3176270 -15.1337776
-36.0352592 236.5656586 -16.0126743
49.4718513 237.5089264 -26.2053738
48.6854897 237.0758362 -24.5015850
47.9470291 236.7006683 -22.9800911
47.9632988 237.3935242 -23.2060909
47.9920807 238.1106873 -23.5256310
-35.3679123 238.3604736 -15.6891308
-36.1075020 238.6541748 -16.6692734
47.9887962 238.8221130 -23.8405609
48.7778053 239.9741211 -25.8768425
48.0008545 239.5350189 -24.1443214
-35.4164429 239.7678833 -16.2127628
-35.4285774 240.4795837 -16.5054951
47.3566856 240.6323700 -23.3701572
46.5898361 240.2503815 -21.9161396
-35.4364090 241.1954193 -16.8067932
46.6149292 240.9768372 -22.2499561
-35.4644623 241.9263611 -17.1465225
46.6332474 241.7095337 -22.6135883
46.6511879 242.4537201 -23.0093002
45.9863091 242.8638458 -22.1067448
45.2259140 242.5022736 -20.7615242
-34.1519699 243.5391846 -16.2395058
-34.8743858 243.8563232 -17.2770939
45.2724266 243.2584686 -21.2066059
-34.1731453 244.2837830 -16.6208229
45.2969475 244.0175934 -21.6619225
-31.4979248 243.9817047 -13.3803587
-32.1639214 244.2190094 -14.2062254
45.3250885 244.7924805 -22.1704025
-31.5233269 244.7086639 -13.7432690
45.3725128 245.5837097 -22.7502193
-31.5258255 245.4385376 -14.1207314
-31.5095329 246.1637268 -14.5206881
-32.1867065 246.4635468 -15.5014467
44.7042160 246.7937469 -22.4785976
43.9770966 246.4205322 -21.0987797
41.8478394 245.5145721 -17.5825310
39.8155060 244.8005829 -14.7353764
-31.4764919 246.8866882 -14.9431200
39.8447838 245.5443420 -15.1403828
-31.5018749 247.6538696 -15.4599323
34.5327492 244.8185883 -9.5104084
33.8918228 244.6887817 -8.9575281
33.2506332 244.5629272 -8.4143362
32.5754242 244.4194946 -7.8536253
31.9289417 244.3111877 -7.3436480
31.2799931 244.1865692 -6.8408074
30.6269703 244.0638580 -6.3492112
29.9541073 243.9522400 -5.8633027
29.3102646 243.8646393 -5.4222426
28.6583424 243.7567596 -4.9878178
28.0400047 243.6792603 -4.5976272
27.3966484 243.5901489 -4.2006707
26.7331905 243.4911499 -3.8019311
24.8052597 243.2415314 -2.7742894
24.1317940 243.1627350 -2.4653938
23.5064163 243.0711670 -2.1809816
22.8389359 243.0091095 -1.8780936
-15.8551750 244.3493042 -2.4389331
-16.5132885 244.4621429 -2.7650876
-17.1498318 244.5736237 -3.1023672
-17.7788525 244.6847687 -3.4599938
-24.9162674 246.2535858 -8.5160398
-25.5816555 246.4313507 -9.0986156
-26.2501984 246.6240540 -9.7168341
-26.8938942 246.8073730 -10.3423357
-27.5516014 247.0047150 -11.0128422
-28.2394295 247.2273712 -11.7490311
-28.8842144 247.4334106 -12.4672804
-29.5563679 247.6737366 -13.2700968
-30.1955967 247.9012604 -14.0824022
-30.8816433 248.1682739 -15.0250015
22.8043900 243.7258911 -2.0855916
-15.8685389 245.0394592 -2.6580920
-16.5482693 245.1329346 -2.9757404
-17.1984196 245.2263031 -3.3296065
-17.7917843 245.3059998 -3.6892097
-24.9340000 246.9766846 -8.8471546
16.5094814 243.9708557 0.1010248
15.8732424 243.9440155 0.2755576
15.2294016 243.9021454 0.4569193
14.5905724 243.8751373 0.6257229
13.9654293 243.8442230 0.7769219
13.3294039 243.8377991 0.9064105
12.7208595 243.8671265 1.0078981
12.0691652 243.8251801 1.1349994
11.4307566 243.8082428 1.2455695
10.8049870 243.8006134 1.3456087
10.1729527 243.7876282 1.4422747
9.5224123 243.7755890 1.5347805
8.8762112 243.7680206 1.6180280
8.2556028 243.7825775 1.6832598
7.6237454 243.7901154 1.7404155
6.9895945 243.7841034 1.7883869
6.3436766 243.7812653 1.8230963
5.7120099 243.7973480 1.8416815
5.1005831 243.8175354 1.8512397
-9.4762335 244.8160706 -0.2774794
-10.1228304 244.8822327 -0.4643066
-12.6680193 245.1651154 -1.4564539
-13.3019505 245.3293762 -1.7496336
-13.9492989 245.4304504 -2.0323949
-14.5867863 245.5347900 -2.3126955
-15.2232113 245.6295166 -2.5889840
5.0984077 244.4932861 1.6570497
