-14.1152201 -13.4920692 75.3931427
-13.2303963 -13.9402122 75.4871674
-12.3599272 -14.3084373 75.5698471
-1.4153829 -13.0729628 75.6413116
-0.5927954 -12.5106611 75.5716248
0.2157583 -11.8358116 75.4853134
1.0594355 -10.9552126 75.3708267
1.9350835 -9.8388882 75.2162552
33.1098518 -2.9697800 74.9243851
33.9324951 -3.8161669 75.0702744
34.7562866 -4.4887099 75.1878891
35.6030769 -5.0535603 75.2909012
36.4644737 -5.5485525 75.3983841
42.3768921 -6.8987570 75.7443390
43.2179604 -6.8470573 75.7595215
44.0864067 -6.7286124 75.7577362
44.9479713 -6.5530958 75.7544632
45.7887192 -6.3179536 75.7391968
46.6611214 -5.9931755 75.7128830
49.2392159 -4.5446029 75.5497665
50.1388664 -3.8041875 75.4551239
51.0406532 -2.9380505 75.3397064
83.6817245 4.2082963 75.0338287
84.4995422 3.5536759 75.1586380
85.3284760 3.0193520 75.2528534
86.1467819 2.5698435 75.3456879
86.9909973 2.1824381 75.4180069
87.8447647 1.8557048 75.4886551
88.6706238 1.5844119 75.5483856
89.5092163 1.3599590 75.6101608
90.3742752 1.2028466 75.6613007
91.2369080 1.1176741 75.6926727
97.3364410 2.4604630 75.6278305
98.2184067 2.9223022 75.5825119
99.1326675 3.5194607 75.5132446
100.0764465 4.3147907 75.4133987
101.0588684 5.3244886 75.2702866
131.0521698 14.3243237 74.6084747
131.8566284 13.2246199 74.8062363
132.6568756 12.3316298 74.9582062
133.4273071 11.6093159 75.0896835
134.2130737 10.9921894 75.2031860
135.0288391 10.4807215 75.3000488
137.5136414 9.3975353 75.5276947
138.3672943 9.1852608 75.5784683
140.9229736 8.7580004 75.7116852
141.7783356 8.7423391 75.7306442
146.2418518 9.6948423 75.6967697
147.1605835 10.1201849 75.6511307
148.0901184 10.6561680 75.5915680
149.0628052 11.3450480 75.5110626
150.0997162 12.2504053 75.3987579
-115.5953598 -28.8278065 74.4756088
-114.6774750 -29.4245987 74.5973511
-110.2856903 -31.0208282 74.9512711
-109.4243851 -31.1335850 74.9926529
-106.8972168 -31.1198692 75.0557480
-106.1111984 -30.9898205 75.0443115
-103.7072754 -30.2822475 74.9924316
-102.9328461 -29.9315395 74.9646530
-100.6048279 -28.4030590 74.7817459
-99.8507919 -27.7208691 74.6901474
-99.1022644 -26.9321918 74.5843582
-65.7004242 -20.2072792 74.3447876
-64.7755280 -20.8668976 74.4851151
-63.8782692 -21.4351597 74.5952835
-62.9860916 -21.8782482 74.6823502
-62.1481781 -22.2184544 74.7554626
-56.2429276 -22.8338737 74.9942932
-55.4200821 -22.6672497 74.9866638
-51.3139420 -20.9081192 74.8116608
-50.5411835 -20.3447628 74.7405701
-49.7587624 -19.6277561 74.6476746
-48.9645500 -18.7843037 74.5340805
-48.1862183 -17.8423233 74.4157410
-14.9557467 -12.7411242 74.4366684
-14.1206408 -13.2639885 74.5306396
-13.2468367 -13.7219667 74.6186447
-12.3640680 -14.1082420 74.7101593
-1.4210944 -12.8582258 74.7759399
-0.6007513 -12.2738209 74.7076187
0.2058912 -11.5777349 74.6225815
1.0393243 -10.6733513 74.5042801
33.9374199 -3.5058894 74.1859131
34.7673454 -4.1970429 74.3166656
35.6168747 -4.7871652 74.4227753
36.4508591 -5.2980294 74.5187378
42.3937874 -6.7005687 74.8873215
43.2348328 -6.6351366 74.8971252
44.1109390 -6.5267467 74.9072113
44.9614334 -6.3553109 74.8927078
45.7978172 -6.1204643 74.8838196
46.6666145 -5.7648020 74.8423615
49.2535210 -4.2833757 74.6814346
50.1557999 -3.5284059 74.5821991
51.0537109 -2.6261852 74.4648056
83.6937637 4.5852556 74.1269760
84.5256500 3.8995659 74.2632294
85.3387222 3.3155825 74.3666077
86.1689682 2.8003986 74.4757156
87.0150909 2.3662543 74.5706024
87.8628616 2.0233035 74.6356354
88.7038574 1.7482387 74.6988068
89.5212402 1.5530170 74.7463913
90.3819275 1.4166130 74.7852783
91.2411346 1.3274401 74.8317184
97.3611526 2.6784396 74.7632599
98.2343750 3.1699712 74.7151413
99.1793594 3.8555923 74.6181870
100.1059341 4.6786284 74.5206528
131.8966980 13.5583181 73.9164886
132.6909790 12.6036339 74.0812988
133.4528961 11.8648920 74.2140427
134.2513275 11.2092705 74.3418655
135.0489502 10.6782398 74.4379425
137.5422668 9.5701265 74.6740112
138.3963318 9.3346558 74.7313004
140.9443970 8.9190836 74.8582306
141.7989960 8.9239368 74.8711929
146.2661896 9.8763847 74.8406143
147.1934509 10.3425627 74.7869949
148.1265411 10.9075012 74.7212524
149.1004486 11.6121197 74.6397934
150.1669159 12.6148109 74.5042419
-114.7273483 -29.0819492 73.7189713
-113.8131485 -29.6213627 73.8229065
-112.9063110 -30.0593891 73.9106445
-112.0398941 -30.3780785 73.9830551
-111.1909332 -30.5994396 74.0338516
-110.3128281 -30.7833309 74.0888367
-109.4574356 -30.9012032 74.1306152
-108.6287537 -30.9503822 74.1546173
-107.7747574 -30.9486351 74.1773300
-106.9337234 -30.8814335 74.1910400
-106.1421661 -30.7646866 74.1853333
-105.3477859 -30.6085701 74.1875992
-104.5302353 -30.3555470 74.1645584
-103.7330170 -30.0527077 74.1341400
-102.9531555 -29.6851425 74.0997849
-102.1618271 -29.2213650 74.0446625
-101.3869095 -28.7062778 73.9846039
-100.6376801 -28.0997524 73.9025955
-99.8912735 -27.3974590 73.8110657
-99.1418915 -26.5547504 73.6985474
-64.8160629 -20.5112724 73.5920563
-63.9016533 -21.1207352 73.7164612
-63.0146484 -21.5994568 73.8106079
-62.1728516 -21.9395695 73.8780594
-52.9825706 -21.5795803 74.0444717
-52.1414719 -21.1275520 73.9933777
-51.3448563 -20.6313114 73.9408493
-50.5740433 -20.0556698 73.8773575
-49.7845039 -19.3128605 73.7764740
-48.9880409 -18.4416466 73.6606522
-48.1978607 -17.3843250 73.5032043
-14.9775333 -12.3914824 73.5442810
-14.1285563 -12.9612532 73.6593170
-13.2542372 -13.4366903 73.7456970
-12.3817940 -13.8275051 73.8313293
-11.5439339 -14.1167593 73.8925095
-10.6991262 -14.3497267 73.9519119
-4.8133192 -14.1002016 74.0486221
-3.9538896 -13.8362627 74.0380478
-3.1155498 -13.5241375 74.0174408
-2.2862198 -13.1067600 73.9676971
-1.4346819 -12.5729036 73.9000931
-0.6032056 -11.9342375 73.8176117
0.2117996 -11.1785841 73.7122498
1.0465996 -10.2104197 73.5906982
34.7691879 -3.7862520 73.4092636
35.6223640 -4.4328899 73.5357742
36.4821510 -5.0008159 73.6484909
37.3078537 -5.4321055 73.7309570
38.1689148 -5.7757430 73.8056488
42.3971863 -6.3955374 74.0078735
43.2385292 -6.3461924 74.0257034
47.5580902 -5.0278578 73.9164581
48.4122124 -4.5281692 73.8600082
49.2813911 -3.9164271 73.7840652
50.1698761 -3.1494584 73.6931534
83.7291031 4.9422388 73.2431412
84.5462112 4.2497783 73.3748550
85.3734207 3.6223829 73.4945068
86.1836319 3.1127946 73.5837402
87.0356064 2.6569564 73.6847763
87.8902664 2.2949915 73.7677002
88.7318954 2.0094004 73.8333893
89.5519791 1.8060325 73.8892212
95.5956573 2.2159858 73.9511185
96.4894257 2.5548980 73.9372101
99.1990509 4.2360320 73.7360001
100.1424408 5.1015930 73.6234894
131.9542542 13.9942942 73.0165329
132.7235413 13.0014353 73.1767654
133.4917297 12.2223463 73.3189621
134.2792358 11.5629826 73.4422073
135.1047058 10.9626694 73.5658951
135.9227753 10.4838133 73.6604233
136.7261200 10.1200161 73.7313461
137.5739899 9.7993088 73.7983398
138.4205322 9.5386591 73.8648605
144.4903870 9.4797640 74.0295792
145.3810730 9.7610121 74.0053024
146.3031616 10.1534863 73.9604187
147.2415009 10.6511297 73.9064713
148.1956635 11.2583933 73.8271637
149.1564636 11.9995823 73.7473755
150.2297211 13.0648012 73.5932007
-114.8101807 -28.6370373 72.8090439
-113.8554993 -29.2351151 72.9448776
-112.9607697 -29.6910744 73.0285187
-112.1027145 -30.0261726 73.0980301
-111.2373962 -30.2732658 73.1594009
-110.3600311 -30.4614964 73.2106094
-109.5020142 -30.5956726 73.2574921
-108.6640472 -30.6565514 73.2907181
-107.8158112 -30.6420803 73.3128891
-106.9857635 -30.5818748 73.3123627
-106.1874619 -30.4780865 73.3162155
-105.3795853 -30.2925339 73.3062363
-104.5652924 -30.0406876 73.2854385
-103.7800522 -29.7553806 73.2677002
-102.9986496 -29.3583393 73.2136688
-102.2026672 -28.8871193 73.1616135
-101.4242096 -28.3434563 73.0956116
-100.6825180 -27.7094421 73.0128784
-99.9488373 -26.9670906 72.9209595
-64.8696594 -20.0543785 72.6780090
-63.9286728 -20.6940575 72.8243866
-63.0497627 -21.1979160 72.9180908
-62.2065887 -21.5733604 72.9936523
-53.0028038 -21.2678661 73.1878128
-52.1775131 -20.7922897 73.1171570
-51.3640137 -20.2546597 73.0550079
-50.5887070 -19.6315422 72.9781265
-49.8028145 -18.8630085 72.8747253
-49.0296707 -17.9423790 72.7532806
-14.9980106 -11.9701014 72.6408005
-14.1430025 -12.5472527 72.7628250
-13.2541904 -13.0647573 72.8614807
-12.3894300 -13.4749670 72.9423981
-11.5406122 -13.8017521 73.0206604
-10.7073193 -14.0375624 73.0767593
-4.8277607 -13.7836781 73.1764297
-3.9596274 -13.5250902 73.1567764
-3.1181073 -13.2005377 73.1284103
-2.2967484 -12.7538462 73.0785446
-1.4309400 -12.1719379 73.0069351
-0.6141331 -11.5182228 72.9283981
0.1827958 -10.7311583 72.8306885
1.0309439 -9.6197891 72.6631699
34.7776527 -3.3346212 72.5070419
35.6351891 -3.9889643 72.6351700
36.4738388 -4.5535517 72.7434692
37.3121758 -5.0140800 72.8376007
38.1779900 -5.3905530 72.9148865
42.4009705 -6.0766401 73.1391678
43.2445412 -6.0256810 73.1391983
47.5715370 -4.6337419 73.0249786
48.4282951 -4.1160207 72.9718933
49.2940559 -3.4586020 72.8840637
50.1848145 -2.6041315 72.7772980
84.5675049 4.6792445 72.4800949
85.3958206 4.0261149 72.5957642
86.2113953 3.4917743 72.6954880
87.0722580 3.0416834 72.7914429
87.9029312 2.7121584 72.8468781
88.7558899 2.3988159 72.9253922
89.5829849 2.1610537 72.9868546
95.6213303 2.5770595 73.0767441
96.5351334 2.9690762 73.0243759
99.2432632 4.7105289 72.8266678
132.7998505 13.4608173 72.2796936
133.5701141 12.6278982 72.4280701
134.3157654 11.9806433 72.5284500
135.1318817 11.3414459 72.6601944
135.9472656 10.8450298 72.7542801
136.7702026 10.4445658 72.8434601
137.6138306 10.0960102 72.9253616
138.4608459 9.8233337 72.9889297
144.5535278 9.7993355 73.1394653
145.4564972 10.1174841 73.1003571
146.3620148 10.5150833 73.0657425
147.3078613 11.0386915 73.0093765
148.2490387 11.6748848 72.9307175
149.2286987 12.4920130 72.8360138
-113.9542389 -28.7147598 72.0062332
-113.0112610 -29.2153683 72.1325684
-112.1494827 -29.5903111 72.2086182
-111.2878952 -29.8697090 72.2743835
-108.7150650 -30.2236652 72.3757095
-107.8702850 -30.2233887 72.3952026
-107.0284653 -30.2111301 72.4296951
-106.2251511 -30.0970402 72.4289703
-105.4286270 -29.9062138 72.4215546
-104.6230545 -29.6572132 72.3919220
-103.8291168 -29.3521729 72.3808441
-103.0465469 -28.9370651 72.3239594
-102.2533264 -28.4598198 72.2747650
-101.4825745 -27.8843822 72.1980591
-100.7602997 -27.2310162 72.1201859
-100.0192871 -26.3890514 72.0032196
-63.9998932 -20.1381779 71.8913345
-63.0848236 -20.7010536 72.0172501
-62.2422447 -21.1182842 72.1012421
-61.3945465 -21.4386787 72.1597824
-60.5058022 -21.7035999 72.2299118
-53.0366402 -20.8355637 72.2774582
-52.2033424 -20.3416653 72.2228546
-51.3987198 -19.7556057 72.1453705
-50.6275101 -19.0697498 72.0481720
-49.8497581 -18.2503052 71.9486542
-49.0552139 -17.2030735 71.7837982
-14.1670475 -12.0215282 71.8355637
-13.2809658 -12.5772085 71.9607697
-12.4051981 -13.0272913 72.0472412
-11.5657892 -13.3576956 72.1018066
-10.7119398 -13.6315308 72.1875153
-9.8595304 -13.7963667 72.2268829
-9.0071220 -13.8738613 72.2596588
-8.1736050 -13.9038668 72.2861557
-7.3250790 -13.9012814 72.3057556
-4.8221216 -13.3994522 72.2759399
-3.9619048 -13.1404915 72.2819901
-3.1271074 -12.7544832 72.2325134
-2.2927570 -12.2690973 72.1769485
-1.4461662 -11.6779222 72.1005402
-0.6249738 -10.9754429 72.0094833
0.1797324 -10.0646706 71.8911514
1.0143287 -8.8364344 71.7068329
35.6395607 -3.4383597 71.7130814
36.4934425 -4.0243812 71.8343506
37.3166046 -4.4889150 71.9179382
38.1813164 -4.9043679 72.0058212
39.0425262 -5.2314324 72.0839844
39.8698616 -5.4437342 72.1312256
45.8283424 -5.0104094 72.2229385
46.7032051 -4.6165423 72.1726379
47.5930824 -4.1218939 72.1074677
48.4504128 -3.5659370 72.0494995
49.3093796 -2.8505769 71.9591675
50.2110901 -1.8770123 71.8258209
84.6105347 5.2839680 71.5472107
85.4446793 4.5601521 71.6836090
86.2462463 4.0163288 71.7719116
87.0889206 3.5319879 71.8821030
87.9381409 3.1685169 71.9503860
88.8001480 2.8368607 72.0425110
89.6206970 2.5982306 72.0947037
90.4759064 2.4318581 72.1356354
91.3263550 2.3541520 72.1689682
95.6571274 3.0389314 72.1657028
96.5647812 3.4403081 72.1198120
97.4652405 3.9243190 72.0765457
98.3713913 4.5586238 71.9909134
132.8830719 14.0891619 71.3394775
133.6289825 13.1735630 71.5113678
134.3973999 12.4249191 71.6420975
135.2007904 11.7626944 71.7708969
136.0049438 11.2529249 71.8638077
136.8162994 10.8431940 71.9469452
142.7923584 9.8680239 72.2444077
143.6893158 9.9820633 72.2608566
144.6021423 10.1993647 72.2471848
145.5072021 10.5282984 72.2083664
146.4164429 10.9470339 72.1796036
147.3752899 11.5286322 72.1021194
148.3234558 12.2273684 72.0159225
149.3449554 13.1444483 71.8801117
-113.1185150 -28.6118507 71.1808853
-112.2265930 -29.0234165 71.2927246
-111.3607864 -29.3366356 71.3603439
-108.7694321 -29.7688656 71.4938354
-107.9118118 -29.8046036 71.5206299
-107.0732346 -29.7617970 71.5318146
-106.2927856 -29.6219215 71.5286026
-105.4862823 -29.4316959 71.5333786
-104.6879349 -29.1693573 71.5132599
-103.9065170 -28.8030777 71.4586258
-103.1232758 -28.3847485 71.4252396
-102.3304825 -27.8610497 71.3669281
-101.5849686 -27.2621250 71.2949524
-100.8219986 -26.4837646 71.1476440
-63.1673431 -20.0937080 71.0634766
-62.2864380 -20.5453434 71.1821442
-61.4223251 -20.9132004 71.2648392
-60.5563049 -21.1949883 71.3230820
-53.0750504 -20.2924442 71.3634949
-52.2503891 -19.7552605 71.2921982
-51.4512405 -19.1293106 71.2127457
-50.6686363 -18.4201450 71.1130142
-13.3041258 -11.9783382 71.0244980
-12.4231453 -12.4592953 71.1308594
-11.5782928 -12.8369408 71.2089615
-10.7373934 -13.1089849 71.2674026
-9.8514729 -13.2896214 71.3300629
-9.0289650 -13.3493347 71.3375702
-8.2022400 -13.4198895 71.3811111
-7.3431444 -13.4372635 71.4117966
-4.8288136 -12.9355450 71.3816376
-3.9652135 -12.5967350 71.3468781
-3.1382501 -12.1768398 71.3061829
-2.3027802 -11.6602402 71.2368240
-1.4656228 -11.0389261 71.1743622
-0.6500977 -10.2480736 71.0621338
36.4927101 -3.3646195 70.8840103
37.3387718 -3.8776662 70.9958115
38.1957588 -4.3218980 71.0851288
39.0582275 -4.6610847 71.1570129
39.8876915 -4.9030223 71.2158585
45.8596153 -4.4247499 71.2811356
46.7202377 -4.0214233 71.2558136
47.6065521 -3.4906735 71.1931381
48.4701996 -2.8510370 71.1109772
49.3326073 -2.0730102 71.0032501
85.4888382 5.2741761 70.7376328
86.2914886 4.6525736 70.8515930
87.1290665 4.1326957 70.9539719
87.9895096 3.7368331 71.0271912
88.8393250 3.4143367 71.0974960
89.6712112 3.1519332 71.1602173
90.5222702 2.9428797 71.2247543
91.3700027 2.8548965 71.2586136
95.7046890 3.5993779 71.2437973
96.6156235 4.0310583 71.2050018
97.5088120 4.5932350 71.1390152
98.4330673 5.3464799 71.0268707
133.6852570 13.8355331 70.5459976
134.4744263 13.0359077 70.7193680
135.2678680 12.3585215 70.8333588
136.0626678 11.8220129 70.9282913
136.8866577 11.3468103 71.0386963
142.8432617 10.3323107 71.3455429
143.7557983 10.4843874 71.3388062
144.6623993 10.7136250 71.3299179
145.5711365 11.0697145 71.2892990
146.5155945 11.5675516 71.2278442
147.4582520 12.1818552 71.1648865
-112.3346100 -28.3427486 70.3281708
-111.4552383 -28.6859531 70.4329224
-110.5662460 -28.9611835 70.5020905
-109.7129898 -29.1095734 70.5299454
-108.8760757 -29.1979027 70.5668335
-108.0114441 -29.2333736 70.5999527
-107.1554260 -29.1597424 70.6134567
-106.3775635 -28.9770012 70.5859909
-105.5847244 -28.7458706 70.5577621
-104.7695847 -28.4587631 70.5348129
-103.9817200 -28.0968323 70.4944763
-103.2173920 -27.6247902 70.4308014
-101.6495895 -26.4091854 70.2871475
-62.3510704 -19.8469200 70.2182617
-61.4763603 -20.2299175 70.3225479
-60.6074677 -20.5518494 70.3902817
-59.7487488 -20.7753029 70.4469604
-58.9155083 -20.8720703 70.4678268
-58.0414200 -20.9150162 70.5031281
-57.1980629 -20.8609562 70.5033493
-56.3974419 -20.7620792 70.5160141
-55.5750389 -20.6219521 70.5339890
-54.7458076 -20.3719101 70.4972153
-53.9377480 -20.0513382 70.4743958
-53.1392288 -19.6136456 70.4261703
-52.2991905 -19.0125980 70.3497772
-12.4464550 -11.7459974 70.1890335
-11.6062679 -12.1497307 70.2673721
-10.7557392 -12.4527130 70.3346863
-9.9011230 -12.6319103 70.3767014
-9.0516043 -12.7442198 70.4080353
-8.2074556 -12.8293562 70.4591904
-7.3559813 -12.8190079 70.4745636
-6.4935045 -12.7500296 70.4874573
-5.6823153 -12.6032734 70.4913788
-4.8384080 -12.3328791 70.4633636
-3.9846840 -11.9685850 70.4309845
-3.1615500 -11.5095329 70.3748398
-2.3406966 -10.9470596 70.3103333
-1.4719594 -10.1678896 70.2002411
37.3508034 -3.1448607 70.0440979
38.2184258 -3.6165249 70.1441269
39.0715141 -3.9856436 70.2250290
39.8915977 -4.2272563 70.2696609
40.7377129 -4.4109826 70.3237610
41.6110306 -4.5175018 70.3668900
42.4470825 -4.5365109 70.3843307
43.2874794 -4.4830971 70.4045334
44.1509247 -4.3335042 70.4025726
45.0172539 -4.0860066 70.3851776
45.8702621 -3.7243860 70.3478546
46.7453423 -3.2504733 70.2936935
47.6518440 -2.6244953 70.1995239
48.5031204 -1.9413221 70.1220093
86.3478775 5.4588003 69.8792038
87.1920395 4.8905239 70.0074844
88.0469360 4.4118714 70.1127243
88.8867035 4.0748510 70.1663589
89.7163391 3.7821021 70.2334671
90.5577316 3.5803838 70.2892990
91.4121780 3.5111711 70.3170471
92.2667007 3.5510490 70.3231583
93.1269913 3.5903361 70.3670959
94.0275421 3.7436223 70.3467560
94.8828201 3.9956322 70.3234787
95.7675323 4.3350639 70.3035507
96.6882858 4.8580356 70.2286224
97.5804977 5.4876075 70.1648178
134.5517883 13.8524656 69.7232132
136.1513214 12.4778728 70.0012283
136.9650879 11.9802446 70.1036453
137.7913818 11.6101446 70.1760483
138.6507416 11.3135958 70.2482376
142.9199829 10.9342279 70.4026794
143.8423004 11.0928659 70.4085846
144.7614288 11.3724222 70.3755341
145.6440125 11.7345057 70.3619614
146.5946350 12.2999716 70.2908936
-111.5682068 -27.8716812 69.4555130
-109.8031769 -28.3904037 69.6090775
-108.9648361 -28.4890690 69.6311188
-108.1065750 -28.4975510 69.6448669
-107.2712936 -28.4260731 69.6653442
-106.4800186 -28.2475433 69.6446686
-105.6646042 -28.0648003 69.6629944
-104.8612671 -27.7787113 69.6319046
-104.0878067 -27.3968201 69.5880737
-103.3229599 -26.9123497 69.5244522
-59.8130341 -19.9886971 69.4954758
-58.9674072 -20.1183548 69.5398865
-58.1019592 -20.1587830 69.5542755
-57.2486725 -20.1636696 69.5947876
-56.4537773 -20.0672379 69.5868149
-55.6359711 -19.8867130 69.5706100
-54.8030739 -19.6297264 69.5637970
-53.9967461 -19.2275391 69.4980774
-12.4918442 -10.8563814 69.1774979
-11.6386585 -11.3137636 69.3041992
-10.7780123 -11.6609640 69.3861389
-9.9156332 -11.9039259 69.4493027
-9.0825033 -12.0198174 69.4770737
-8.2377682 -12.0530434 69.4896545
-7.3519287 -12.0632477 69.5203781
-6.5081968 -12.0100193 69.5374069
-5.6883817 -11.8497915 69.5389252
-4.8475070 -11.5417690 69.5033340
-4.0070519 -11.1332550 69.4662628
-3.1819458 -10.6024857 69.3907700
-2.3659196 -9.9530382 69.3054657
38.2160568 -2.7373092 69.1452866
39.0740204 -3.1211946 69.2474060
39.9109039 -3.4141362 69.3283844
40.7548752 -3.6016312 69.3678131
41.6188316 -3.7008150 69.3904724
42.4674835 -3.7603889 69.4471207
43.3053551 -3.6590812 69.4382248
44.1843452 -3.4740055 69.4261322
87.2351532 5.8565025 68.9869232
88.1013107 5.3283238 69.0860672
88.9418259 4.8773060 69.2133026
89.7719421 4.5892677 69.2828522
90.6120300 4.3917146 69.3352661
91.4637756 4.3341842 69.3628845
92.3212280 4.4190063 69.3372803
93.1870880 4.4532018 69.3751678
94.0874710 4.6102057 69.3855438
94.9648590 4.9247928 69.3354492
95.8424377 5.2946010 69.3243103
136.2628326 13.3384552 69.0350647
137.0458221 12.8075161 69.1404724
137.8845825 12.3708792 69.2296524
138.7282104 12.0573082 69.2994843
143.0239410 11.6448441 69.4681549
143.9288177 11.8217878 69.4702225
144.8462219 12.1537533 69.4401398
145.7828217 12.6503325 69.3757858
-109.0875626 -27.5515461 68.6581116
-108.2334671 -27.6028709 68.6901932
-107.3987427 -27.5410728 68.6883240
-106.5984421 -27.4184570 68.6894836
-105.7936478 -27.2051849 68.6753082
-104.9874344 -26.8750858 68.6366348
-104.2064896 -26.4650249 68.5893784
-59.8998222 -18.9702396 68.4879532
-59.0503502 -19.1459942 68.5442200
-58.1784821 -19.2386341 68.5995255
-57.3335609 -19.2193203 68.6051559
-56.5257454 -19.1420746 68.6162796
-55.7032509 -18.9368515 68.5936584
-54.8876686 -18.6271896 68.5609512
-10.8343792 -10.6591139 68.3522034
-9.9641399 -10.9170933 68.4468155
-9.1103954 -11.0667620 68.5017319
-8.2605057 -11.1303272 68.5227890
-7.3824658 -11.1273651 68.5484314
-6.5376210 -11.0351915 68.5495071
-5.6991625 -10.8595238 68.5359192
-4.8711634 -10.5141869 68.4888229
41.6391373 -2.7285869 68.4388885
42.4723892 -2.7178447 68.4391174
43.3235855 -2.6137638 68.4366379
44.2178497 -2.4291601 68.4274063
89.8260956 5.6846471 68.2376862
90.6769028 5.4358749 68.3198090
91.5405121 5.3448501 68.3747559
92.3884430 5.3657069 68.3967667
94.1471405 5.7450252 68.3760681
95.0385742 6.0605478 68.3433380
137.1637421 13.8539686 68.1031342
137.9989624 13.3630133 68.2370529
138.8392334 12.9940004 68.3163300
139.6827545 12.7259569 68.3898392
140.5424957 12.5908051 68.4087677
141.4040375 12.4909058 68.4585571
142.2533569 12.4676647 68.4968338
143.1366730 12.6021051 68.4838867
144.0613403 12.8597641 68.4783630
145.0090942 13.3109570 68.4026718
-109.2615967 -26.3449860 67.5871048
-108.4068527 -26.4272423 67.6510391
-107.5675125 -26.3815098 67.6763763
-106.7717133 -26.2664528 67.6829453
-7.4227252 -9.8879433 67.4863815
138.9874725 14.1964474 67.2749786
139.8202362 13.9144039 67.3549728
140.6596680 13.7558002 67.3966980
141.5492096 13.7289276 67.4365463
142.4212494 13.7540779 67.4451752
143.3190155 13.9262238 67.4171906
144.2310486 14.2534456 67.3784027
-107.9264984 -28.1108742 339.9045105
-107.7574158 -29.3334808 338.0556335
-106.1368561 -29.0233536 338.0856018
-58.6162529 -20.8623466 338.6967468
-56.9696312 -20.7427197 338.6950073
-7.0602112 -12.0654774 339.3555908
91.8732605 4.9759231 340.6434631
-109.3280487 -30.1549358 336.2997437
-107.6494904 -30.1017437 336.2868652
-106.0275955 -29.8136883 336.3067932
-60.2433586 -21.6379967 336.9437561
-58.5355988 -21.7744808 336.9031677
-8.7318134 -13.3338900 337.5235901
-5.3565454 -12.8218603 337.5562744
43.6400070 -4.6459231 338.1497498
91.7711639 3.5256290 338.7512817
93.5293808 3.6367102 338.7464905
-112.6829605 -30.0391464 334.7075806
-110.9292068 -30.4872932 334.6178894
-107.5785751 -30.5715847 334.5636902
-105.9548645 -30.2980042 334.5816345
-104.3633270 -29.7602825 334.6454773
-102.7536392 -29.0236149 334.7294006
-101.2247696 -27.9820137 334.8666687
-63.6172371 -21.1723595 335.3962097
-61.8887482 -21.8419991 335.2745972
-60.1895370 -22.2323189 335.1967163
-58.4869804 -22.3551464 335.1557922
-56.8299065 -22.2184734 335.1552124
-8.7026758 -14.0735149 335.7496948
38.5211411 -5.1911778 336.4657288
41.9012756 -5.6564183 336.3533936
43.6107292 -5.5135627 336.3522034
45.3398819 -5.0528378 336.4018250
88.3159790 3.2364888 337.0842590
90.0102997 2.7851932 336.9929199
91.7091599 2.6113698 336.9483948
93.4522858 2.7012355 336.9365234
144.2545013 11.2660818 337.5596008
-114.3748016 -29.6246853 333.1326294
-110.8883743 -30.7078915 332.9319153
-109.2026672 -30.8763180 332.8859253
-107.5276031 -30.8301601 332.8698425
-102.7116699 -29.2986469 333.0351257
-63.5751801 -21.5854282 333.6748047
-61.8468437 -22.1983624 333.5657654
-60.1486588 -22.5400028 333.4922485
-58.4437675 -22.6477566 333.4558716
-56.7905388 -22.5163651 333.4536133
-50.2921677 -19.5650291 333.8051453
-12.0632324 -13.9685497 334.1470947
-6.9829240 -14.4073925 334.0213013
40.2196541 -6.0797434 334.6487427
41.8912430 -6.1737452 334.6145935
45.3236961 -5.6062675 334.6523132
86.5969467 3.3529305 335.4517517
88.2691650 2.6371133 335.3234863
89.9691467 2.2021089 335.2397461
91.6661682 2.0171664 335.1916504
95.1258469 2.4363673 335.2109680
96.9068375 3.0315344 335.2708740
135.6666107 12.2663507 336.1400757
137.2965393 11.3608274 335.9899902
144.1609802 10.4937305 335.7771912
145.9799042 10.9698000 335.8238525
-114.3581543 -29.6660614 331.4708252
-112.6139526 -30.3233910 331.3545532
-109.1888580 -30.8668537 331.2339478
-107.5179749 -30.8360233 331.2179565
-105.9050980 -30.5480137 331.2396240
-104.3059006 -30.0648422 331.2897644
-102.7020798 -29.3542900 331.3724365
-101.1715698 -28.3629169 331.4976501
-99.6543961 -27.0582180 331.6672974
-63.5568390 -21.7010727 331.9987183
-61.8290291 -22.2968369 331.8894653
-60.1370850 -22.6201267 331.8239746
-58.4351807 -22.7243786 331.7879028
-53.5140800 -21.6929893 331.8763123
-51.8720551 -20.8746128 331.9742126
-50.2750626 -19.7366486 332.1197205
-13.7687845 -13.5619917 332.5629883
-12.0539761 -14.1974478 332.4504395
-10.3628159 -14.5684414 332.3775024
-6.9701242 -14.6279774 332.3251038
-3.6556702 -13.7249699 332.4152832
-1.9409559 -12.8340607 332.5250244
36.8064842 -5.4721556 333.1124268
38.5158653 -6.0356140 333.0103760
40.2147713 -6.3572683 332.9426880
41.8979416 -6.4447656 332.9096985
43.6026573 -6.2803683 332.9119873
45.3191757 -5.8592234 332.9539185
84.9084396 3.9327302 333.8811951
86.5740433 2.9770446 333.7219238
88.2513504 2.3051262 333.6051025
89.9489746 1.8613428 333.5178223
95.0959549 2.1086073 333.4934082
96.8725815 2.6979158 333.5577393
137.2430115 10.8548794 334.2378235
138.9092865 10.2836094 334.1380310
140.6234589 9.9328318 334.0639648
142.3304596 9.8535967 334.0350037
144.0949097 10.0148067 334.0346069
145.9054413 10.4533615 334.0722656
-114.3711700 -29.4745789 329.8421021
-112.6214752 -30.1325912 329.7272949
-110.8946381 -30.5117035 329.6525879
-109.2059479 -30.6627808 329.6108398
-107.5282440 -30.6222363 329.5964661
-104.3191376 -29.8634624 329.6659546
-102.7159119 -29.1448288 329.7492371
-101.1878510 -28.1647758 329.8706055
-63.5567741 -21.5565090 330.3597107
-61.8300285 -22.1596737 330.2532654
-60.1432152 -22.4976501 330.1845703
-58.4335785 -22.5898266 330.1507263
-56.7819939 -22.4634972 330.1492615
-53.5146065 -21.5589542 330.2387695
-51.8779602 -20.7290306 330.3373718
-50.2795296 -19.5927410 330.4799194
-15.5092134 -12.6384096 331.0535583
-13.7646627 -13.5771198 330.8984375
-12.0474129 -14.2129211 330.7867126
-8.6713200 -14.7176046 330.6746216
-6.9661326 -14.6231365 330.6677856
-5.2960997 -14.3061943 330.6922302
-3.6441729 -13.7165098 330.7564697
-1.9356852 -12.8184891 330.8650513
33.4334450 -3.5159583 331.7643127
35.1292725 -4.7029867 331.5753784
36.8109016 -5.5218730 331.4384766
38.5197754 -6.0839391 331.3372498
40.2210045 -6.3939905 331.2729492
41.8922577 -6.4668317 331.2427673
43.6002464 -6.3058810 331.2449341
45.3161774 -5.8817544 331.2846985
48.7597542 -4.2937584 331.4695129
84.9004059 3.7783318 332.1854248
86.5734024 2.8519077 332.0335083
88.2438583 2.1929381 331.9192200
89.9385300 1.7631503 331.8375244
95.0848160 2.0196550 331.8127136
98.6725159 3.5138497 331.9820251
133.9704742 12.6064301 332.8543091
138.8923645 10.0748873 332.4347229
140.5932770 9.7433310 332.3664856
147.6876526 10.9824581 332.4570313
-114.4351425 -29.0166569 328.2514648
-112.6731110 -29.7086716 328.1329956
-104.3802414 -29.4171543 328.0748596
-102.7669907 -28.6931286 328.1599121
-63.5851707 -21.1968651 328.7507019
-61.8564644 -21.7880840 328.6476440
-60.1696243 -22.1186638 328.5814819
-58.4586449 -22.2331009 328.5451965
-53.5301399 -21.1955166 328.6322937
-51.8948555 -20.3422375 328.7340393
-50.3061790 -19.2081490 328.8741455
-13.7621651 -13.3605690 329.2645264
-12.0533829 -13.9766512 329.1585388
-10.3484697 -14.3702831 329.0832214
-8.6724176 -14.4841347 329.0472412
-6.9716687 -14.3819990 329.0420532
33.4390526 -3.3540881 330.1155090
35.1437569 -4.5457802 329.9276123
38.5195885 -5.9106202 329.6962280
41.9022560 -6.2813792 329.6044312
43.6065331 -6.1057148 329.6089172
48.7726898 -4.0959768 329.8307190
84.9037781 3.8839655 330.5264893
86.5802994 2.9453719 330.3748169
88.2468796 2.2880499 330.2630615
89.9433136 1.8953645 330.1874695
93.3763885 1.8385686 330.1393127
95.0965195 2.1620927 330.1649170
135.5559235 11.4699497 330.9963989
137.2179260 10.6574945 330.8619385
138.8924103 10.1082048 330.7653503
140.5990143 9.7993784 330.7014465
-112.7558289 -29.0224476 326.5748596
-111.0109558 -29.4512100 326.4934387
-109.3339767 -29.6195354 326.4512634
-104.4588776 -28.7373066 326.5172729
-102.8414078 -27.9907131 326.6007080
-61.8999825 -21.1898746 327.0715332
-60.2178993 -21.5291023 327.0041504
-58.5021439 -21.6467361 326.9703369
-56.8422546 -21.5065269 326.9687805
-12.0531034 -13.5354071 327.5570984
-10.3512812 -13.9049702 327.4869385
-8.6889334 -14.0104389 327.4524231
-6.9787660 -13.9092627 327.4476013
-5.3104382 -13.5568037 327.4773254
-3.6608932 -12.9537745 327.5401611
35.1460381 -4.1186848 328.3177185
36.8144646 -4.9392715 328.1849670
41.9086418 -5.8801069 327.9950562
43.6216125 -5.7011003 328.0002747
45.3394585 -5.2648072 328.0411987
47.0647736 -4.5668855 328.1170959
84.9281921 4.2244496 328.8997192
86.6013184 3.2883492 328.7503967
88.2649460 2.6487310 328.6419373
89.9654617 2.2576597 328.5684204
95.1267471 2.5323668 328.5465393
96.9170990 3.1222022 328.6087646
98.7190323 4.0510397 328.7158813
133.9916382 12.8105650 329.5234375
137.2435913 10.9269667 329.2246399
138.9214630 10.3694096 329.1272888
140.6365967 10.0876417 329.0691833
-111.1293106 -28.5515022 324.9630432
-109.4562378 -28.7367744 324.9172363
-107.7634811 -28.6742783 324.9082947
-106.1318893 -28.3601685 324.9310608
-61.9597054 -20.3632107 325.5256348
-60.2786331 -20.7144394 325.4582520
-51.9918594 -18.7996216 325.6272278
-13.7984467 -12.1492014 326.1040955
-12.0731754 -12.8257618 325.9919434
-6.9930906 -13.2152185 325.8804932
-5.3188534 -12.8460064 325.9120789
-1.9580996 -11.2804489 326.0882874
38.5456238 -4.8645415 326.5058594
40.2569847 -5.1808987 326.4461060
43.6449814 -5.0610075 326.4245605
45.3614082 -4.6201468 326.4640198
84.9634933 4.8136826 327.3045349
93.4473114 2.7809901 326.9295959
96.9672470 3.7562168 327.0261536
134.0453796 13.3202591 327.9126587
137.2999420 11.4066219 327.6142883
138.9758759 10.8629503 327.5214539
140.6961060 10.5771141 327.4621277
142.3991547 10.5436420 327.4404297
144.1762695 10.7311440 327.4427185
-111.2890015 -27.3358650 323.4732971
-107.9025650 -27.4973888 323.4126892
-104.7153854 -26.6328392 323.4933167
-60.3705826 -19.5957050 323.9494019
-58.6521797 -19.7097778 323.9136353
-12.1059504 -11.7958851 324.4637756
-8.7299728 -12.3481073 324.3547668
-1.9803748 -10.1862097 324.5736694
40.2723312 -4.2767467 324.8977051
41.9357262 -4.3228703 324.8748779
43.6699677 -4.1235242 324.8820190
47.1234360 -2.9084933 325.0098267
86.6985626 4.7166429 325.5968323
88.3611832 4.0463948 325.4873962
90.0624390 3.6598210 325.4173889
91.7815170 3.5311112 325.3805542
93.5119171 3.6287775 325.3747253
135.7145233 12.9631433 326.1637878
137.3820038 12.1161070 326.0340271
-108.1108170 -25.9402771 321.9630127
-7.0405159 -10.9888716 322.8521423
-5.3845735 -10.5810528 322.8901062
40.3039856 -3.0837743 323.3861389
41.9643860 -3.1456223 323.3649292
88.4346466 5.1606355 323.9633789
93.5922623 4.7747421 323.8555908
95.3267212 5.1796436 323.8905945
139.1809235 12.5495358 324.3967896
90.2368774 6.2247696 322.4081726
139.3300476 13.8778811 322.8849487
141.2474365 15.3069963 321.3756714
-110.7371979 -29.3440704 286.7783508
-105.7193604 -29.3955345 286.7423401
140.9589844 12.4850664 289.1570129
142.6651001 12.3717728 289.1280823
-110.6263199 -30.0959167 285.0503235
-107.2563934 -30.2978897 285.0169983
137.4447021 12.3478794 287.4859619
142.5109863 11.1856813 287.3496704
144.2771912 11.3415012 287.3548889
-112.3061371 -30.0878868 283.4105530
-110.5564423 -30.5445271 283.3597717
-108.8738861 -30.7252541 283.3345032
-107.1885300 -30.7027016 283.3275146
-103.9699173 -30.0213051 283.3708496
-100.8312988 -28.3608456 283.4985657
137.3345642 11.4886341 285.7311096
139.0037537 10.8323126 285.6624451
144.1711273 10.5023203 285.6096802
145.9845886 10.9398918 285.6324463
-114.0120316 -29.5721607 281.8078308
-112.2509537 -30.3082218 281.7347717
-110.5182571 -30.7490463 281.6887207
-108.8376312 -30.9158039 281.6657410
-107.1500244 -30.8854637 281.6587830
-105.5269547 -30.6577759 281.6708374
-103.9372787 -30.2234001 281.6997070
-102.3371506 -29.5360794 281.7516785
-99.2846909 -27.3164654 281.9275513
135.6281586 11.8449764 284.0934753
138.9431000 10.3289099 283.9476013
144.1131134 9.9841385 283.8895264
-114.0002823 -29.5333366 280.1561890
-112.2521515 -30.2544403 280.0865784
-110.5216293 -30.6874142 280.0414124
-108.8325195 -30.8593063 280.0185242
-107.1529312 -30.8548088 280.0109863
-103.9426804 -30.1653404 280.0535278
-102.3365860 -29.4741535 280.1035461
-100.7975693 -28.5188084 280.1766663
-99.2853165 -27.2683849 280.2751465
135.5899048 11.5375109 282.3928223
137.2397003 10.6594954 282.3102417
140.6173859 9.7225170 282.2149658
142.2965088 9.6181984 282.1976624
144.0778198 9.7391367 282.1995239
145.8817139 10.1438551 282.2240601
-110.5517273 -30.4124622 278.4116821
-108.8624039 -30.6015568 278.3878784
-107.1809540 -30.5860119 278.3821716
-103.9750290 -29.8748722 278.4248962
-102.3698578 -29.1882515 278.4744873
-100.8224640 -28.2104797 278.5469055
-99.3190536 -26.9457150 278.6452942
135.5849915 11.5003901 280.7136230
137.2366791 10.6319971 280.6341248
140.6064606 9.7026529 280.5413513
142.3003998 9.6022615 280.5256042
145.8746338 10.1323452 280.5524597
147.6707001 10.7850790 280.5982361
-112.3372726 -29.4506664 276.8440857
-110.6102600 -29.9160976 276.7979736
-107.2433472 -30.0745506 276.7725830
-102.4260406 -28.6530857 276.8641052
134.0278931 12.8366776 279.1522217
135.6089478 11.6941967 279.0529480
137.2651978 10.8355627 278.9772339
140.6376038 9.8855057 278.8842773
145.8988953 10.3307209 278.8972168
-112.4549408 -28.6403847 275.2529602
-110.7084198 -29.1385422 275.2066345
-107.3309784 -29.3398113 275.1738586
135.6617126 12.1365891 277.4112244
137.3072205 11.2666178 277.3356323
144.1521759 10.3475990 277.2344971
147.7489319 11.4713297 277.3090820
-109.1599121 -28.3466930 273.6068420
-107.4592590 -28.3245468 273.5987244
137.3920441 11.9540749 275.7113037
139.0745087 11.3069935 275.6591797
140.7582550 10.9587669 275.6250610
142.4530792 10.8661661 275.6123962
144.2423096 11.0363245 275.6147461
146.0466766 11.4806032 275.6437988
137.4985809 12.9029455 274.1068726
140.8700409 11.9009037 274.0192871
142.5707245 11.8252087 274.0084839
144.3639984 12.0246849 274.0147095
141.0179138 13.1555996 272.4383850
142.7177582 13.1203175 272.4265137
-103.9391327 -28.1830444 237.1804962
-107.0139389 -29.9486008 235.4654388
-105.3969040 -29.6472969 235.4767456
-102.2202988 -28.2736320 235.5245972
139.2311249 11.9917736 237.1664581
142.6293945 11.5507956 237.1591187
-113.7807007 -29.2731838 233.8211060
-112.0100937 -30.0335999 233.7998352
-110.2760086 -30.4594364 233.7908936
-108.6006317 -30.6158600 233.7864227
-106.9288712 -30.5500679 233.7910614
-103.7534943 -29.6849461 233.8267975
-102.1394119 -28.9153557 233.8495178
-100.6138382 -27.8550797 233.8862457
139.1116486 11.0474844 235.4666290
142.5135803 10.6127224 235.4583588
-111.9527054 -30.4188137 232.1357269
-110.2202148 -30.8223114 232.1271820
-108.5425034 -30.9725571 232.1264954
-106.8725891 -30.9056625 232.1315002
-105.2809296 -30.5776443 232.1433258
-103.6970139 -30.0388737 232.1625061
-102.0919342 -29.2570438 232.1877441
135.7279205 11.9101315 233.8090057
142.4426117 9.9798937 233.7696381
-113.6843719 -29.8967419 230.4931335
-111.9282761 -30.5525246 230.4794464
-110.2022095 -30.9483929 230.4729004
-108.5292053 -31.0979404 230.4725647
-106.8553085 -31.0227070 230.4780579
-105.2509613 -30.6993599 230.4896545
-102.0667114 -29.3594570 230.5321503
-100.5268478 -28.3530121 230.5617371
134.0957794 12.6604633 232.1494598
139.0023041 10.0360937 232.0911255
140.6963348 9.6875296 232.0862579
142.3963623 9.5735340 232.0847015
144.1614532 9.7133436 232.0927582
-113.7012787 -29.7865467 228.8416748
-111.9356384 -30.4494686 228.8297882
-105.2565384 -30.5895672 228.8419647
-103.6950226 -30.0373554 228.8589325
-102.0794907 -29.2474709 228.8832703
-100.5378571 -28.2242641 228.9112701
138.9974365 9.8885899 230.4155579
140.6838074 9.5447206 230.4113617
144.1474915 9.5590611 230.4188538
-113.7476959 -29.4280167 227.1953125
-111.9733582 -30.1030464 227.1850586
-108.5916519 -30.6458588 227.1819000
-106.8957062 -30.5313778 227.1867828
-102.1143036 -28.9242363 227.2372284
139.0110931 10.0173664 228.7468872
140.7003784 9.6635151 228.7436676
-112.0532303 -29.4903393 225.5424042
-110.3324432 -29.9314728 225.5392303
-108.6625443 -30.0820675 225.5413361
-106.9747543 -29.9863205 225.5492706
-105.3544769 -29.6671295 225.5574493
-103.7957916 -29.1487255 225.5756836
134.1332397 12.9137068 227.1203308
137.3707428 10.9466534 227.0890198
139.0589447 10.3409691 227.0810547
-110.4484940 -29.0605335 223.9028778
-107.0771103 -29.1658077 223.9109344
-105.4554672 -28.8471336 223.9227600
-103.9068451 -28.2917042 223.9356689
135.7815247 12.4031343 225.4375610
137.4486847 11.5120544 225.4305420
140.8070984 10.5256491 225.4171448
140.9147339 11.3560619 223.7586823
142.6149750 11.2423229 223.7693939
144.4090271 11.4463463 223.7680817
-107.4381332 -26.3751907 220.6450500
-105.8141785 -26.0221157 220.6557922
15.2514906 -7.6033478 213.0245056
16.9486904 -7.7192516 213.0368958
11.8763218 -8.7063818 209.6753235
13.5536613 -9.3538980 209.6829224
15.2632637 -9.6958694 209.6900330
16.9513855 -9.7856102 209.6984253
20.3142815 -9.2572174 209.7184906
13.5662708 -9.9469805 208.0184326
16.9608765 -10.3693066 208.0408020
18.6347904 -10.2393780 208.0479584
20.3115101 -9.8510151 208.0552521
22.0367413 -9.2160292 208.0650635
10.1994762 -8.8489103 206.3346558
11.8928108 -9.6962633 206.3469391
16.9610672 -10.7260695 206.3793793
18.6447544 -10.5849810 206.3869324
20.3133602 -10.2101507 206.3970337
22.0449924 -9.5702963 206.4041138
15.2820997 -10.7262907 204.7079010
18.6558857 -10.6956377 204.7284393
20.3272705 -10.3530016 204.7366180
25.4196434 -7.5252256 204.7540436
11.9055195 -9.6626482 203.0200500
13.5699921 -10.2428656 203.0333099
15.2899284 -10.5872536 203.0476532
16.9881973 -10.6916256 203.0583496
20.3266163 -10.2202654 203.0756989
22.0686111 -9.5829191 203.0826569
23.7600727 -8.6563501 203.0865631
11.9095650 -9.2959976 201.3549194
15.2850590 -10.2253675 201.3825073
18.6526775 -10.2223969 201.4037476
20.3230534 -9.8259058 201.4129486
23.7635269 -8.2700996 201.4212799
16.9937763 -9.7561035 199.7257385
18.6593609 -9.6077089 199.7402496
-108.7151871 -28.3554325 187.4996033
-111.9674530 -28.9583969 185.8325806
-110.2327042 -29.3517075 185.8564911
142.8345337 11.7534533 186.9560852
-113.5900116 -29.1960793 184.1705627
-111.8383408 -29.8252201 184.2032928
-110.1163559 -30.1727066 184.2281647
-108.4550934 -30.2598743 184.2417450
-106.7796021 -30.1238403 184.2549286
-105.1744080 -29.7757549 184.2599945
-103.6005936 -29.2021580 184.2584839
-102.0062714 -28.3606758 184.2467651
-113.4987946 -29.8128586 182.5331879
-111.7517319 -30.3956566 182.5663910
-100.4102020 -27.8497372 182.5922394
134.3005219 12.9286098 183.4947510
140.9121704 10.1011763 183.6376801
142.6276703 10.0341015 183.6554871
146.2046967 10.6732216 183.6690521
-111.7021790 -30.7052078 180.9256134
-109.9909744 -31.0506516 180.9515533
-108.3343201 -31.1332932 180.9695282
-106.6618042 -30.9942131 180.9809113
-105.0574265 -30.6544476 180.9840088
-103.4891663 -30.1106701 180.9819641
-101.8890457 -29.2887096 180.9708099
-100.3636475 -28.2063179 180.9507751
135.8347778 11.2833815 181.8820648
137.4947052 10.5100231 181.9245911
139.1749420 9.9438677 181.9568787
140.8632050 9.6283264 181.9817657
142.5604858 9.5603752 181.9987640
-113.4381943 -30.2324066 179.2412415
-108.3156509 -31.2209835 179.3227539
-106.6511688 -31.0823078 179.3341064
-105.0411453 -30.7519684 179.3387146
-103.4674683 -30.1973343 179.3345795
-101.8716431 -29.3918877 179.3228302
-100.3476028 -28.3015251 179.3003387
135.8139648 11.0625687 180.2158966
137.4770508 10.2573118 180.2584381
139.1393433 9.6937609 180.2931519
140.8305511 9.3868093 180.3197784
144.3155823 9.4885273 180.3496857
146.1165771 9.9262295 180.3516998
147.9194946 10.6329622 180.3451080
-113.4636230 -30.0694923 177.5829468
-111.7016678 -30.6797810 177.6209259
-108.3375702 -31.0482845 177.6669922
-106.6663513 -30.9340858 177.6789703
-105.0510101 -30.5983219 177.6823578
-101.8911743 -29.2177658 177.6642761
137.4746094 10.2809219 178.5853119
144.3190918 9.4989109 178.6796875
146.1152039 9.9321518 178.6819916
147.9216003 10.6531086 178.6743164
-111.7521744 -30.2728825 175.9544830
-110.0463181 -30.5930672 175.9834137
-108.4067459 -30.6575394 176.0001221
-106.7107315 -30.5679436 176.0158386
-105.0964813 -30.2200508 176.0166168
-101.9295273 -28.8160343 175.9973297
134.2651978 12.4503689 176.8010406
137.5042267 10.5123386 176.9059296
139.1869049 9.9401331 176.9432068
140.8753662 9.5895157 176.9745331
146.1572418 10.1695213 177.0053864
147.9673767 10.9255219 176.9924622
-111.8387756 -29.5961552 174.2724304
-108.4888306 -30.0483322 174.3227386
-105.1703568 -29.6089039 174.3422546
135.9129181 11.8802052 175.1626892
146.2395020 10.6930771 175.3149719
-106.8850708 -29.0865078 172.6554108
-105.2887802 -28.7201214 172.6545868
137.6606598 11.7763157 173.5096588
-107.0722580 -27.7795258 170.9378815
141.1732330 11.9294348 171.8621826
139.8570251 14.0100822 138.2027893
141.5681305 13.7330694 138.2503815
-110.1623764 -28.9449577 136.2221527
-103.6717987 -27.6394386 136.2110901
139.6843262 12.4568720 136.6497955
-103.5363007 -28.6634560 134.6495514
137.8799286 11.8960180 134.9967041
142.9770660 11.0790539 135.1466675
-111.6278000 -30.4145451 133.0182343
-106.6154938 -30.4333992 133.1018982
-105.0128326 -30.0359097 133.0929871
-103.4510574 -29.4004459 133.0612183
-101.8702393 -28.4724979 133.0059052
134.5282440 12.9325619 133.1758118
136.1327972 11.8322153 133.2975922
137.7893372 11.0451584 133.3925018
139.4714966 10.5436659 133.4664001
141.1738281 10.2706156 133.5155334
142.8851013 10.2400942 133.5467529
144.6709137 10.4472713 133.5569000
146.4842377 10.9611330 133.5409546
-113.3066406 -30.3890438 131.3385773
-111.5629501 -30.8777561 131.4113770
-109.8583145 -31.1089897 131.4589233
-108.2122040 -31.1117477 131.4863586
-106.5556259 -30.9099483 131.4957123
-104.9558640 -30.5119534 131.4856567
-103.3956451 -29.8763790 131.4548492
-101.8072891 -28.9754257 131.3989716
-100.2914581 -27.8004379 131.3194427
136.0648804 11.2563286 131.6742249
137.7236328 10.4863758 131.7716217
148.2207031 11.1372366 131.8828125
-113.2777557 -30.6094017 129.7075348
-111.5322037 -31.0968895 129.7805481
-109.8266830 -31.3468704 129.8324432
-108.1849213 -31.3555088 129.8601379
-106.5241318 -31.1718407 129.8703613
-104.9240112 -30.7718792 129.8606720
-103.3610458 -30.1347027 129.8280487
-101.7711639 -29.2396812 129.7724915
-100.2622986 -28.0658531 129.6901855
132.8563538 13.3923712 129.7522125
134.4326630 11.9721327 129.9086914
136.0395966 10.9150105 130.0314178
142.7816010 9.3165979 130.2893829
144.5627289 9.5481958 130.2979584
146.3748932 10.0226393 130.2840881
148.1792908 10.7597589 130.2470093
-113.2758865 -30.6173496 128.0577850
-111.5306396 -31.1076794 128.1321869
-103.3614960 -30.1423836 128.1789856
-101.7666245 -29.2342415 128.1206360
-100.2652206 -28.0439415 128.0348358
136.0368652 10.8111506 128.3685913
137.6898956 10.0318060 128.4692993
141.0632629 9.2227173 128.6013031
142.7751312 9.1903973 128.6338348
144.5617218 9.4256887 128.6406250
146.3645020 9.8797331 128.6289825
148.1710968 10.6147203 128.5906830
-113.3180847 -30.3498363 126.3785095
-111.5688095 -30.8645744 126.4572678
-106.5562057 -30.9637489 126.5541534
-101.8015060 -28.9706039 126.4441528
137.7148590 10.1672564 126.7868805
139.3950043 9.6356611 126.8648911
141.0836334 9.3459568 126.9220428
142.7992096 9.3254070 126.9522171
144.5862732 9.5340281 126.9617615
146.3882599 9.9865685 126.9510345
-111.6358414 -30.3836079 124.7617416
-108.2830276 -30.6879673 124.8470612
-106.6063690 -30.5218029 124.8596573
-105.0030746 -30.1093521 124.8483276
-103.4496994 -29.4337482 124.8095474
137.7720642 10.5484085 125.0778961
139.4472656 9.9944620 125.1607513
141.1377258 9.6854296 125.2192535
144.6342926 9.8826876 125.2632980
-108.3801498 -29.9800129 123.1260986
-106.6985168 -29.8112297 123.1393967
-103.5587921 -28.6525173 123.0754929
136.1973572 12.1058769 123.2289734
139.5295410 10.5979586 123.4346161
141.2165070 10.2922392 123.4902344
146.5375824 11.0392628 123.5122299
-108.5350952 -28.8902493 121.3597336
-106.8394852 -28.7144585 121.3725204
-108.7890930 -26.4368477 87.9499359
89.3499069 5.9481907 87.8678513
91.0653076 5.7155418 87.9384003
92.7888489 5.8114185 87.9667969
-110.2572021 -27.9141006 86.4685364
-56.0711899 -19.6477623 86.5257874
-54.4146614 -19.1892872 86.4937286
-7.8328938 -11.7507915 86.4978333
39.4410400 -3.4951324 86.3996048
41.1425552 -3.7110944 86.4724350
44.5562363 -3.3790424 86.5008316
87.5627747 4.9144616 86.3009644
89.2428589 4.4064326 86.4099197
139.9803009 12.3741455 86.4331665
-111.8278885 -28.7952480 84.9045181
-106.7564392 -29.1141624 85.0676880
-101.9786072 -27.2246056 84.9027634
-61.0162010 -20.6896801 84.9027786
-59.3125381 -20.9673443 84.9831009
-9.4873180 -12.9075832 84.9671936
-7.7989326 -12.9300680 85.0078430
37.7249680 -4.1752610 84.7931366
39.4284363 -4.6834984 84.9051361
41.1275826 -4.9081926 84.9763794
42.8233147 -4.8863192 85.0104370
44.5326233 -4.5731473 85.0072861
85.8140030 4.5519180 84.6402359
87.4973984 3.7273495 84.7948074
89.1759796 3.2476020 84.9045410
92.5942612 3.0514724 85.0127792
94.3497162 3.3392851 85.0120697
136.4556122 12.0068188 84.7301254
138.1387482 11.4348812 84.8500977
-113.4254990 -29.1793270 83.2674484
-103.4332657 -29.0647907 83.4834290
-101.8592911 -28.1998291 83.3927841
-100.3433228 -27.0248127 83.2587738
-62.6471329 -21.1158066 83.2696991
-60.9345856 -21.6371365 83.3850937
-59.2309990 -21.9050407 83.4642029
-55.8988037 -21.7234859 83.5183182
-12.8455029 -13.0084372 83.2399063
-11.1549835 -13.5420055 83.3591003
-9.4547977 -13.8013725 83.4352570
-7.7706108 -13.8406801 83.4797516
-6.0904055 -13.6634331 83.4947128
-2.7349024 -12.4918613 83.4003677
37.7199059 -5.0755796 83.2564087
39.4146385 -5.5569620 83.3666534
41.1049042 -5.7931452 83.4369812
44.5134506 -5.4972124 83.4745255
90.8334656 2.1672761 83.4344025
92.5404282 2.1648111 83.4719620
96.0404358 2.9721909 83.4355240
141.4604797 10.0834856 83.4533615
143.2039185 10.2379465 83.4664612
-113.3313828 -29.8897991 81.7219009
-111.5974197 -30.4448490 81.8424606
-109.8721924 -30.7172127 81.9242477
-108.2125092 -30.7936459 81.9760437
-106.5546188 -30.6621475 81.9944763
-103.3577652 -29.7309875 81.9315796
-101.7674561 -28.8827152 81.8446426
-100.2487030 -27.7906513 81.7181091
-64.3492966 -21.0055122 81.5565109
-62.5942764 -21.8091221 81.7156754
-57.4888306 -22.5982170 81.9509735
-54.2100410 -21.9647522 81.9363022
-52.5723114 -21.3060970 81.8754883
-50.9577637 -20.3773041 81.7784653
-12.8225069 -13.6801157 81.6807785
-11.1352310 -14.2031355 81.7971268
-9.4290314 -14.4616480 81.8753967
-7.7497730 -14.5156507 81.9219513
-6.0724192 -14.3257198 81.9339294
34.3224869 -3.9411728 81.3445358
39.4061470 -6.2050905 81.7995834
41.1060944 -6.4183888 81.8705444
42.7994919 -6.4061561 81.9087601
44.5047188 -6.1589537 81.9106293
46.2198868 -5.6529007 81.8765030
47.9550056 -4.8886809 81.8052292
90.7934723 1.5349480 81.8568420
92.4987793 1.5297922 81.8969727
133.0482941 12.3709364 81.2467499
137.9621429 9.7772579 81.7450562
143.1194000 9.5170326 81.9035568
146.7557068 10.6084356 81.8279037
-113.2598572 -30.3485107 80.1395416
-111.5389481 -30.8849468 80.2611160
-109.8227005 -31.1631641 80.3431778
-108.1590805 -31.2332764 80.3927307
-104.8885422 -30.7508850 80.3978958
-103.3026428 -30.1835194 80.3502731
-101.7211761 -29.3498726 80.2627258
-100.1974945 -28.2391052 80.1327591
-98.6900024 -26.7499199 79.9460068
-64.3144913 -21.4582767 79.9669800
-62.5561333 -22.2541103 80.1275330
-60.8446884 -22.7428780 80.2406311
-59.1458244 -22.9898129 80.3182678
-57.4502373 -23.0364666 80.3651505
-55.8191414 -22.8692684 80.3784790
-54.1681175 -22.4155979 80.3500290
-52.5398788 -21.7620411 80.2906494
-12.8081465 -14.1147423 80.0856323
-9.4145565 -14.8985853 80.2832260
-7.7387419 -14.9603062 80.3319016
-6.0586672 -14.7566624 80.3413162
-2.7080429 -13.7157869 80.2644196
-1.0219730 -12.7724161 80.1634979
0.6248010 -11.4436321 80.0033493
34.3187866 -4.3879213 79.7445984
41.0943298 -6.8460808 80.2716599
46.2024117 -6.1074562 80.2818985
47.9466209 -5.3463907 80.2099075
49.6714630 -4.2775984 80.0911102
85.7183762 2.6268704 79.9104538
95.9651718 1.8612765 80.2668457
99.5720062 3.7891712 80.0635910
