86.8069763 4.5029750 325.8059082
87.3996277 4.2886744 325.7652893
102.3358231 10.4011164 325.4920044
102.6009369 10.9661694 325.5380249
136.7784729 14.2127256 323.5941162
151.0981445 19.2170544 323.2781372
-112.0771866 -30.2510548 334.6332397
-111.4321671 -30.3858070 334.5606384
-96.2179489 -19.1318054 334.9299011
-61.3559570 -22.3849106 332.1496277
-45.5888062 -10.4943924 332.5507507
-45.5340004 -9.4265146 332.6817932
53.0792732 2.3093381 327.4408569
53.3143196 2.8684976 327.4907227
87.2746506 4.5566349 325.3923950
102.2357559 10.6856527 325.1428833
150.9639282 19.7025967 322.9483032
-111.9851151 -30.3604889 334.1691895
-111.3578033 -30.4878960 334.1020813
-96.1413651 -19.2858219 334.4569092
36.8011932 -4.6121130 327.2655640
37.3747787 -4.7833405 327.2173157
87.1721039 4.8240619 325.0224609
102.1248245 11.0267859 324.7915344
137.5124359 14.6637888 322.8156128
147.0757904 15.5168600 322.3303528
147.4282684 15.7679796 322.3372498
149.1147766 17.3488541 322.3945007
149.4334106 17.7516632 322.4117432
149.7414703 18.2205296 322.4419250
150.0163422 18.6565208 322.4928589
150.2974243 19.1756153 322.5352478
150.5662537 19.6959743 322.5754700
-111.2928619 -30.5744629 333.6510925
-96.0871048 -19.3999977 333.9981689
37.2832222 -4.5884981 326.8350525
146.9514160 15.9433546 321.9808960
-111.2776108 -30.6196156 333.2085266
-61.9860382 -22.2213078 330.9304199
-61.4027061 -22.3346577 330.8757019
-45.6134644 -10.3923559 331.2747498
-45.5476189 -9.4194336 331.3963013
-13.3712626 -13.4062119 328.7355042
-12.7327118 -13.6202860 328.6725769
-12.1446342 -13.7915316 328.6157532
37.1725922 -4.3767734 326.4493408
52.8037529 2.9793057 326.3147278
53.0271835 3.5502710 326.3635254
86.8676834 5.5383143 324.3044128
101.3527527 10.7678528 324.0162659
101.6054993 11.2474241 324.0510559
138.1858368 15.2557449 322.0811462
138.6589050 15.1300564 322.0531616
139.2001190 14.9643822 322.0310059
146.8302765 16.3821144 321.6403198
148.1926575 17.5582008 321.7144775
-112.5409851 -30.3657494 332.8923035
-111.8530884 -30.5213966 332.8202515
-111.2434998 -30.6494217 332.7631531
-61.4302902 -22.2882442 330.4554749
-12.1988277 -13.6746635 328.2167053
52.7061920 3.2547340 325.9399109
101.2172928 11.1606846 323.6670532
138.0231934 15.7946615 321.7767639
138.5091095 15.6428652 321.7800293
139.0297089 15.4979649 321.7264709
146.6863556 16.8458061 321.3098145
147.0281525 17.0954685 321.3394775
147.3777161 17.3930645 321.3730164
147.7219086 17.7170181 321.3913879
148.0503845 18.0769749 321.3885498
148.3687744 18.4126873 321.3964233
-112.5196915 -30.3871803 332.4476929
-61.4637451 -22.2197895 330.0386353
-45.6461182 -10.2768440 330.4320984
-12.2752142 -13.5294466 327.8189697
3.5980301 -4.2231460 327.8907471
52.5930672 3.5666344 325.5668030
87.0961075 6.1349435 323.5528259
87.6844025 5.9033251 323.5249329
138.7743225 16.3338928 321.3554993
147.2146149 17.9480286 321.0297241
147.5598297 18.2752056 321.0482483
147.8897858 18.6237755 321.0532837
-112.5269318 -30.3966255 332.0097961
-61.5429344 -22.1159458 329.6243896
-45.7179909 -10.1332712 330.0251465
-12.9261227 -13.2180719 327.4762573
-12.3326902 -13.3724928 327.4257813
3.5047209 -4.0364065 327.5051880
3.6793587 -3.3121779 327.5737000
36.8373566 -3.5726831 325.3301697
87.5248413 6.3141084 323.1822815
100.8909073 12.1115084 323.0043030
147.0474396 18.4688339 320.7212524
-112.5119476 -30.4000912 331.5686340
-61.5571938 -22.0056000 329.2130127
-45.7838135 -9.9455652 329.6201782
-13.0383415 -13.0369549 327.0758972
-12.4546680 -13.1872988 327.0287476
36.6743927 -3.2602689 324.9550171
51.8456535 3.0652106 324.7323608
87.2881775 6.8216653 322.8122559
97.7962036 8.3797874 322.3397827
98.1466370 8.6643047 322.3667908
98.4628830 8.9841251 322.3999023
98.7839737 9.3686724 322.4096985
99.0908890 9.7011280 322.4346924
99.3882217 10.0910187 322.4651794
99.6842880 10.5419588 322.5084229
99.9644699 11.0367317 322.5513611
100.2178650 11.5529203 322.5963745
100.4591980 12.1005917 322.6337891
139.4038544 16.9828644 320.6131592
146.1910858 18.4789181 320.3847046
146.5361786 18.8016376 320.3728943
-112.4856186 -30.3873787 331.1307983
-62.2065849 -21.7622719 328.8529053
-61.6108437 -21.8839588 328.8056335
-45.8522720 -9.7855873 329.2135620
-12.5176401 -13.0027800 326.6423950
51.7075195 3.4016120 324.3880920
97.6561279 8.7612228 322.0382385
100.0403061 12.1292124 322.2610779
100.2746735 12.7661428 322.2831726
-112.5416031 -30.3295803 330.7029114
-95.8682556 -17.6835709 331.1239624
-62.3028450 -21.6298313 328.4426880
-61.7175026 -21.7504807 328.3946533
-12.6651602 -12.7686729 326.2481995
-5.5197287 -12.8239880 325.7852173
-5.1580777 -12.6616020 325.7673035
3.1570840 -3.2906842 326.3570862
37.4744720 -2.9703090 324.1199646
51.5631256 3.8077586 324.0259705
88.4833908 7.2590957 322.0004272
88.9979706 7.1122293 321.9854431
89.4935837 6.9964018 321.9491272
89.9757385 6.9144483 321.9077454
99.8500900 12.8022833 321.9144592
140.2403564 18.2415009 319.8894958
140.7018890 18.1679134 319.8731995
141.1551361 18.1386700 319.8448792
141.5892334 18.1570587 319.8030701
142.0368958 18.1446323 319.7883911
144.7432861 19.1850605 319.7387085
145.0824738 19.4301643 319.7421875
-112.5990067 -30.2564888 330.2759705
-95.9181671 -17.6020012 330.6954956
-12.7600851 -12.5383463 325.8606262
-5.6095948 -12.6503506 325.4076843
-5.2279458 -12.5194349 325.3933411
3.0316699 -2.9612892 325.9745178
89.8014374 7.4384494 321.5872803
-112.6429596 -30.1814613 329.8504028
-95.9817505 -17.5052376 330.2709045
-61.8696709 -21.4321365 327.5854187
-46.3456841 -10.8852596 327.8229370
-46.2338753 -10.1419725 327.9073792
38.2436790 -2.4871061 323.4035950
38.7872009 -2.5847337 323.3347473
39.2779160 -2.7067268 323.2721558
50.7278214 3.5000956 323.2345276
89.6017075 8.0044270 321.2720642
-112.6855316 -30.1055546 329.4237671
-61.9832344 -21.2379017 327.1846619
-46.4704475 -10.7242393 327.4257507
38.4997635 -2.0063601 322.9212646
39.0720711 -2.2918253 322.9202881
-62.1497231 -21.0240860 326.7782288
-46.5937386 -10.4221296 327.0366516
-12.1177711 -11.9427671 324.6392517
2.2305844 -3.3049400 324.7268372
38.8979034 -1.8761040 322.6026611
49.8560791 3.4627376 322.4756165
50.0971336 4.0011706 322.4936218
89.4856186 9.2984982 320.5337830
89.9571762 9.1969452 320.5326538
95.9620514 10.9496861 320.3785400
-12.8500929 -11.4647045 324.2912903
-12.2979527 -11.6099710 324.2557068
2.0478120 -2.9401340 324.3646240
38.6127052 -1.1421740 322.1826477
49.6475754 4.0420218 322.1169739
-112.2731476 -29.8714199 328.1034546
-111.6427155 -29.9600410 328.0642090
-96.4247284 -18.8362579 328.3996887
-96.3247452 -17.8982601 328.4836731
-61.7970390 -20.6958103 325.9429321
-61.2067795 -20.7922077 325.9128113
-47.1751289 -11.3597698 326.1188660
-47.0281487 -10.6371727 326.1859131
-12.4825630 -11.2705708 323.8750610
1.5202035 -3.8618615 323.8920593
1.6986997 -3.1792088 323.9427490
39.4630470 -1.1604624 321.7767334
47.7813416 1.8730490 321.6000366
48.0987434 2.2565434 321.6125793
48.3980484 2.6354408 321.6463318
48.6752472 3.0926886 321.6730042
48.9371147 3.5853217 321.7055664
49.1871414 4.0780401 321.7416992
90.7254181 10.6873226 319.8085632
91.2312698 10.6345148 319.8054810
91.6945724 10.6459665 319.7971497
92.0971298 10.7225122 319.7926636
94.0548935 11.5182133 319.7528076
94.4053421 11.7274122 319.7488708
94.7303848 11.9911013 319.7313538
-111.7277679 -29.8043842 327.6555176
-96.5272751 -18.6145954 327.9879761
-61.3859138 -20.5120811 325.5151672
-47.3378754 -11.0299931 325.7353516
1.3231165 -3.3904507 323.5142212
39.1669579 -0.6071394 321.3843994
91.7241364 11.7235975 319.4608765
-111.8413925 -29.6057625 327.2475586
-96.6458740 -18.3273106 327.5831909
-62.1072960 -20.1288452 325.1631165
-61.5365601 -20.2306366 325.1315918
-47.5138435 -10.6789722 325.3508606
-11.8001471 -10.7713995 323.0515747
0.7243664 -4.0941100 323.0446777
39.9110527 -0.1341562 321.0253601
46.7288742 2.2293468 320.9053040
47.0380135 2.6101482 320.8966675
-112.6907883 -29.2215881 326.8815002
-112.0131378 -29.3949280 326.8292236
-61.6783028 -19.9395981 324.7633667
0.5192050 -3.6618497 322.6890564
39.1107407 0.6074257 320.7029114
39.5858383 0.5158226 320.6631165
46.4784584 2.9015217 320.5327454
-97.1579132 -19.3068829 326.6311646
-97.0404816 -18.5628433 326.6970520
-48.2134018 -11.2786236 324.4736328
-11.1444979 -10.1374702 322.2375183
-10.5577383 -10.2266264 322.2292480
-9.9906740 -10.3031130 322.2064819
-0.1386021 -4.2744513 322.2623596
40.3408470 1.0527942 320.2604370
40.8294907 1.0368006 320.2494202
41.2918625 1.0515641 320.2464600
45.5039902 2.8978736 320.2008972
-112.2899628 -28.9582901 326.0086365
-97.3160553 -19.0409813 326.2357788
-48.4290390 -10.8490047 324.1141357
-48.2866669 -10.1328259 324.1538391
-10.8078928 -9.7258492 321.8821411
-10.2667913 -9.8038044 321.8424377
-0.4169992 -3.7310572 321.9228516
-0.2065062 -3.0362403 321.9307861
40.9541626 1.7970499 319.9050903
45.2039566 3.6224387 319.8789673
-97.4932938 -18.6949081 325.8388367
-61.2320824 -19.0504532 323.5161133
-48.6791992 -10.3921757 323.7489319
-11.7132931 -9.0179262 321.5509644
-1.1750932 -4.1649246 321.4953308
-0.9195479 -3.6427600 321.5429993
-0.6976042 -3.0193288 321.5619507
41.0324135 2.7755752 319.5859375
41.4353065 2.8492930 319.5689697
41.8838997 2.9118998 319.5613708
42.2897758 3.0313926 319.5416260
42.6987343 3.1092100 319.5465393
43.0958252 3.2592840 319.5357971
43.4702950 3.4061530 319.5382080
43.8188515 3.6100338 319.5360107
44.1556969 3.8999584 319.5226440
-97.6855850 -18.3412132 325.4487610
-48.9494171 -9.8345699 323.3598938
-11.9624243 -8.4570246 321.2045898
-1.4687052 -3.5792005 321.1747131
-111.5994339 -28.3510056 324.7306213
-98.1373978 -19.4156990 324.9363708
-98.0076828 -18.6958904 324.9940491
-60.6050529 -18.4041958 322.7041321
-49.5219154 -10.7134247 322.9108582
-11.1666317 -8.0853662 320.7720947
-10.4974327 -8.2773914 320.7684631
-10.0113249 -8.3272781 320.7298279
-6.1286798 -7.7413116 320.5702820
-5.7482090 -7.4886918 320.5471191
-5.3575177 -7.2759967 320.5623169
-4.9871039 -7.0463934 320.5879517
-4.6373849 -6.8063903 320.6074829
-4.3068342 -6.5289950 320.6116333
-3.9606664 -6.1927104 320.6248779
-3.6404939 -5.8848352 320.6428528
-3.3279519 -5.5710783 320.6591797
-3.0448687 -5.2187734 320.6770630
-2.2874341 -3.8840911 320.7642212
-2.0410860 -3.3727577 320.7955627
-1.8022999 -2.8016901 320.8144531
-98.3474960 -19.0475731 324.5448608
-60.9061356 -17.9248962 322.3160095
-49.8479195 -10.0989914 322.5622559
-10.3828087 -7.6677747 320.3480835
-6.4111619 -7.1576862 320.2405090
-3.3617718 -4.5945301 320.3601074
-2.6454644 -3.1269579 320.4247131
-110.9355850 -27.7928391 323.8888550
-110.3659058 -27.8505363 323.8614502
-109.8203430 -27.9005833 323.8333740
-60.6662064 -17.4788685 321.9158020
-60.1356964 -17.5321102 321.9083862
-50.4816856 -10.8798409 322.1029968
-50.3341599 -10.2161617 322.1559143
-50.2343597 -9.3692598 322.1922607
-9.2763824 -6.9319520 320.0704346
-3.7417994 -3.7529728 319.9915466
-3.5004337 -3.3038943 320.0173340
-3.2659099 -2.8209281 320.0466003
-3.0168324 -2.3478253 320.0900269
-110.0492935 -27.5315666 323.4533081
-98.8565826 -18.1816387 323.7820435
-60.4379692 -17.0114994 321.5270386
-110.2589188 -27.1319637 323.0521240
-99.4005280 -19.0820198 323.2953796
-99.2728271 -18.4140491 323.3548279
-59.6569786 -16.5043430 321.1523438
-52.9468002 -13.3789444 321.1165466
-52.6555252 -12.9824638 321.1537476
-52.4119987 -12.5016012 321.1504822
-52.1572113 -12.0796509 321.1846924
-51.9222755 -11.6592827 321.2332153
-51.7187157 -11.1628160 321.2643127
-51.5477600 -10.6141386 321.2975769
-51.4063263 -9.9851074 321.3307495
-99.7072372 -18.5183678 322.9128418
-60.0363388 -15.8526115 320.7652588
-53.3033524 -12.7397299 320.7831726
-52.9738846 -12.3326664 320.8283997
-52.7135735 -11.8663263 320.8251038
-52.5222015 -11.3231735 320.8198547
-52.3074760 -10.8614368 320.8573303
-109.8337936 -26.3297138 322.2224731
-59.3920212 -15.1547012 320.3800659
-58.8798065 -15.1531944 320.3693237
-58.3900795 -15.1354275 320.3811646
-57.9291496 -15.0678072 320.3894653
-57.5197906 -14.9329109 320.3624878
-57.1382141 -14.7535448 320.3225098
-56.7374725 -14.6076269 320.3162537
-54.2980614 -12.6872721 320.3692627
-54.0258904 -12.4014397 320.3992004
-110.1317444 -25.8552284 321.8290100
-58.8411789 -14.3303795 320.0163269
-58.3332710 -14.3266764 320.0731201
-109.9189758 -25.3412952 321.4370117
-109.4010239 -25.3290825 321.4411926
-108.8437958 -25.3205662 321.4472046
-108.3314056 -25.2681160 321.4236450
-101.3030319 -19.2160416 321.6601868
-101.1559525 -18.6966228 321.7289124
-57.2112541 -12.8513060 319.6521301
-56.8299942 -12.7024364 319.6494141
-56.4770279 -12.4851828 319.6416931
-109.7790985 -24.7313938 321.0785217
-109.2612534 -24.6999874 321.0636597
-108.6846924 -24.6924057 321.0598755
-101.7193985 -18.4795189 321.3075256
-110.2067795 -24.0590324 320.7006531
-109.6564713 -24.0765743 320.6874084
-109.0818863 -24.0800648 320.6940613
-102.9107437 -19.8322353 320.7692871
-102.6859894 -19.3844013 320.7995605
-109.5506897 -23.3515167 320.2957458
-103.2654114 -19.2425938 320.4600525
-108.5094910 -22.4620037 319.9497375
-108.0575256 -22.3751564 319.9948425
-106.8665237 -21.8173389 319.9583130
-106.4903412 -21.6069393 319.9683838
-104.8631592 -20.1273060 319.9970093
-104.5854416 -19.6214314 319.9700012
-107.3494644 -20.8864994 319.5994568
-107.0461731 -20.7058506 319.5829773
144.8104248 16.6800690 292.4020081
145.1021729 16.8823624 292.4573975
145.4792786 17.0775909 292.4712830
145.8422241 17.2741337 292.4777527
142.4312897 15.6338367 292.0632324
142.8714600 15.5522594 291.9630432
144.5096893 15.8384180 291.9261475
144.9162598 15.9915533 291.9352112
147.3910828 17.6338596 292.0420837
141.7321472 15.0894690 291.6635742
142.1803436 15.0106544 291.5951233
142.6402588 14.9841347 291.5530396
143.0693817 14.9737129 291.5140381
143.4688873 15.0054846 291.4949341
143.8616028 15.0888538 291.4925842
144.2894135 15.1521673 291.4773865
144.7164764 15.2040262 291.4536743
145.0944824 15.3593588 291.4759521
147.6009674 16.9013252 291.5114136
147.9483185 17.2410126 291.5679626
141.0213776 14.6299524 291.2521362
148.4474335 16.9030819 291.0787048
141.2175751 14.0521326 290.7628784
148.5787964 16.3960953 290.6413269
148.9206543 16.7083397 290.6587830
139.9854584 14.1621857 290.4246216
140.4653778 13.8701744 290.3937988
150.0131683 17.5056992 290.2993469
150.3329620 18.0543518 290.3644104
139.5514679 14.0872774 290.1091614
140.1157227 13.6318560 290.0277100
140.6322174 13.3052511 289.9265442
150.1420288 17.0227509 289.8354797
150.4465027 17.4227867 289.8495178
150.9219818 17.4899235 289.4980164
139.4149933 12.9340496 289.1588135
139.9104767 12.7564850 289.1334534
151.0075073 16.9913960 289.0063782
151.3221741 17.4907570 289.0814209
151.6979675 17.5329304 288.6656799
139.1609344 12.3260679 288.3686829
151.7764587 17.1524734 288.2106934
152.0635376 17.6570320 288.2691956
152.9159241 19.2211323 287.9831848
153.0166779 18.8080635 287.5343628
138.4841309 11.7780371 287.1795959
138.0811310 11.7270918 286.7985535
138.5684814 11.5308256 286.7530518
137.6537933 11.7173271 286.4266663
153.2701263 17.7936058 286.2358093
137.7070618 11.5177059 286.0165710
153.3492279 17.5533104 285.8244629
153.6416779 18.1912842 285.8854980
153.9592590 18.6006470 285.5189819
154.0167084 18.4314041 285.1122131
-102.9117813 -21.0575294 292.6561890
136.8461304 11.4630384 284.8840027
154.0773315 18.2659397 284.7035217
-102.4345398 -21.8836250 292.0717468
-102.1842422 -21.4561424 292.1441345
136.9264526 11.2843351 284.4619141
154.1161804 18.0649986 284.2835083
-106.7959061 -25.6677246 291.5371704
-101.0788498 -20.6734161 291.7275696
136.9673462 11.1456537 284.0545044
154.1660614 17.9421558 283.8830566
-106.9492035 -26.2585030 291.0493164
-106.4637222 -26.1916313 291.0122375
-100.7215805 -21.3940792 291.1542358
-100.5118103 -20.8206177 291.2071838
-100.3530045 -20.1586723 291.2969055
136.4775085 11.2828131 283.7001953
137.0228119 11.0259962 283.6460571
154.1861725 17.8058834 283.4769592
-108.3587418 -27.3289814 290.1474609
-107.8086166 -27.3538170 290.0944519
-99.3211823 -20.2191429 290.3678284
-108.5848541 -27.7428532 289.6547852
-98.7273026 -19.5749550 289.9552002
-108.8864822 -28.0765324 289.2162170
-108.3663940 -28.1354923 289.1702576
-98.4562531 -20.0777225 289.4168396
-98.3454132 -19.2860355 289.5235901
136.0482025 11.2720995 282.1474304
-109.1668396 -28.3842773 288.7496948
-97.9557190 -19.0611916 289.0771484
136.0609283 11.2421694 281.7499695
-108.9557953 -28.7378044 288.2663879
-97.6911926 -19.5220490 288.5769348
136.0856323 11.2172947 281.3534241
-109.3408051 -28.9530773 287.8562927
-108.7762375 -29.0704422 287.7991638
136.0621948 11.2313490 280.9630737
-108.6493378 -29.3468952 287.3641968
-97.2293015 -20.3808670 287.5859985
-97.1166000 -19.7257938 287.6328735
-97.0395126 -18.8619385 287.7296448
136.0612030 11.2500887 280.5718079
-109.5365601 -29.5089664 286.9356079
-96.8189926 -19.3395309 287.2086792
136.0671844 11.2798529 280.1820374
-109.9439087 -29.6767616 286.4992371
-109.4006500 -29.7388744 286.4729614
-96.6451035 -19.6530685 286.7322083
-96.5371857 -18.8026218 286.8409729
136.0458984 11.3406200 279.7963867
-96.4890137 -19.8874474 286.2841187
-96.3722458 -19.1616859 286.3553772
154.1941071 17.7208233 279.1690674
154.4793243 18.3540878 279.2025757
-110.3188934 -29.9866142 285.6444092
-96.3327866 -20.1440506 285.8228149
154.1727448 17.8263397 278.7851563
-110.1709442 -30.1692657 285.1675110
154.1454010 17.9450016 278.4028015
-110.0688171 -30.3127785 284.7167664
154.0968781 18.0682011 278.0254517
-95.7661133 -19.3255653 284.5551147
-95.6906357 -18.4373398 284.6323547
135.8459320 11.8536263 277.8721313
154.0654144 18.2765083 277.6434021
-95.7019043 -19.4970112 284.0904236
-95.6399689 -18.6216698 284.1617126
-95.6172638 -17.6064854 284.2528076
135.7934418 11.9983578 277.4875793
153.9988556 18.4232063 277.2711182
-95.6352768 -19.6090107 283.6419067
-95.5712433 -18.7379189 283.7120361
-95.5050888 -17.8352127 283.7892151
136.7723999 11.6593580 277.0419617
-110.9288635 -30.5609798 282.9895935
-95.5667114 -19.7169476 283.1970215
-95.4882355 -18.9297123 283.2502136
-95.4064407 -17.9881382 283.3352966
136.2263794 12.0733500 276.7044678
136.7259064 11.8423748 276.6656494
-110.9165649 -30.6205311 282.5513000
136.1439667 12.2820091 276.3192749
136.6629333 12.0375175 276.2917175
153.8152924 19.1338978 276.1425781
-110.8349380 -30.6824760 282.1013794
136.5579071 12.2736769 275.8991699
-110.8257294 -30.7174854 281.6621704
136.5206146 12.4749794 275.5315857
153.0758972 18.3680515 275.3607483
153.3666992 19.0374489 275.3800049
-110.8430634 -30.7277565 281.2247620
152.9933014 18.6779881 274.9896851
-110.8434372 -30.7200432 280.7871399
136.8614044 12.7525826 274.7485962
137.4060822 12.5214329 274.7289429
152.9166260 19.0636177 274.6057739
-110.8273926 -30.6957741 280.3504028
137.3145905 12.7850561 274.3574219
-110.8529663 -30.6460533 279.9182129
137.1764221 13.0968428 273.9664612
151.6254883 17.3992653 273.8001709
151.8949127 17.9026184 273.8134766
152.1711121 18.4951782 273.8314514
152.4351044 19.0781746 273.8585815
-110.8962479 -30.5756111 279.4875793
151.5434723 17.8658333 273.4046631
-110.9347076 -30.4906101 279.0592651
-95.3968430 -17.9417000 279.3749084
137.9464722 13.4402609 273.1940613
151.4197235 18.2420692 273.0535583
-110.9968567 -30.3883781 278.6306152
-95.4891281 -17.7525406 278.9525757
137.3360596 14.0175142 272.8417969
137.8446350 13.8168058 272.8311768
-111.7164078 -30.1547565 278.2273560
-111.0543289 -30.2925663 278.2009583
-95.5838394 -17.6939297 278.5276489
137.7086639 14.2214355 272.4581604
149.3985748 16.4540539 272.2391663
149.7611694 16.8168983 272.2803650
150.0916443 17.2856560 272.2869568
150.3833618 17.7270126 272.2686768
150.6421356 18.1812038 272.2739868
150.9135895 18.6493244 272.2955627
-95.6833725 -17.4765968 278.0979004
150.5613556 18.6367416 271.9149170
138.4135284 14.7021122 271.7634277
139.8361664 14.2753897 271.6277161
140.3030701 14.1624975 271.5991211
148.5130157 16.6657581 271.4957886
148.8651123 16.9826202 271.5049438
140.1411133 14.6673679 271.2294006
148.3547821 17.1669827 271.1239014
-110.3066025 -29.8424816 276.4573669
-96.1375198 -18.6760159 276.7367554
147.5068054 17.0448589 270.7685242
147.8502350 17.3499393 270.7751160
148.1932220 17.7413216 270.7402039
-110.9972458 -29.5752811 276.0518494
-110.3922958 -29.6545315 276.0439148
-96.2727432 -18.3599434 276.3081360
147.3312225 17.5978394 270.4139709
-111.1314468 -29.3703022 275.6270142
-110.5246735 -29.4495583 275.6247253
-104.2832031 -28.8230896 275.4617920
-103.8851318 -28.6428185 275.4501648
140.0564270 16.2614784 270.1316528
140.5131531 16.1538715 270.1383667
146.4690094 17.6230545 270.0493469
146.8030090 17.9268990 270.0343933
-110.7021179 -29.2024994 275.1879578
-104.4129333 -28.6005058 275.0102234
-104.0414963 -28.4295101 275.0072937
-110.8899307 -28.9405289 274.7669373
-97.0011139 -18.9432907 274.9958496
-96.9041443 -18.2071609 275.0217285
141.3855133 17.4351120 269.3733521
141.8222046 17.4450035 269.3842773
142.2777863 17.4495735 269.4150391
142.6964417 17.5015583 269.4171143
145.3408966 18.6234455 269.3655701
145.7010345 18.8269901 269.3800964
-97.2091904 -18.5259304 274.5688477
141.9667053 18.3789444 269.0213013
142.4420776 18.3488846 269.0322571
145.0814362 19.4379921 269.0223389
-111.2448807 -28.2944660 273.9522095
-110.6558456 -28.3767242 273.9534607
-110.0817719 -28.4611301 273.9391785
-109.5392609 -28.5353527 273.9140320
-109.0061874 -28.5779915 273.8923035
-109.2060471 -28.2488899 273.4953003
-109.4074860 -27.8915329 273.0901489
-98.1224594 -18.7672348 273.2728882
-110.1741257 -27.4419346 272.6884460
-109.6497421 -27.5160542 272.6687927
-109.9644394 -27.0908031 272.2253418
-109.4280701 -27.1323433 272.2372437
-108.9050293 -27.1672802 272.2361755
-98.9380798 -19.2553635 272.4200439
-109.7471390 -26.6370850 271.8345642
-109.1814346 -26.7122917 271.8436584
-110.6594543 -25.9825897 271.4317932
-110.0864487 -26.1114902 271.4195862
-109.5595779 -26.1660252 271.4108887
-99.8817062 -19.3156223 271.5643005
-99.7567215 -18.6826363 271.5767822
-109.9464035 -25.5808868 270.9841919
-100.2719879 -18.5951443 271.1227112
-109.7558441 -25.0150032 270.6188660
-109.1827469 -25.0686817 270.6225891
-102.3285599 -21.9719257 270.6046448
-102.0538635 -21.5551968 270.6080017
-101.7634506 -21.1571960 270.6298828
-101.4731369 -20.7106113 270.6582336
-101.2577820 -20.2525311 270.6599121
-101.0767212 -19.7090473 270.6453247
-110.2562561 -24.2823582 270.1953430
-109.5429382 -24.4330006 270.2158203
-102.6844940 -21.3355961 270.2022400
-102.4267273 -20.9827785 270.2085266
-109.5085449 -23.7288666 269.7645264
-108.8858948 -23.7991467 269.7705078
-108.3277817 -23.7991123 269.7683105
-107.8565979 -23.7465248 269.7833252
-107.3781433 -23.6700554 269.7849731
-106.9441528 -23.5555687 269.7548523
-106.5493546 -23.4117661 269.7217102
-106.1316376 -23.2688713 269.7287903
-105.7233963 -23.1068439 269.7609253
-105.3253708 -22.9341488 269.7946472
-104.9783630 -22.7131462 269.7983093
-104.6885910 -22.4058914 269.7697754
-103.0852966 -20.6627655 269.8202820
-108.3504333 -22.9743805 269.4271240
-106.1854248 -22.3321533 269.4239197
-105.8522644 -22.1385384 269.4199524
-105.4682388 -21.9404449 269.4202576
-105.0868988 -21.7172127 269.4330139
-103.5888367 -19.7870026 269.3831787
-105.9932251 -21.0800381 269.0087280
-105.6176682 -20.8528156 269.0044861
-105.3046875 -20.5605450 268.9956665
-105.0278244 -20.1475620 268.9652100
142.0075073 17.2766857 241.9609375
141.8554230 16.3779221 241.4756927
142.2999268 16.3414268 241.4434509
145.5393982 17.0343475 241.4709167
145.8825378 17.3035545 241.4830933
146.1949005 17.5759449 241.4965363
146.5210419 17.8872757 241.5151825
146.8725891 18.2000656 241.5106812
147.2017059 18.5840302 241.5267487
147.5050659 18.9891167 241.5416565
141.6520386 15.6526518 241.0619659
143.7383881 15.6678858 241.0789795
145.0729523 15.9503517 241.0143585
147.4444122 17.7490749 241.0312042
147.7641754 18.1037521 241.0651245
141.4529114 14.9739695 240.6330261
141.8986511 14.9384432 240.6042633
143.9095764 15.0563622 240.6334076
144.3659058 15.1454821 240.6280670
144.7415466 15.2771320 240.6172333
145.1329498 15.4156504 240.6002808
147.6372833 16.9552212 240.5723572
147.9681702 17.3871059 240.6526489
148.2953644 17.7298756 240.6791840
149.0648956 18.0461063 240.2984924
-105.7791901 -22.5198135 242.1945801
-105.4121780 -22.3210411 242.2037811
-105.0600510 -22.0681343 242.2172089
-104.7133179 -21.8103619 242.2100830
-104.4031525 -21.4794922 242.2177734
-104.1327667 -21.0443897 242.2584991
139.9319763 14.3873882 239.8979645
140.4303131 14.1439381 239.8357086
149.2462311 17.3704243 239.8238678
149.5554047 17.7901058 239.8446503
149.8758850 18.3624954 239.9028015
-105.6104355 -23.6575451 241.6312561
-103.3457108 -21.4848595 241.7593536
-103.0842056 -21.0107498 241.8032074
150.5808105 18.8891487 239.5180511
-106.8539963 -24.9535370 241.2545624
-106.4637909 -24.8261127 241.2551880
-106.0759201 -24.6672211 241.2451172
-105.6494675 -24.5138874 241.2084198
-105.2210770 -24.3108673 241.1935577
-102.9052048 -22.2368908 241.2514343
-102.6033478 -21.8918762 241.2526855
-102.3452225 -21.4808712 241.2998810
-102.1158752 -21.0115471 241.3494720
139.2766724 13.6487112 239.0617981
139.8017120 13.4408026 239.0212250
150.7440948 18.2421303 239.0678253
-107.4593430 -25.7038002 240.7949219
138.9392853 13.3567390 238.6612396
-108.0976639 -26.3344994 240.3401337
-107.5900040 -26.2969284 240.3134460
-107.1101456 -26.2361584 240.2966003
-100.7316742 -20.7941856 240.4227600
-100.5566406 -20.1481705 240.4710693
-100.4010925 -19.5564175 240.4953461
139.0582275 12.9486694 238.2667236
-108.8305359 -26.8429146 239.9049225
-100.8404007 -22.3583508 239.9170837
-100.6238861 -21.8854847 239.9404297
-100.3799591 -21.4321766 239.9151917
-100.1969681 -20.8378143 239.9584198
-100.0133133 -20.2462845 240.0043488
151.7185974 17.8221893 237.8896332
-108.5141068 -27.3307056 239.4048309
-100.5250549 -22.9067287 239.4410400
-100.2836838 -22.4685516 239.4467163
-100.0471878 -22.0086861 239.4436646
-99.8401871 -21.4628754 239.4685516
-99.6466370 -20.9152946 239.4943695
-99.4945068 -20.2916908 239.5535889
-99.3666306 -19.6405067 239.5924377
151.8056793 17.3970928 237.4528656
152.0719910 17.9039555 237.4790802
152.3437347 18.4861965 237.5156708
-99.0596619 -20.2498837 239.0821686
-98.9215927 -19.5854778 239.1504974
138.4515533 12.2371845 237.0583191
152.4507599 18.0754070 237.0868073
-109.0026550 -28.0544357 238.4883270
-98.7838287 -20.7704945 238.5945892
-98.6183243 -20.1172409 238.6562958
138.0650787 12.1400328 236.6694336
138.5276184 11.9640360 236.6614990
152.5354767 17.6950493 236.6759491
-108.7972946 -28.4375458 238.0440979
-98.2243195 -19.9240341 238.2221375
-98.1119461 -19.1717682 238.2736664
137.6296692 12.0895348 236.2949524
-109.1238632 -28.7712383 237.6055908
-108.6011658 -28.8070030 237.6038818
-98.0016403 -20.3684635 237.7395020
-97.8555984 -19.6695080 237.7902527
137.7100067 11.8315992 235.8907623
153.2731018 18.2288094 235.9123383
-97.4843521 -19.3988533 237.3573456
-110.4273987 -29.1763172 236.7637634
-97.3082123 -19.7532234 236.8841400
-97.2102051 -18.9017200 236.9470367
153.9106140 19.1238003 235.1585693
-110.8374481 -29.3566017 236.3435669
-110.2742310 -29.4445210 236.3265839
136.9033203 11.6321325 234.7215881
153.9767151 18.8199024 234.7425079
-110.0943146 -29.7100353 235.8657990
-96.7083511 -18.8408871 236.0635376
136.4488525 11.7037296 234.3391571
137.0010986 11.4295406 234.3073730
-96.5707169 -19.1730003 235.5884705
-96.4836578 -18.3325043 235.6349792
154.1018372 18.3912830 233.9443512
154.3575745 19.1701565 233.9753723
-96.4275055 -19.4378109 235.1372070
-96.3182907 -18.6143398 235.1866760
154.1382141 18.1837254 233.5343018
-110.8400116 -30.1394310 234.5585785
-96.2768784 -19.7153435 234.6817017
136.0818939 11.5092611 233.1557465
154.2017212 18.0313263 233.1469727
-110.7117081 -30.3047409 234.1104584
-96.1487732 -19.9231377 234.2446136
-96.0056763 -19.2228870 234.2617493
136.1163788 11.3903093 232.7624969
154.2643280 17.9174805 232.7576294
136.1772156 11.2630558 232.3603821
154.2796021 17.7389832 232.3535614
-95.7448196 -18.6960640 233.4271393
154.3212280 17.6633434 231.9677429
-95.8647766 -20.3769875 232.9246216
-95.6903992 -19.7594585 232.9109344
154.3338165 17.5524578 231.5684662
-95.7637558 -20.4952145 232.4945831
-95.5299377 -19.9357433 232.4686127
154.3571472 17.5015888 231.1762848
-111.6330948 -30.5901279 231.9357300
-95.6861496 -20.6186180 232.0574341
154.3764801 17.4875851 230.7869873
-111.5878372 -30.6419582 231.4936523
-95.6518631 -20.6554413 231.6114655
-95.4241257 -20.1240273 231.6321716
154.3797607 17.4745274 230.3960724
-111.5645599 -30.6813469 231.0549316
-95.6461105 -20.6994305 231.1645660
154.3839722 17.4877052 230.0049438
-111.5396423 -30.7093372 230.6173553
-95.6638718 -20.6893883 230.7284393
-95.5227432 -20.0021553 230.7436676
154.3652039 17.4722843 229.6147003
-111.5115280 -30.7233829 230.1804047
-95.4476852 -19.2061596 230.3242035
-95.4243698 -18.3334675 230.3450623
-95.4492722 -17.1957932 230.3703461
154.3686218 17.5213795 229.2252350
-111.5287476 -30.7087574 229.7441559
-95.4772110 -19.1781635 229.8882599
-95.4621124 -18.2984772 229.9098511
-95.4776764 -17.1644135 229.9339142
154.3438721 17.5450821 228.8347626
-111.5867310 -30.6639080 229.3048859
135.6072845 11.5079498 228.4411774
136.1521454 11.2263756 228.4348297
154.3251495 17.6374321 228.4463196
-111.6345901 -30.6082706 228.8679504
154.2876129 17.7430992 228.0584717
-111.6622238 -30.5506420 228.4307709
136.1189423 11.3866386 227.6553040
154.2519379 17.8790703 227.6709595
136.0709534 11.5173712 227.2636108
154.2078247 18.0120201 227.2858276
136.0217438 11.6591759 226.8720551
154.1662750 18.1689224 226.8966980
135.9322662 11.8259125 226.4753571
154.1366119 18.3708611 226.5028381
-111.9942474 -30.0325146 226.6876526
-96.0655975 -19.9367256 226.8067017
153.5128937 17.2649651 226.1130219
153.8122406 17.9185677 226.1108246
-112.1017990 -29.8677387 226.2518768
-96.1765137 -19.7935448 226.3502502
153.4699097 17.4747143 225.7223053
136.2683411 12.1038237 225.2970734
136.8286438 11.8453760 225.3109131
150.3630524 13.5016012 225.2956696
150.7144165 13.8499527 225.2822876
-96.4365311 -19.3256760 225.5147247
-96.3129501 -18.5831203 225.5357666
136.7380219 12.0781527 224.9197540
150.3382874 13.7943993 224.8563232
150.6531067 14.0394993 224.8894043
-111.1670303 -29.5485191 224.9538116
-96.6139526 -19.0244694 225.0822906
136.6832428 12.3215046 224.5329437
153.2407684 18.2933254 224.5688782
153.5139008 18.9910583 224.5600281
-111.3552322 -29.3022499 224.4988403
-96.8070450 -18.6135712 224.6235504
136.0043640 12.9143038 224.1268311
136.5834198 12.5877600 224.1397095
153.1500092 18.6199780 224.1790924
-97.2103882 -19.8227730 224.2063293
-97.1024933 -19.1296616 224.2124176
136.4485016 12.8809099 223.7292480
137.0052795 12.5859804 223.7365112
137.5552521 12.3187609 223.7398224
153.0568085 18.9735947 223.7864380
-97.4201279 -19.4427128 223.7560577
137.4343567 12.6042080 223.3322601
-110.7502747 -28.6237106 223.1897278
-110.1417313 -28.7204704 223.2114105
-109.5679016 -28.7859650 223.2339935
-109.0488129 -28.8167953 223.2356110
-108.5332108 -28.8329220 223.2341003
-97.6431580 -19.1220016 223.3360138
137.8570862 12.6807222 222.9407806
138.3813629 12.4862547 222.9547882
151.7951965 17.3266659 223.0026245
-109.7475433 -28.4425259 222.8517609
-109.2256241 -28.4803467 222.8412323
-108.7381210 -28.5040207 222.8097687
138.2580261 12.8123188 222.5485077
151.7085571 17.7114468 222.6155701
-108.9190140 -28.1781025 222.3691254
-98.3648758 -19.6804771 222.4570618
138.6094360 13.0037870 222.1534424
139.1118469 12.8499565 222.1733704
151.6046753 18.1508560 222.2001648
139.0005188 13.2050009 221.7874451
-108.9247437 -27.4705162 221.4634399
-108.4544373 -27.4437256 221.4721832
-99.1988525 -19.9806385 221.5876617
138.8934784 13.5885162 221.4045563
150.7752991 18.0301380 221.4555664
151.0551910 18.5130978 221.4597473
-108.7280273 -27.0015221 221.0379791
-99.5373154 -19.4381275 221.1568298
-99.4388504 -18.6930141 221.1120911
138.7147980 14.0696125 220.9827576
150.6270905 18.6057301 221.0511169
-109.0578995 -26.5067844 220.5791626
-100.5177994 -21.0724087 220.7051849
-100.3222275 -20.5579166 220.7060394
-100.1564713 -19.9739819 220.6955872
-100.0216599 -19.3645267 220.6924744
-99.9155655 -18.7274609 220.6752472
140.5186005 13.9977436 220.6463318
149.8960724 18.1308060 220.6804810
150.1864014 18.6413403 220.6820831
150.4708405 19.1813450 220.6687469
-100.8680267 -20.4525375 220.2297058
149.7262726 18.7407608 220.2862244
150.0532837 19.2478752 220.3121490
-108.7086182 -25.3736362 219.7202301
-108.1815109 -25.3396797 219.7597046
-107.6625900 -25.2907867 219.7799225
-102.1377106 -21.7532368 219.8026886
-101.8753738 -21.3379974 219.8144379
-101.6255341 -20.8808727 219.8207092
149.5675049 19.2939034 219.9347687
-108.6115494 -24.6667042 219.2816772
-108.0520172 -24.6697483 219.3055573
-102.5108032 -21.1147137 219.3521576
-107.4907837 -23.8391743 218.8513184
-107.0705643 -23.6953106 218.8631744
-106.6430664 -23.5515804 218.8819733
-104.1226425 -21.9967365 218.9262085
-103.8125076 -21.6172276 218.9108429
-103.5110626 -21.2114944 218.8911285
140.5980682 16.1446781 219.0275879
141.0579071 16.0617466 219.0613708
141.5261383 15.9992342 219.0948181
-104.5742950 -21.2007370 218.4590607
141.2718658 16.7319736 218.6508026
142.3759613 17.5005226 218.2791138
142.8021851 17.5996799 218.2596741
143.1924896 17.6793976 218.2545013
143.5731201 17.7432384 218.2660675
143.9989471 17.8054199 218.2957611
144.4017181 17.9418983 218.2985382
144.7551727 18.1585522 218.2704163
145.1479645 18.3152275 218.3010712
145.4548492 18.5451183 218.2991791
145.7845917 18.8133259 218.2961273
19.2935524 -0.7824565 217.0188141
19.5627842 -0.3040480 217.0238953
17.8104267 -2.8167756 216.5886688
19.0155239 -2.4881728 216.5332184
19.3795223 -2.2586424 216.5021820
21.0310745 -0.6977564 216.6103058
17.7473030 -3.7818627 216.1001434
18.1629944 -3.6640644 216.0988770
19.3918419 -3.2669082 216.0734253
19.7311440 -3.0367813 216.0844116
21.4388561 -1.6644143 216.1169281
21.7338562 -1.3381073 216.1351624
22.0113010 -0.9760072 216.1296539
22.2693539 -0.4543936 216.1581116
22.5005341 0.1527597 216.1864471
17.0529518 -5.2640929 215.2357635
15.7502546 -5.3912911 214.8838654
15.6089840 -6.2120590 214.3463135
16.0869141 -6.2400656 214.3634033
16.6187248 -6.3072739 214.3741455
24.8128357 -0.8469567 214.5247498
25.1197033 -0.4254332 214.4290619
15.0219412 -7.0225840 213.5852509
25.7171593 -0.8921124 213.6241608
15.2232351 -7.4622469 213.1680756
26.3651333 -0.0734684 213.2779541
14.9005222 -7.7699728 212.7535706
15.4062691 -7.8553109 212.7437134
26.5505428 -0.6357265 212.8197327
26.7525291 0.0465846 212.8650208
14.5773525 -8.0336142 212.3309937
26.7360992 -1.0833970 212.4001007
14.1908665 -8.2492342 211.9184723
14.7200594 -8.3589506 211.9108124
26.9205856 -1.5100604 211.9813538
27.1604233 -0.9084905 212.0282440
13.9370146 -8.7231617 211.0818176
27.6669540 -1.0424123 211.1850281
13.1908255 -9.1879606 209.8450928
28.4360447 -0.6988328 209.9461517
28.5269794 -0.9423450 209.5233002
13.3886204 -9.5684614 209.0095520
13.4882517 -9.7275848 208.5866394
12.4346867 -9.5506897 208.1831665
29.1742859 -0.0479844 208.2895966
12.5130863 -9.6898499 207.7639923
29.2260609 -0.2615372 207.8660278
29.2847443 -0.4011323 207.4484100
29.3360043 -0.5209275 207.0364227
12.6680307 -9.9788084 206.5151062
29.3808041 -0.6187894 206.6229706
12.7317429 -10.0479231 206.1024628
29.4181862 -0.6788928 206.2105865
29.6149139 0.1051421 206.2136383
12.7035780 -10.0634193 205.6872406
12.1373234 -9.9112768 205.2697449
12.6927118 -10.0790854 205.2736816
12.7100744 -10.1019850 204.8595123
12.7472086 -10.1257143 204.4452057
12.7087374 -10.1083517 204.0294189
12.7004719 -10.0751896 203.6142731
12.6960716 -10.0246363 203.2017517
29.4352436 -0.7270101 203.3049774
12.0706472 -9.7917500 202.7734070
12.6750450 -9.9638405 202.7864227
29.4109859 -0.6592981 202.8893890
29.3645172 -0.5578178 202.4772644
29.3208694 -0.4033345 202.0560455
13.4033861 -9.6413040 200.7146301
28.6918621 -1.4251658 200.8298798
12.7817488 -9.3438253 200.2820892
13.3674364 -9.5095100 200.3016205
28.6316471 -1.1786608 200.3990784
14.1723890 -9.1690502 199.0711365
27.8922005 -1.6614929 199.1723022
28.1048069 -1.0566096 199.1472931
13.4482689 -8.7896109 198.6142578
14.0157814 -8.9103928 198.6414642
27.7784100 -1.3057950 198.7367401
13.9217424 -8.6598530 198.2288361
27.6359234 -0.9717890 198.3175507
13.7410583 -8.3677483 197.7841339
14.1691265 -8.1844435 197.3776703
14.7215776 -8.2837238 197.4125366
27.2910404 -0.2086710 197.4741058
14.5694113 -7.9332294 197.0030670
13.7740202 -7.3720555 196.5216980
14.3456182 -7.5256743 196.5591431
25.6553078 -2.6973972 196.6643219
25.9508705 -2.2814944 196.7184906
26.2032986 -1.6966653 196.6873322
26.3873119 -1.1530719 196.6548004
26.5652924 -0.5634074 196.6498718
14.1361961 -7.0899911 196.1068268
25.5032558 -2.3335669 196.2626495
26.2424507 -0.6662373 196.2184448
26.3645515 -0.0164653 196.1913452
14.4852037 -6.7720666 195.6899109
15.0096903 -6.8944178 195.7273865
24.7442665 -2.7604249 195.8215790
14.7844477 -6.4200406 195.2743225
24.5376568 -2.2642694 195.3901672
16.6190128 -6.2616873 194.9728851
23.7118015 -2.7203546 194.9990845
24.0074425 -2.2182078 194.9590759
16.3795261 -5.7040086 194.5276489
23.4839706 -2.1433814 194.5329437
16.0414944 -5.0738721 194.0351868
16.5117073 -5.1067481 194.0820313
16.9543037 -5.1222153 194.1163483
16.1296825 -4.3882947 193.5984802
16.5931263 -4.4316745 193.6289825
16.7179050 -3.6857533 193.1793213
17.1472740 -3.6631663 193.1964111
17.6408653 -3.6409514 193.2359009
18.0756435 -3.4883707 193.2050476
18.4949055 -3.3563981 193.2008362
18.9479694 -3.2626727 193.2260590
19.3612251 -3.1205010 193.2424774
19.7492733 -2.9171805 193.2409821
20.0996361 -2.6977623 193.2345123
20.4722443 -2.4984860 193.2599792
20.8074780 -2.2043679 193.2439423
21.1058769 -1.8868996 193.2181244
-106.8208694 -22.9495678 191.3552094
-106.4335785 -22.7519608 191.3563690
-106.0465317 -22.5528221 191.3553467
-105.6648102 -22.3456440 191.3507080
-105.3194275 -22.0683155 191.3707428
-104.9701767 -21.7791786 191.3688660
-104.6699905 -21.4428425 191.3621368
-104.3984299 -21.0487976 191.3690796
-104.1251831 -20.6510429 191.3635712
-103.8732147 -20.1673622 191.3816223
-102.8496475 -20.1593456 190.9180603
-102.6819611 -19.5876217 190.9280853
-102.4023132 -20.9764252 190.4493408
-102.0605087 -20.5820103 190.4037628
-108.2322159 -25.6936932 190.0227814
-101.3959351 -20.8751526 189.9905396
-108.9738312 -26.2094593 189.6034698
-108.4647751 -26.2100277 189.6018219
-107.9183273 -26.2051086 189.5860291
-101.1737213 -21.3846626 189.6316986
-100.9688721 -20.8226528 189.6653900
-100.7813950 -20.2844524 189.6656494
-109.6896439 -26.6807251 189.1478271
-100.1358490 -19.6115303 189.2206116
-100.0455856 -18.9080849 189.2137451
-99.9972839 -18.1583004 189.1909332
-110.4787216 -27.0343361 188.7087097
-109.9182129 -27.1214657 188.7029419
-109.3716125 -27.1886463 188.6994476
-99.7974854 -20.2799816 188.7222443
-99.6583862 -19.7027302 188.7162628
-110.7501221 -27.4314747 188.2753296
-110.1129990 -27.5544415 188.2496185
142.7946777 18.2503262 191.6539764
-109.9062119 -27.9682198 187.8540039
-98.8425751 -20.1296139 187.9266052
142.2373657 17.1032066 191.2293091
142.6458740 17.1734047 191.2209167
143.0510864 17.2747517 191.2435150
143.4458466 17.3619423 191.2777557
-110.5566788 -28.5777321 186.9644623
-98.0901566 -19.6940670 187.0460205
140.9456024 15.7366180 190.4498901
146.7928162 17.4991608 190.5192108
147.1255188 17.8685226 190.5518799
147.4457550 18.2150421 190.5617981
-97.4202194 -19.0338001 186.1609955
140.4601288 14.6779881 189.6348724
148.4713135 17.6958961 189.7840729
148.7810211 18.1131535 189.7991486
-111.1083832 -29.3227062 185.6723022
148.6298523 17.0940304 189.3683777
148.9519196 17.5157204 189.4000854
-96.9070969 -18.0243206 185.2844543
138.8649750 14.1869631 188.8714752
139.3728485 13.9995461 188.8625641
139.8345337 13.8660240 188.8740845
148.7771149 16.5452652 188.9881744
-96.7224731 -18.3815231 184.8498535
-96.5561218 -18.6963997 184.4042206
138.1683807 13.6527233 188.0810394
149.7031250 16.4358063 188.2586823
149.9994965 16.7995529 188.2444153
150.3111572 17.2709045 188.2620087
150.6190491 17.7581272 188.2688141
-96.4331360 -18.9564037 183.9658661
-96.3618088 -18.0309219 183.9724884
151.0283203 17.8208637 187.8749695
-111.5871582 -30.2122936 183.4877319
-96.3137665 -19.1651840 183.5310364
-96.2132187 -18.3046322 183.5404816
137.4370575 13.2667866 187.2871246
151.1270752 17.4127445 187.4580688
151.4166870 17.9599056 187.4731598
151.6874237 18.4737148 187.4853058
-111.5067673 -30.3554192 183.0570221
-96.1881485 -19.3607368 183.1079559
-96.0818253 -18.5878963 183.1036682
137.0424805 13.1181822 186.8971405
137.5557404 12.8989134 186.9039917
-111.4148483 -30.4854317 182.6220398
-96.0662537 -19.5786953 182.6737823
137.6612244 12.5501957 186.5169373
152.3747406 18.7359924 186.6693268
152.5715485 19.4385338 186.6608734
-95.9536438 -19.7269173 182.2509766
152.4660339 18.3264408 186.2635040
152.7080688 19.0341740 186.2667999
-95.8665543 -19.8540058 181.8207245
136.8365173 12.3928852 185.7307587
152.5796051 18.0056152 185.8984375
152.8385773 18.6237335 185.8899384
-95.8000793 -19.9531250 181.3858032
136.9149933 12.1239052 185.3415680
153.2581940 18.9737720 185.5385132
-95.7712326 -20.0808353 180.9473114
-95.6374130 -19.2772274 180.9355621
136.4409637 12.1374474 184.9603424
136.9891052 11.8724213 184.9560699
153.3370361 18.6500454 185.1354523
136.5607452 11.8618031 184.5646210
137.0652466 11.6270180 184.5731506
137.1439362 11.3984785 184.1890106
-112.4646835 -30.6403751 179.5443573
154.0481110 19.4763203 183.9749603
-112.4674454 -30.6431160 179.1068268
154.1207886 19.1854610 183.5883331
-95.7500839 -20.1316948 178.7654419
-95.6223907 -19.3513718 178.7430267
154.1718597 18.8732891 183.1963959
-95.7693405 -20.0851250 178.3255768
154.2284088 18.6454239 182.8072357
154.5128937 19.4132748 182.8083801
-95.8018723 -20.0330162 177.8858490
136.3951111 11.0632935 182.2283783
154.2857666 18.4789696 182.4237976
-95.8477325 -19.9242306 177.4413910
136.4628601 10.9448538 181.8325958
154.3412781 18.3214855 182.0364380
-111.9344788 -30.5730152 176.9251556
-111.2883453 -30.6907310 176.9521484
-95.9096909 -19.7922878 176.9972229
136.5056763 10.8559561 181.4442596
154.3937531 18.2216167 181.6562805
-111.3742218 -30.5780811 176.5090637
-96.0010223 -19.6966057 176.5602112
-95.9128952 -18.8861179 176.5282135
135.9878845 11.0316448 181.0395203
136.5195618 10.7958555 181.0540619
154.4173279 18.0847645 181.2638702
-111.4720459 -30.4315376 176.0594330
154.4581451 18.0445442 180.8793030
154.7802277 18.5625477 180.8649750
-111.5691071 -30.2665634 175.6143494
154.4510345 17.9457207 180.4859924
-111.7136612 -30.0764484 175.1550293
-96.3713074 -19.0868073 175.2274933
-96.5269012 -18.8077259 174.7682343
-111.9739380 -29.6521301 174.2609253
-111.2925186 -29.8052139 174.3036346
-110.6890793 -29.9110584 174.3353119
-96.6947937 -18.4489231 174.2983246
-110.8444519 -29.6761665 173.8754120
-111.6685944 -29.2914124 173.3787689
-111.0353088 -29.4369965 173.4126282
-110.4584885 -29.5408268 173.4372406
-109.8775406 -29.6257687 173.4668121
-97.1921005 -19.4830685 173.4668274
-97.1212082 -18.6284523 173.4163361
136.5338898 10.7207212 178.3152924
-110.0546341 -29.3836308 172.9895477
136.5407257 10.7567892 177.9250488
-97.8068695 -20.2196026 172.5909576
-97.6949005 -19.4843769 172.5553284
136.5164337 10.8231907 177.5270844
136.4877167 10.9057693 177.1309509
-108.4680634 -28.5717239 171.7391815
136.4717407 10.9922800 176.7377319
154.3315277 18.3536224 176.9588013
-108.6978912 -28.2009983 171.2901917
136.3814240 11.1211910 176.3261108
154.2897491 18.4676609 176.5627289
-109.4913864 -27.7346916 170.7890320
-108.9630966 -27.8062687 170.8060455
-109.2448044 -27.3870564 170.3021240
154.2177582 18.9101620 175.7477112
-108.5020981 -26.9450798 169.8917236
-101.2188187 -22.9278774 169.9726410
-100.9688568 -22.5287113 169.9893341
-100.7104111 -22.0507507 170.0030670
-100.5303955 -21.5495586 169.9434204
-100.3261795 -21.0010433 169.9123840
137.2512512 11.1215496 175.1885529
154.1423035 19.0870991 175.3552246
-101.5506210 -22.4641914 169.4900055
137.1507263 11.3296051 174.7656555
-108.7652588 -25.7554150 168.9389191
-108.2333527 -25.7695751 168.9844971
-107.7018433 -25.7336388 169.0226593
-107.1532822 -25.6904316 169.0657959
-101.9376755 -21.7723007 168.9815216
137.1073456 11.5108786 174.3705597
153.4851379 18.1279716 174.6049500
153.7529907 18.8586807 174.5673676
-108.1362381 -25.0678425 168.4999695
-107.5638504 -25.0656490 168.5405579
153.4165649 18.4199734 174.1982574
-106.6323318 -24.0578938 168.0597229
-106.2213364 -23.9052448 168.0725403
-105.8251190 -23.7236595 168.0807190
-105.4360428 -23.5178738 168.0913391
-105.0817490 -23.2750816 168.0909424
-104.7573242 -23.0142155 168.0854034
-104.4485703 -22.7364883 168.0764618
-104.1392746 -22.4347878 168.0713654
137.4699402 11.7366056 173.5864258
138.0101166 11.5288649 173.6311798
153.3200836 18.7006779 173.7909546
137.8976746 11.8065710 173.2169037
137.2819366 12.3033419 172.7618866
137.8112946 12.0839939 172.8098145
152.6102600 18.0335197 173.0213318
152.8819122 18.7216797 172.9907074
137.6837463 12.4001589 172.3758850
151.3717651 16.6621685 172.2512054
151.6433563 17.1077404 172.2400360
151.2687378 17.0157681 171.8490601
138.3516693 13.0842142 171.1878967
149.3147888 14.9970036 171.4768677
149.6370392 15.3153362 171.4750671
149.9631195 15.6384220 171.4981079
150.3047333 16.0148048 171.5265503
150.5733948 16.4401150 171.4767456
150.8719940 16.9229164 171.4477386
151.1667480 17.4243755 171.4141388
149.2076721 15.3680849 171.0656738
149.4967041 15.6425142 171.0710754
139.0944824 13.5611048 170.4411774
139.5741425 13.4249153 170.4716644
140.0583954 13.2881212 170.4945679
140.5297699 13.1649237 170.5083313
140.9848022 13.0657415 170.5398102
149.0807343 15.7607145 170.6650848
140.8607635 13.4984989 170.1439667
148.9397278 16.2224083 170.2475128
149.2661133 16.6225281 170.2091217
140.6989594 13.9977713 169.7026978
148.1389313 16.0264187 169.8519440
148.4789276 16.3692417 169.8377228
148.8023682 16.7159615 169.8260651
140.5255280 14.4986086 169.2535553
147.9832153 16.5726719 169.4163208
140.7994537 14.9663801 168.8231354
141.2367554 14.8865356 168.8722534
147.1067047 16.5164547 169.0128632
147.4508057 16.8016796 169.0061798
146.9215393 17.1587963 168.5450439
142.1143799 16.1599445 168.0241241
142.5513458 16.1576576 168.0533142
142.9797668 16.1952629 168.0676422
143.4067383 16.2305260 168.0993805
143.8012390 16.3053589 168.1272583
144.1858521 16.4697056 168.1345520
145.3175659 16.9613438 168.1538849
145.6941376 17.1156979 168.1517639
143.9540710 17.2855244 167.6554871
-104.7088165 -20.2329254 140.8983917
-108.5889587 -23.9445400 140.4963531
-108.1749573 -23.8310413 140.5047913
-107.7359467 -23.7005634 140.4887543
-107.3131027 -23.5443897 140.4892578
-106.8894958 -23.3910103 140.4896545
-106.5147858 -23.1882820 140.5081482
-106.1208344 -22.9992390 140.4987335
-105.7674408 -22.7339630 140.5007477
-104.1989822 -21.1388893 140.4824066
-103.9309464 -20.6727715 140.5106354
-103.6733780 -20.2349415 140.5045319
-103.4141083 -19.8086033 140.4907227
-108.6457062 -24.7136021 140.0744324
-102.7366943 -20.0348587 140.0901642
-108.7658081 -25.4031067 139.6720276
-108.2989731 -25.3213348 139.6833191
-102.3557434 -20.7447491 139.6843872
-102.1378708 -20.2966290 139.6599426
-101.9349060 -19.7050114 139.6654968
-101.2243195 -19.2205925 139.2277374
-109.5336685 -26.5313549 138.7789459
-100.8158798 -20.0021954 138.7724152
-100.6339569 -19.3861008 138.8061218
-109.2941513 -26.9942780 138.4081879
-109.5205383 -27.4652252 137.9886169
-109.0165939 -27.4594345 138.0276947
-99.8395157 -19.8253918 137.9879913
-110.8880005 -27.7820263 137.5437317
-110.6232605 -28.1969166 137.1371613
-99.0482407 -19.5575809 137.1138611
-98.9356003 -18.8212738 137.0956726
-98.8656464 -18.0505085 137.0537720
-98.8013763 -20.0116844 136.6873779
-98.6726227 -19.3556538 136.6603699
-111.2932205 -28.7512913 136.2784424
-98.5705414 -20.3841267 136.3032379
-98.4193954 -19.7749214 136.2776184
