151.0782471 13.3524218 331.0662842
151.6269531 13.9290714 331.0736694
152.1630096 14.5597248 331.0823364
152.6428833 15.2392082 331.1060181
153.1093292 15.9622240 331.1342468
153.5720978 16.7248917 331.1661072
153.9680634 17.5422783 331.2141113
154.8412781 20.4832592 331.4462891
44.3774567 -2.7144740 340.4540405
45.2361603 -2.4829135 340.3783569
46.0660210 -2.1688068 340.3223267
46.8131905 -1.7667795 340.2905579
47.4828796 -1.3222423 340.2728271
48.1763191 -0.8354226 340.2306824
48.7888985 -0.2411141 340.2376709
49.3425179 0.3820153 340.2347717
49.8253822 1.0851742 340.2713623
50.2532806 1.8907944 340.3059998
50.6052437 2.7770486 340.3602295
50.8846245 3.7570171 340.4588623
92.1955109 2.2510331 335.6696472
93.2033081 2.2565305 335.5514221
95.8881149 2.7203920 335.3041687
96.6865692 2.9609776 335.2349548
97.4565430 3.2841527 335.1995850
98.2061310 3.6556964 335.1506348
103.9143143 10.8207502 335.3139343
104.1580658 11.8274860 335.3947754
104.3290634 13.0138502 335.5076294
140.2296448 9.9204760 331.1521606
141.2083435 9.8305502 331.0326538
142.1768799 9.8188000 330.9220581
143.0674744 9.8859682 330.8321533
143.9638062 9.9836082 330.7400208
152.5918427 15.3033533 330.3742065
153.0661621 16.0280838 330.4034424
154.8040466 20.5501347 330.7125244
43.9542084 -3.5470405 339.6088257
44.8852844 -3.3593445 339.5205994
45.7428474 -3.0949965 339.4553833
46.5621147 -2.7651505 339.3963928
47.2998199 -2.3674111 339.3555298
47.9703674 -1.9140843 339.3391113
48.6240654 -1.4053074 339.3178101
49.2348747 -0.8035461 339.3231812
49.7906685 -0.1778844 339.3310242
50.3017273 0.4844927 339.3399353
50.7514458 1.2836510 339.3870544
51.1255188 2.1222403 339.4311829
51.4283752 3.0467594 339.4991150
51.7168388 4.0534348 339.5895386
91.3292618 2.0705183 334.9629517
92.3772736 2.0253956 334.8390198
93.3483505 2.0486271 334.7353210
95.9932404 2.5457509 334.5046082
96.8009796 2.7987847 334.4344788
97.5725708 3.1290071 334.3849487
98.3103180 3.5000269 334.3436584
104.0366745 10.6184130 334.4956055
104.3203583 11.6405163 334.5871887
104.5106659 12.7490301 334.6773682
104.6422501 14.0762081 334.8285828
140.1670074 9.9985313 330.4183044
141.1533813 9.9015961 330.2976685
142.1129456 9.8777800 330.1885986
143.0480957 9.9360180 330.0900269
143.9015808 10.0489120 330.0082397
152.5496063 15.3778057 329.6391602
153.0288696 16.0946579 329.6673279
154.7321320 20.6793880 329.9885254
43.4582291 -4.2557173 338.7679443
44.4347992 -4.1055698 338.6731262
46.9558220 -3.2424023 338.4966736
47.6718025 -2.8289599 338.4670715
50.6833725 0.0195091 338.4412842
51.1511841 0.7799786 338.4772339
51.5572510 1.6013064 338.5163879
51.8891792 2.4790349 338.5894470
52.1952477 3.4348290 338.6435242
52.4257050 4.5506330 338.7742920
91.4506378 1.8947949 334.1510620
92.5057449 1.8546143 334.0287170
93.4599152 1.8975761 333.9290771
96.1074524 2.4191623 333.6898193
96.8740387 2.7001274 333.6405945
97.6417770 3.0577917 333.5993652
98.3875656 3.4189026 333.5541382
99.0733109 3.8084190 333.5212402
99.7200623 4.2672462 333.4988098
100.3401718 4.7805023 333.4847412
100.9352646 5.3260231 333.4824219
103.3969727 8.7308197 333.5821838
103.7831268 9.6375046 333.6537170
104.6303329 12.5977478 333.8762207
104.7570419 13.8756466 334.0055847
140.0897522 10.1098709 329.6897583
142.9659424 10.0698967 329.3681335
143.8264313 10.1806803 329.2850647
154.6185303 20.8350983 329.2720947
42.8432198 -4.7935333 337.9608459
43.8451805 -4.7245502 337.8595886
44.7772141 -4.5372453 337.7864990
47.2725449 -3.6469054 337.6031494
47.9912758 -3.2159321 337.5729980
50.9965553 -0.3663628 337.5602722
51.4751053 0.3645570 337.5795898
51.9009972 1.1812308 337.6358948
52.2688179 2.0045753 337.6746521
52.5821686 2.9564881 337.7514038
52.8293266 3.9975688 337.8278809
91.5650330 1.7646912 333.3424377
92.5918503 1.7407135 333.2269592
93.5422897 1.7993072 333.1293030
96.1486969 2.3574109 332.9077454
96.9176407 2.6677034 332.8551025
97.6880875 3.0207815 332.8155212
98.4308853 3.3561833 332.7631226
99.1047211 3.7534709 332.7350464
99.7318344 4.2231612 332.7203979
100.3715591 4.7413564 332.7075195
100.9750214 5.2744498 332.6976318
103.4589539 8.6665077 332.7963867
103.8422546 9.5241776 332.8472595
104.6945572 12.5240202 333.0881958
104.8149338 13.7880974 333.2143860
139.9763947 10.2741699 328.9678345
142.8209229 10.2536688 328.6510620
143.6917725 10.3581991 328.5682068
154.4712219 21.0786743 328.5677185
-3.2125213 -7.5569010 341.8565369
-2.5967221 -6.9571877 341.8495789
-2.1005974 -6.2511392 341.8721619
-1.6482339 -5.4765563 341.9478760
43.1712189 -5.2046232 337.0711975
44.1461868 -5.0975614 336.9833984
45.0676422 -4.8900185 336.8986511
45.9250145 -4.6237555 336.8446350
46.7461777 -4.3237514 336.7845764
47.5226593 -3.9508381 336.7363281
48.2422714 -3.5044286 336.7161560
50.1688232 -1.9681776 336.6666870
50.7237625 -1.3461010 336.6741028
52.1684341 0.8454347 336.7616882
52.5522499 1.6384990 336.8028870
52.9009285 2.5606542 336.8643494
53.1671104 3.5773253 336.9412842
53.3536720 4.6649356 337.0490723
90.5144730 1.7817886 332.6829529
91.6134415 1.7007532 332.5517883
96.1741486 2.3338857 332.1222229
96.9260483 2.6413908 332.0762329
97.7068939 2.9794781 332.0297852
98.4459610 3.3244185 331.9836121
99.0951920 3.7382865 331.9594116
99.7311096 4.2120972 331.9445496
101.5457230 5.8359017 331.9237061
102.0951843 6.4730301 331.9294739
103.4752960 8.6316395 332.0157776
103.8725510 9.4971447 332.0687561
104.7296066 12.4752092 332.2985229
104.8624344 13.7308617 332.4236755
139.8328400 10.4763546 328.2555542
140.8334808 10.3858061 328.1405029
141.7889557 10.3698835 328.0350037
142.6855164 10.4465990 327.9391479
143.5756531 10.5397835 327.8519897
144.4516144 10.6649485 327.7747192
145.2631683 10.8796844 327.7112122
148.8310547 12.5320082 327.5007324
149.4864502 12.9924030 327.4808044
150.0878143 13.4861135 327.4750366
150.6354523 14.0198011 327.4654846
152.2256165 15.8922682 327.4965515
152.6880951 16.6225662 327.5279541
153.8127289 19.1797009 327.6805115
154.0829773 20.1473045 327.7642212
154.2848053 21.3601799 327.8736267
154.4181366 22.7136192 327.9986877
-4.6336141 -9.8485985 340.9161987
-3.8726411 -9.4174433 340.8920593
-3.1236093 -8.9348307 340.8552246
-2.4301891 -8.4322748 340.8302002
-1.8365316 -7.8311357 340.8489990
-1.2972934 -7.1732812 340.8513184
-0.8274311 -6.4169645 340.8825989
-0.4246635 -5.5869455 340.9394531
-0.0728786 -4.6402493 341.0342407
42.4504128 -5.5862522 336.2990417
43.4573517 -5.5445576 336.1985168
44.3923378 -5.4002538 336.1141357
45.2979469 -5.1657224 336.0444336
46.1554527 -4.8910890 335.9770813
46.9625130 -4.5760355 335.9225159
47.7192459 -4.1839275 335.8878479
48.4384537 -3.7486465 335.8588562
50.3686790 -2.2012699 335.8188171
50.9258347 -1.5814306 335.8336182
52.3868980 0.5666939 335.8977966
52.7863884 1.3566531 335.9389038
53.1460304 2.2382834 335.9903564
53.4396591 3.2378402 336.0720825
53.6446724 4.2802525 336.1575012
53.7703781 5.4615660 336.2769470
90.5331497 1.7541909 331.8975220
91.6170425 1.6850034 331.7710266
96.1682205 2.3428762 331.3495789
96.9297333 2.6494336 331.3011475
97.6954575 2.9778011 331.2533569
98.4184723 3.3466880 331.2155457
99.0804596 3.7723424 331.1897278
99.7226715 4.2324018 331.1700134
101.5406189 5.8634915 331.1533813
102.0763702 6.4896269 331.1593933
103.4583893 8.6598616 331.2481079
103.8534622 9.4888010 331.2933350
104.7421036 12.4582043 331.5196228
104.8768845 13.6951752 331.6399841
140.6420593 10.6415758 327.4391479
141.6209717 10.6070166 327.3273315
142.5559692 10.6470003 327.2319336
143.4390259 10.7384930 327.1448975
144.2891083 10.8953495 327.0657654
145.1099548 11.1188641 327.0037537
148.6764679 12.7713852 326.7997131
149.3222046 13.2445459 326.7762451
149.9098663 13.7528811 326.7687073
150.4591370 14.2814274 326.7655029
152.0617523 16.1464291 326.8005066
152.5116577 16.8914185 326.8317871
153.6191254 19.4439220 326.9882507
153.8816071 20.4805775 327.0688782
154.0671387 21.6736431 327.1824036
-5.7731957 -11.1147032 340.0727234
-4.8202767 -10.8929501 340.0100098
-4.0144267 -10.5464859 339.9547119
-3.3006787 -10.0779772 339.9506226
-1.9059151 -9.0491533 339.9142456
-1.3037999 -8.4525433 339.9031982
-0.7302137 -7.8101292 339.9013062
-0.2408248 -7.0702319 339.9478455
0.2312913 -6.3414569 339.9462280
0.6065735 -5.4607782 339.9917297
41.5947952 -5.8794007 335.5586243
42.6808243 -5.8773403 335.4351501
43.6711426 -5.8000975 335.3373413
50.5277290 -2.4014218 334.9639893
51.0972404 -1.7973495 334.9681396
51.6116676 -1.1520549 334.9828491
52.1052933 -0.4104221 335.0255127
53.3294983 2.0147703 335.1477661
53.6432304 2.9825497 335.2169800
53.8719940 3.9925807 335.2975769
54.0084763 5.1556301 335.4063110
54.0730553 6.5164866 335.5587158
90.5156326 1.7804838 331.1221924
91.5916595 1.7242234 330.9992981
103.4240570 8.7176342 330.4825134
103.8193512 9.5533438 330.5297852
104.7057953 12.5051603 330.7529297
104.8401566 13.7549725 330.8732300
140.4361725 10.9553747 326.7441711
141.4253235 10.9003973 326.6327515
150.8303833 15.1053724 326.0746155
151.3640594 15.7560120 326.0788879
152.7261658 18.0313358 326.1820374
153.0868835 18.8803577 326.2365112
153.3941040 19.7710438 326.3043518
153.6461182 20.8124542 326.3886414
153.8210297 22.0786858 326.5050049
-6.1680217 -11.9650421 339.1892700
-5.1978683 -11.7705574 339.1153259
-4.2534962 -11.5057936 339.0262451
-3.5005589 -11.1130781 339.0042419
-2.7696810 -10.6562023 338.9739685
-2.0353358 -10.1562500 338.9440002
-1.4010441 -9.5907927 338.9396973
-0.8260505 -8.9944935 338.9637451
-0.2124791 -8.3836393 338.9339905
0.3091795 -7.7005291 338.9526672
0.7663971 -6.9427185 338.9986267
1.1552724 -6.0835133 339.0375366
1.4734586 -5.1129823 339.1074829
1.7446406 -4.1203198 339.2060547
41.7774010 -6.0991087 334.7043457
42.8458366 -6.0753484 334.5921326
43.8142471 -5.9724765 334.4975281
50.6356735 -2.5370836 334.1448364
51.2121696 -1.9422650 334.1401062
51.7466888 -1.2905544 334.1507263
52.2440186 -0.5722487 334.1803894
53.4612083 1.8432385 334.3046570
53.7904663 2.7950685 334.3723450
54.0415421 3.7965240 334.4592590
54.2064400 4.9130664 334.5546265
54.2737389 6.2334781 334.6893616
90.4280243 1.8766998 330.3605042
91.5169373 1.8187715 330.2387085
103.3544083 8.8093843 329.7231750
103.7381897 9.6634378 329.7745056
104.6253357 12.6335869 329.9987488
104.7601700 13.8538513 330.1150208
140.1908569 11.3171196 326.0591736
141.1715240 11.2594261 325.9473572
150.6220093 15.4227476 325.3886414
151.1407013 16.0916595 325.3970947
152.4795532 18.3680973 325.5058289
152.8355865 19.2810822 325.5570068
153.1265717 20.2073345 325.6261902
153.3552246 21.2546768 325.7222900
-6.6762691 -12.6490574 338.3349609
-5.6811290 -12.5020447 338.2429810
-4.7200899 -12.2771969 338.1686096
-3.8535166 -11.9753036 338.1032104
-1.6110796 -10.6218872 338.0158997
-0.9862533 -10.0850544 338.0121460
-0.3797649 -9.5261774 337.9879456
0.2029386 -8.8853960 338.0006409
0.7161831 -8.1718588 338.0322571
1.1670321 -7.4270082 338.0586243
1.5809236 -6.5614004 338.1066589
1.9433345 -5.6424880 338.1629028
2.2169905 -4.6826372 338.2344971
2.3985591 -3.6263754 338.3216553
41.9058304 -6.2458625 333.8663025
42.9739914 -6.2145181 333.7521667
43.9128838 -6.0915937 333.6683655
44.8138962 -5.9073753 333.5927734
45.7404938 -5.6719470 333.5147095
48.1116180 -4.6479473 333.3724670
48.8133469 -4.2164845 333.3506470
49.4716225 -3.7473350 333.3240967
50.0990562 -3.2288604 333.3133545
52.7705917 0.0709866 333.3841248
53.1601677 0.8529075 333.4310913
54.1687584 3.6342337 333.6148987
54.3510094 4.7373824 333.7125244
54.4250679 6.0311890 333.8410950
90.3541870 2.0224414 329.6051025
91.4205170 1.9645084 329.4848328
94.2541275 2.1660013 329.2053223
95.1333771 2.3594642 329.1329956
103.9648438 10.7142496 329.0885925
104.2654648 11.6982956 329.1603394
104.4963837 12.8112402 329.2544556
104.6285553 14.0352173 329.3715515
139.8669586 11.7432566 325.3726807
140.9002228 11.6750221 325.2721558
141.8592834 11.6704845 325.1705322
142.7528687 11.7415762 325.0797729
143.6173706 11.8768215 325.0032349
144.4310455 12.0938311 324.9302063
145.1986084 12.3515997 324.8690186
145.9348907 12.6104612 324.8342285
149.2952118 14.7102394 324.6948242
149.8473663 15.2110033 324.6936646
152.2014923 18.7915154 324.8316345
152.5371857 19.7045097 324.8912048
152.8008728 20.6651421 324.9641724
153.0073700 21.8011150 325.0643921
-53.8143272 -16.2774563 342.0992432
-53.0963173 -15.7172823 342.0624695
-52.4806976 -15.0870161 342.0542908
-51.9188843 -14.4323282 342.0663147
-51.4411545 -13.6515026 342.1258545
-7.3199363 -13.2048655 337.5110779
-6.2738042 -13.1010017 337.4051208
-5.3134723 -12.9295158 337.3252869
-4.3880692 -12.6700373 337.2597961
-3.5373957 -12.3377743 337.2088013
-1.2799613 -11.0086880 337.0948486
-0.6512163 -10.4539490 337.0982666
-0.0528058 -9.8653154 337.1039734
0.5137289 -9.2216082 337.1026917
1.0184715 -8.5256271 337.1190796
1.4833951 -7.7812357 337.1511841
1.9197837 -6.9528928 337.2052612
2.3150780 -6.0786042 337.2350464
2.6062725 -5.1215215 337.3135986
2.8262601 -4.1085076 337.3911133
2.9568031 -2.9676826 337.5071716
42.0052948 -6.3499589 333.0328979
43.0558357 -6.3017797 332.9270020
43.9689217 -6.1687346 332.8466187
44.8804970 -5.9824233 332.7701416
45.7693977 -5.7364674 332.7044678
48.1533585 -4.6990905 332.5585327
48.8422546 -4.2586942 332.5382996
49.5019913 -3.7882078 332.5158081
50.1429253 -3.2769883 332.5021973
52.8108368 0.0140483 332.5682983
53.2220306 0.7970365 332.6083069
54.2399216 3.5543940 332.7942810
54.4338684 4.6321082 332.8876648
54.5280037 5.8772368 333.0045471
54.5068359 7.4129963 333.1800537
91.2833405 2.1512835 328.7406311
94.1218185 2.3322148 328.4596252
95.0248871 2.5284710 328.3887939
103.8188324 10.9527216 328.3488464
104.0992432 11.9371347 328.4253235
104.3222351 13.0426712 328.5206299
104.4484482 14.2909355 328.6395569
140.5621033 12.1514120 324.6077881
141.5310822 12.1599483 324.5050049
142.4495544 12.2103224 324.4136353
143.3380432 12.3101625 324.3322754
144.1731415 12.4937582 324.2639160
144.9557800 12.7276144 324.2087097
145.6650543 13.0040312 324.1534424
149.0401764 15.0835485 324.0296936
149.5749664 15.6193666 324.0207520
151.8821259 19.2986832 324.1711731
152.1953583 20.2456417 324.2363586
152.4324646 21.2335415 324.3179321
-53.7206001 -17.6009808 341.0498047
-52.9832764 -17.1242943 341.0308838
-52.2796936 -16.5686226 341.0164795
-51.6390038 -15.9545326 341.0128784
-51.0968361 -15.2928886 341.0246887
-50.6086349 -14.5430927 341.0473328
-50.1872749 -13.7058344 341.0768433
-6.9541340 -13.6003199 336.5883179
-5.9480600 -13.4648924 336.4955444
-4.9999347 -13.2697344 336.4160461
-4.0918717 -12.9913464 336.3511658
-3.2357628 -12.6379366 336.2961426
-1.0260220 -11.2893724 336.2087708
-0.3832086 -10.7561722 336.1965332
0.2033253 -10.1594057 336.1966553
0.7345061 -9.4761295 336.2228394
1.7367727 -8.0644350 336.2520447
2.1996627 -7.2715712 336.2908936
2.5970061 -6.3716025 336.3537903
2.9083035 -5.4434123 336.4229126
3.1542466 -4.4754653 336.4913330
3.3052843 -3.3731501 336.5866394
3.3659620 -2.0966532 336.7344971
40.9482079 -6.3968353 332.3305359
42.0529518 -6.3934221 332.2141113
51.8727379 -1.4478976 331.7056580
52.3691978 -0.7304398 331.7339172
54.5733299 5.8518982 332.1931458
54.5729561 7.2882633 332.3447266
91.1097107 2.3721490 328.0017395
98.5844727 4.4570971 327.4378052
99.2261734 4.9082017 327.4143677
102.0835876 7.8788452 327.4347839
102.5205078 8.5892572 327.4626770
103.6319427 11.1896515 327.6204834
103.9067383 12.2036257 327.6956177
104.1122818 13.3255367 327.7971191
104.2309723 14.6022797 327.9147034
140.1668243 12.7126274 323.9527588
141.1419830 12.7109690 323.8483582
142.1164246 12.7109566 323.7520142
147.4617615 14.5859747 323.3826904
148.1199799 15.0363617 323.3707275
149.7773132 16.6925793 323.3685608
150.2755280 17.4094009 323.3869324
150.7237091 18.1463585 323.4164124
151.1375732 18.9621162 323.4615173
151.5024261 19.8838634 323.5217896
151.7890625 20.8451061 323.5949707
-55.6734657 -19.3499699 340.2145996
-54.7281456 -19.0804443 340.1364136
-53.8796310 -18.6989193 340.0950317
-53.0723839 -18.2671204 340.0598755
-52.3180008 -17.7904510 340.0198059
-51.6431084 -17.2173176 340.0225220
-51.0148773 -16.6095600 340.0103760
-50.4822998 -15.9469213 340.0286255
-49.9815979 -15.1918402 340.0559998
-49.5451279 -14.3616476 340.0986938
-49.2099075 -13.4851198 340.1443481
-48.9357872 -12.5168438 340.2099609
-48.7437096 -11.4251537 340.2961731
-6.6803226 -13.8960581 335.6915283
-5.6750722 -13.7434912 335.5998840
-4.7382655 -13.5286140 335.5166626
-3.8799067 -13.2206736 335.4647827
-3.0242150 -12.8687830 335.4101868
-0.8278551 -11.5131893 335.3308716
-0.1820883 -10.9774303 335.3111572
0.3907156 -10.3631563 335.3279419
0.9208774 -9.6951666 335.3335266
1.4486938 -8.9883575 335.3592529
1.9448723 -8.3056507 335.3775024
2.4139295 -7.5259495 335.4125671
2.8253615 -6.6654196 335.4495850
3.1502175 -5.7551780 335.5116882
3.4089072 -4.7650094 335.5961609
3.6014886 -3.7129424 335.6780396
3.6891654 -2.4977257 335.8005676
40.9378929 -6.3939328 331.5225525
42.0354004 -6.3869233 331.4084778
51.8501205 -1.4142908 330.9078064
52.3579025 -0.7170903 330.9287720
54.5706482 5.8408146 331.3833313
54.5881271 7.2635736 331.5316467
90.9139938 2.6418951 327.2721252
98.3962784 4.6955919 326.7085571
99.0334091 5.1574631 326.6927185
101.8795700 8.1495266 326.7098999
102.3158188 8.8865643 326.7373657
103.4212570 11.4905891 326.9001465
103.6794968 12.5241966 326.9740906
103.8579788 13.6993027 327.0795593
140.7512665 13.2950487 323.1999817
141.7353516 13.2589865 323.1080627
147.1168976 15.0916462 322.7318726
147.7642517 15.5690870 322.7100525
149.4075928 17.2401276 322.7219543
149.8919220 17.9586048 322.7416077
150.3424072 18.7179928 322.7791748
150.7321014 19.5716324 322.8269653
151.0531006 20.5362320 322.8920288
151.3151245 21.5689526 322.9685669
-56.1000748 -20.1574497 339.3049011
-55.1152000 -19.9371929 339.2235413
-49.9890900 -16.4380379 339.0596619
-49.4946632 -15.7105818 339.0817566
-49.0303612 -14.9123974 339.1158142
-48.6475410 -14.0498457 339.1667480
-48.3423653 -13.1039276 339.2337341
-48.1135101 -12.0577145 339.3057251
-47.9748459 -10.9118862 339.4292908
-7.5262084 -14.2587729 334.9053650
-6.4465284 -14.1409836 334.7950134
-5.4856148 -13.9700184 334.7188416
-4.5901594 -13.7081909 334.6578064
-3.7314169 -13.3867302 334.6122742
-2.8666761 -13.0497055 334.5393677
0.5617878 -10.5431557 334.4457703
1.1244260 -9.8941450 334.4496765
1.6381583 -9.2074594 334.4825745
2.1282778 -8.4949665 334.4994812
3.3279033 -5.9349799 334.6451721
3.6043990 -4.9896870 334.7139893
3.8328083 -3.9683170 334.7922974
3.9508674 -2.7895410 334.8994141
3.9858170 -1.4485006 335.0539856
40.9130211 -6.3481164 330.7196960
42.0201797 -6.3458400 330.6046448
51.8116837 -1.3505716 330.1130371
52.3205986 -0.6655749 330.1318665
53.5642395 1.7172564 330.2511902
53.9144363 2.6571541 330.3131104
54.5140762 5.9168234 330.5901184
54.5349579 7.3453188 330.7357178
90.6386032 2.9756143 326.5518188
91.6808319 2.9664638 326.4491577
92.6155777 3.0283794 326.3528137
95.2640457 3.5579500 326.1400146
96.0314865 3.8633745 326.0839539
102.4720840 10.0153427 326.0580750
102.8337173 10.9037485 326.1156006
103.1621857 11.8618460 326.1818542
103.4085617 12.8821144 326.2692871
103.5651474 14.0822678 326.3761292
103.6367035 15.4488258 326.5019531
140.3008881 13.9601641 322.5556030
141.2800903 13.9307890 322.4673462
142.2293549 13.9664125 322.3785706
143.0730896 14.1062479 322.2964783
143.8544617 14.3031301 322.2366028
144.5993042 14.5506268 322.1853638
148.9720154 17.9077854 322.0697021
149.4586182 18.6230297 322.1005554
149.8915710 19.4155426 322.1404114
150.2431030 20.3160133 322.2004700
150.5278168 21.3402710 322.2738647
-56.6711159 -20.8336525 338.4201050
-55.6039543 -20.6511650 338.3266296
-54.6625404 -20.3869247 338.2592163
-49.5925827 -16.8564701 338.1013489
-49.0811234 -16.1330452 338.1325073
-48.5979881 -15.3589296 338.1592712
-48.1842155 -14.5260658 338.1963806
-47.8619232 -13.6083632 338.2665100
-47.6115570 -12.5893288 338.3328552
-47.4340591 -11.4986839 338.4311523
-7.3456097 -14.4336624 334.0211487
-6.2868500 -14.3170452 333.9252625
-5.3207688 -14.1288052 333.8435974
-4.4408441 -13.8599072 333.7799377
-3.5687010 -13.5391273 333.7259827
-2.7470565 -13.1837759 333.6799316
0.6800383 -10.6703053 333.5886230
1.2550244 -10.0185308 333.5989075
1.7760080 -9.3475485 333.6130066
2.2537587 -8.6228037 333.6420288
3.4536338 -6.0688157 333.7843323
3.7456081 -5.1310496 333.8507385
3.9905860 -4.1376085 333.9207764
4.1316042 -3.0116596 334.0217896
4.1840591 -1.7053901 334.1560669
40.8435707 -6.2652626 329.9248962
41.9585114 -6.2616701 329.8116150
51.7256546 -1.2558286 329.3268127
52.2306366 -0.5514534 329.3478088
53.4847336 1.8310151 329.4653320
53.8318710 2.7489588 329.5255127
54.4103088 6.0499778 329.8060303
54.4213943 7.4880896 329.9521179
91.3843460 3.3651831 325.7405396
92.3346252 3.4091949 325.6447449
94.9837418 3.9185700 325.4205933
95.7835236 4.2035890 325.3785400
102.1904526 10.3845072 325.3543091
102.5495300 11.3108568 325.4096680
102.8540039 12.2864447 325.4832458
103.0799866 13.3459148 325.5681152
103.2029724 14.5844803 325.6853638
140.7452240 14.7060242 321.8290710
141.7077789 14.7363167 321.7585754
142.5698242 14.8519840 321.6746521
143.3820801 15.0184584 321.6048279
144.1562805 15.2350826 321.5562134
148.4937134 18.6229420 321.4537964
148.9703217 19.3580608 321.4928894
149.3661804 20.2212868 321.5388794
-105.0607605 -24.9943810 342.0562744
-104.2465668 -24.5400753 342.0207214
-103.4828110 -23.9947166 341.9677734
-102.8810577 -23.3449173 341.9967651
-102.3300552 -22.6676273 342.0015259
-56.2633972 -21.2492905 337.4692078
-55.2259903 -21.0427322 337.3830261
-54.2978287 -20.7545319 337.3168640
-51.8000374 -19.5564842 337.1712341
-51.0900688 -19.0590878 337.1646729
-50.4409637 -18.4766788 337.1603699
-49.8238907 -17.8344955 337.1659851
-48.2472191 -15.7110901 337.2234192
-47.8232346 -14.8799095 337.2617798
-47.4862404 -14.0002604 337.3098450
-47.2205315 -12.9796457 337.4047546
-46.9989738 -11.9647121 337.4677734
-46.8457603 -10.8616533 337.5711060
-8.3640251 -14.5873299 333.2719421
-7.2425065 -14.5478735 333.1615601
-6.1869879 -14.4331245 333.0671082
-5.2159348 -14.2365541 332.9859009
-4.3367519 -13.9600344 332.9274292
-3.4872072 -13.6372881 332.8714600
-2.6867688 -13.2574911 332.8339539
-1.9384390 -12.8288460 332.7990417
-1.2019416 -12.3720818 332.7690735
-0.4896974 -11.8784914 332.7459717
0.1494146 -11.3307295 332.7394714
0.7475154 -10.7274656 332.7457275
1.3315363 -10.1057549 332.7421570
1.8497033 -9.4486341 332.7602234
2.3273144 -8.7161436 332.7880249
4.2980618 -1.8709067 333.2839966
41.8244362 -6.1084790 329.0325012
46.3496284 -5.1121683 328.6734009
47.1227646 -4.7399874 328.6318359
47.8746452 -4.3294477 328.5969238
48.5776253 -3.9024506 328.5695190
53.3557281 2.0018780 328.6889954
53.6972771 2.9310005 328.7501221
53.9679642 3.8883972 328.8218384
54.1716156 4.9767470 328.9121704
54.2629585 6.2354798 329.0324402
92.0045471 3.8516955 324.9452209
92.9217987 3.9342499 324.8543396
93.8221283 4.1004076 324.7777405
94.6967468 4.3213058 324.7224121
95.4733353 4.5904350 324.6633301
96.2579041 4.9214358 324.6203308
96.9651566 5.3133593 324.5875549
98.8961945 6.7365279 324.5337219
99.5190964 7.2808604 324.5325623
101.0701065 9.2589598 324.5776672
101.4967041 10.0082216 324.6105347
101.8739243 10.8251266 324.6582336
102.2116623 11.7679882 324.7141418
102.4910049 12.7803402 324.7848206
102.7070541 13.8677168 324.8795471
142.8232880 15.8485994 321.0057678
143.5941925 16.0673008 320.9469910
144.3674164 16.3535404 320.9039612
145.0723114 16.7290134 320.8560181
145.7448578 17.1374760 320.8345337
146.3597565 17.6524620 320.8141174
146.9440765 18.1990318 320.8229065
147.4516754 18.8086720 320.8299255
147.9184875 19.4844151 320.8545227
148.3519440 20.2796192 320.9008179
-104.1536560 -25.8685513 340.9672852
-103.3686447 -25.3893719 340.9326782
-102.6423340 -24.8011169 340.9304810
-101.9857788 -24.1876965 340.9138184
-101.4354935 -23.5161686 340.9269104
-100.9711838 -22.7155476 340.9761658
-100.5411758 -21.8886528 340.9959106
-100.2246170 -20.9704952 341.0500793
-99.9979553 -19.9085884 341.1421204
-55.9126778 -21.5968456 336.5229492
-54.8985977 -21.3571262 336.4419556
-54.0145683 -21.0375118 336.4030151
-51.5535545 -19.8242626 336.2726746
-50.8527298 -19.3032398 336.2506409
-50.1890488 -18.7294369 336.2350464
-49.5575638 -18.1032124 336.2354431
-47.9882545 -15.9697561 336.2993164
-47.5642014 -15.1701765 336.3300476
-47.2050552 -14.2962332 336.3866577
-46.9024010 -13.3018627 336.4675293
-46.6566048 -12.3150606 336.5323181
-46.5113525 -11.2147923 336.6321716
-46.4556923 -9.9771070 336.7533875
-8.2803268 -14.6682177 332.4152527
-7.1828585 -14.6213808 332.3104553
-6.1280556 -14.4965401 332.2165833
-5.1688428 -14.2849894 332.1413574
-4.2953844 -14.0072203 332.0813599
-3.4423099 -13.6776581 332.0285339
-2.6519012 -13.2831564 331.9853821
-1.9210962 -12.8561935 331.9656677
-1.1653556 -12.4009924 331.9305420
-0.4403897 -11.9108925 331.9023743
0.1778361 -11.3659487 331.8991699
0.7810566 -10.7849302 331.8937683
1.3822927 -10.1567516 331.8992310
1.9057535 -9.4927216 331.9116516
2.3790643 -8.7683430 331.9384766
4.3604326 -1.9367418 332.4349976
40.5250130 -5.8883734 328.3722229
41.6659966 -5.9000945 328.2604980
46.1828232 -4.9088125 327.9014282
46.9494133 -4.5307169 327.8602905
47.7093544 -4.1325951 327.8260193
48.4286690 -3.7114301 327.7993469
53.1818619 2.2172236 327.9220581
53.5197906 3.1511772 327.9809875
53.7899399 4.1195831 328.0545654
53.9828720 5.2133212 328.1495667
54.0593567 6.5009265 328.2717590
91.6404266 4.3427892 324.2596436
92.5729370 4.4111648 324.1728210
93.4733734 4.5698209 324.0903320
94.3512955 4.7755470 324.0222473
95.1613541 5.0271978 323.9665527
95.9498444 5.3611474 323.9206848
96.6421127 5.7635169 323.8897400
98.5847626 7.1675234 323.8459167
99.1868820 7.7366467 323.8377686
100.7048416 9.7464466 323.8774414
101.1204071 10.5169992 323.9153442
101.4991837 11.3538475 323.9692078
101.8258438 12.3095722 324.0333557
102.1004944 13.3075495 324.1005554
142.1439362 16.8665924 320.4324646
142.9255524 17.0629292 320.3690186
143.6880951 17.3441868 320.3203125
144.4231567 17.6864071 320.2862854
145.0926971 18.1185608 320.2581787
145.7394409 18.6116009 320.2470703
146.2942505 19.1760521 320.2431641
146.7883911 19.8052578 320.2481079
-104.2973557 -26.9590206 339.9779968
-103.4581833 -26.5303078 339.9328613
-101.3285141 -24.8136635 339.8949585
-100.7579651 -24.1575623 339.8995972
-100.2512512 -23.4071789 339.9179993
-99.8183136 -22.5785828 339.9656372
-99.4607391 -21.6909122 340.0137329
-99.2001495 -20.6839142 340.0851746
-99.0257339 -19.5592785 340.1713257
-56.7000351 -22.0315514 335.6937256
-55.6613007 -21.8556652 335.6086121
-54.6642036 -21.5981789 335.5318909
-53.7638931 -21.2813396 335.4707336
-52.9220467 -20.9119682 335.4280396
-52.0965958 -20.4882584 335.3846436
-51.3547707 -19.9976368 335.3591003
-50.6818848 -19.4699268 335.3551331
-48.8087540 -17.6548119 335.3479919
-48.2773285 -16.9252357 335.3732300
-46.9995575 -14.5247087 335.4705505
-46.6640358 -13.5540762 335.5451660
-46.3960800 -12.5769043 335.6131897
-46.2243690 -11.5098505 335.7055664
-46.1554337 -10.3028135 335.8170776
-46.1781044 -8.9059954 335.9751587
-8.2443466 -14.7032471 331.5687866
-3.4418445 -13.6721115 331.1905212
-2.6519380 -13.2844772 331.1506042
-1.8958634 -12.8580647 331.1145020
0.1915850 -11.3646059 331.0591736
4.1679311 -4.3192220 331.3730774
4.3200798 -3.2185185 331.4708862
4.3825164 -1.9553205 331.5927429
4.3585339 -0.4568857 331.7475281
41.4614868 -5.6473918 327.4993591
44.3079224 -5.2700009 327.2474670
45.1865845 -5.0100636 327.1871338
46.0055695 -4.6879005 327.1370850
46.7833786 -4.3209143 327.0964050
51.2419548 -0.6457382 327.0232849
51.7452202 0.0582091 327.0410767
52.9827728 2.4524064 327.1611023
53.3110962 3.4052901 327.2238464
53.5646553 4.4283504 327.2979126
53.7376480 5.5238271 327.3964539
53.8073502 6.8289680 327.5177612
91.1899109 4.9204092 323.5718384
92.1343231 4.9926534 323.4850769
93.0634079 5.1168122 323.3977051
95.5623398 5.8718619 323.2344055
96.2693481 6.2638702 323.1957703
99.3396912 8.8817778 323.1481934
99.8587189 9.5435514 323.1766663
100.3065720 10.2933664 323.1966248
100.7157288 11.0662804 323.2395935
101.0743561 11.9460011 323.2879333
101.3715286 12.9406624 323.3630066
142.8918915 18.5202045 319.7638855
144.2858734 19.3340454 319.7121277
144.9234619 19.8397312 319.6774292
145.4720917 20.4200401 319.6704407
-105.5708160 -28.2076607 339.0685120
-104.5993805 -27.8932171 339.0072937
-103.7171173 -27.4951935 338.9628601
-102.9316406 -27.0394211 338.9361572
-100.7976837 -25.3185291 338.8971863
-100.2183151 -24.6500111 338.9020386
-99.7227173 -23.8981190 338.9375610
-99.2607346 -23.1074104 338.9580383
-98.8766556 -22.2408562 339.0062561
-98.5838165 -21.2793465 339.0707397
-98.3741302 -20.1745110 339.1663818
-98.2206116 -19.1012573 339.2386780
-56.4855766 -22.2311745 334.7793884
-55.4595222 -22.0442905 334.6994629
-54.4761887 -21.7864952 334.6256714
-53.5909958 -21.4625759 334.5668640
-52.7621765 -21.0761452 334.5304871
-51.9433975 -20.6291180 334.4884949
-51.2215118 -20.1321316 334.4729614
-50.5289383 -19.6169395 334.4532166
-48.6466217 -17.8109474 334.4438477
-48.1308556 -17.1072655 334.4604492
-46.8321266 -14.6736174 334.5847778
-46.4829674 -13.7496805 334.6364136
-46.1964607 -12.7737608 334.7107239
-46.0027695 -11.7369671 334.7922974
-45.9103432 -10.5614080 334.8967285
-45.9324112 -9.2117300 335.0339966
-8.2774439 -14.6710920 330.7366638
-3.4802966 -13.6062794 330.3660278
-2.6881015 -13.2265491 330.3249512
-1.9438891 -12.8230963 330.2917175
0.1483203 -11.3177299 330.2347717
4.1181831 -4.2595282 330.5489807
4.2819867 -3.1557736 330.6444092
4.3601699 -1.9229355 330.7596436
4.3100162 -0.3798589 330.9206238
41.1708984 -5.3304281 326.7447205
44.0718727 -4.9859858 326.4948730
44.9681091 -4.7362823 326.4305115
45.8065071 -4.4271293 326.3797913
46.5772743 -4.0608382 326.3346558
50.9980545 -0.3438189 326.2622375
51.5184898 0.3523871 326.2906799
52.7374420 2.7617359 326.4089355
53.0572624 3.7380881 326.4751892
53.2959290 4.7577038 326.5528564
53.4499550 5.8850656 326.6550903
91.6696396 5.6274014 322.8216248
92.6250458 5.7182217 322.7404175
95.1037521 6.4783187 322.5513916
95.8531876 6.8297811 322.5249634
98.9215317 9.4421167 322.4799500
99.4219818 10.1487684 322.4967041
99.8575211 10.8859501 322.5259705
100.2553024 11.6809158 322.5756531
100.5700455 12.6151838 322.6480408
100.8002625 13.7155113 322.7079468
-106.0932999 -28.9488583 338.1541138
-105.0764389 -28.6899090 338.0763245
-104.1325302 -28.3473892 338.0186768
-103.2469940 -27.9220123 337.9641418
-102.4792252 -27.4488125 337.9517212
-100.3578568 -25.7295570 337.8956909
-99.7971725 -25.0529060 337.9143982
-99.2920380 -24.2897987 337.9542236
-98.8294601 -23.5120773 337.9783325
-98.4458313 -22.6727257 338.0308533
-98.1018829 -21.7334442 338.0771179
-97.8414307 -20.6856976 338.1657410
-97.6682434 -19.6282177 338.2411194
-97.6370316 -18.4418755 338.3598022
-97.7072906 -17.0731220 338.5263062
-56.3579254 -22.3690205 333.8861694
-55.3349571 -22.1807117 333.8057556
-54.3645248 -21.9009914 333.7366638
-53.4866829 -21.5450764 333.6883545
-52.6469193 -21.1659946 333.6375122
-51.8422890 -20.7352104 333.6017761
-51.1069603 -20.2535324 333.5790100
-50.4178314 -19.7500591 333.5593262
-48.5401192 -17.9147530 333.5614014
-48.0213737 -17.1989174 333.5804749
-45.7363815 -10.7227659 333.9989014
-45.7341728 -9.4117680 334.1291199
-8.3713264 -14.5814247 329.9158325
-1.9964592 -12.7274380 329.4699402
-1.2750025 -12.2939377 329.4413147
0.6690073 -10.6215382 329.4157410
1.2485738 -10.0022545 329.4210815
2.7239447 -7.8444638 329.4911499
3.1380088 -6.9949341 329.5348511
4.0239697 -4.1583576 329.7323914
4.2116113 -3.0744576 329.8209534
4.2914858 -1.8548305 329.9351501
4.2179155 -0.2532296 330.1006165
40.8764725 -4.9659553 326.0050964
41.9411507 -4.9308176 325.9052124
42.8631973 -4.8132243 325.8172913
43.7561340 -4.6369333 325.7446899
44.6922760 -4.4032221 325.6794128
47.0647850 -3.3300805 325.5540161
47.7650757 -2.8971517 325.5243530
50.7361031 -0.0041718 325.5142517
51.2490883 0.6832753 325.5464478
52.4455376 3.1386883 325.6662903
52.7516403 4.1206436 325.7364197
52.9714470 5.1663537 325.8165894
53.1011467 6.3238149 325.9258728
91.0687408 6.3815546 322.1431885
92.0446930 6.4674168 322.0742493
92.9903107 6.6063185 322.0208435
93.7877045 6.8707318 321.9441223
94.6082458 7.1636400 321.8985901
95.3355789 7.5042868 321.8516846
97.3009186 8.9006252 321.7984924
97.9076843 9.4829121 321.8058472
98.4277725 10.1447496 321.8135071
98.8931885 10.8559980 321.8421021
99.3148117 11.6313734 321.8819275
99.6558609 12.4980659 321.9270630
99.9198608 13.5031176 321.9871826
-105.6543350 -29.3447037 337.1731567
-104.6582947 -29.0646324 337.0977783
-103.7413330 -28.7055435 337.0517578
-102.8872452 -28.2693882 337.0107117
-102.1209641 -27.7915955 336.9717102
-100.0288391 -26.0481129 336.9465332
-99.4636230 -25.3822441 336.9515076
-98.9405136 -24.6355743 336.9822693
-98.4691010 -23.8590546 337.0005493
-98.0710373 -23.0054798 337.0666504
-97.6937256 -22.1275005 337.0898743
-97.4147110 -21.1040173 337.1858215
-97.2190094 -20.0563030 337.2643127
-97.1180115 -18.9432983 337.3546753
-97.1580048 -17.6352711 337.4855957
-57.3660126 -22.5731468 333.0972595
-56.2665138 -22.4595375 333.0010986
-55.2566414 -22.2488594 332.9220886
-54.2939529 -21.9446049 332.8568420
-53.4381561 -21.5917130 332.8151855
-52.5804596 -21.2205429 332.7572937
-51.7816658 -20.7990856 332.7253418
-51.0302658 -20.3167515 332.6996460
-50.3468628 -19.8002644 332.6824646
-48.4933281 -17.9658718 332.6823425
-47.9601517 -17.2594795 332.6987610
-45.6376991 -10.8272438 333.1112061
-45.6222763 -9.5237074 333.2378845
-8.4930391 -14.4487162 329.1019287
-2.1270838 -12.5964470 328.6606445
-1.4010953 -12.1487923 328.6345215
0.5555329 -10.4923897 328.6072693
1.1278390 -9.8566532 328.6133118
2.5933652 -7.7055788 328.6830444
3.0028234 -6.8235936 328.7278137
3.8789556 -3.9964435 328.9240417
4.0778952 -2.9172101 329.0109558
4.1562090 -1.7012444 329.1255188
42.5389175 -4.4095592 325.0815735
43.4728279 -4.2524328 325.0112305
44.3846245 -4.0320983 324.9425354
46.7548447 -2.9630785 324.8065796
47.4893417 -2.5414040 324.7919617
50.4359436 0.3806792 324.7768860
50.9298172 1.0923243 324.8047180
52.0993462 3.5689826 324.9347839
52.3817520 4.5796590 325.0102234
52.5763855 5.6614671 325.0973511
92.3509674 7.4564176 321.3674011
93.1825943 7.6866732 321.3147583
94.0018082 7.9558086 321.2528076
94.7943268 8.2575064 321.2172241
96.7446899 9.6548891 321.1556396
97.3256531 10.2704840 321.1618042
97.8124313 10.9668198 321.1738586
98.2447128 11.7496042 321.1988525
98.6444931 12.5711384 321.2550659
98.9900742 13.4160395 321.3237305
-107.5487442 -30.0260086 336.3877258
-106.3965683 -29.8794327 336.2928772
-105.3198242 -29.6493607 336.2103271
-104.3302460 -29.3461075 336.1322937
-103.4406586 -28.9751835 336.0874023
-102.6088791 -28.5393734 336.0515747
-101.8390198 -28.0507736 336.0314636
-101.1117325 -27.5183945 336.0079041
-100.4065247 -26.9237041 335.9950256
-98.6542206 -24.8993587 336.0228577
-98.1884155 -24.1183090 336.0545654
-97.7855453 -23.2931080 336.1097717
-97.3917770 -22.4203300 336.1450500
-97.0876389 -21.4396362 336.2140808
-96.8758392 -20.3869915 336.3043518
-96.7401505 -19.2967777 336.3912659
-96.7211456 -18.0612831 336.5021973
-96.8418732 -16.6416931 336.6621704
-57.2819977 -22.6194592 332.2116699
-56.2340126 -22.4872646 332.1262207
-55.2526817 -22.2631531 332.0538635
-54.2728920 -21.9639969 331.9837036
-53.4197884 -21.6184902 331.9424438
-52.5701828 -21.2381878 331.8925476
-51.7681160 -20.8059006 331.8570862
-45.6101494 -10.8482676 332.2392273
-45.5770073 -9.5800896 332.3583069
-45.6391525 -8.1283321 332.5126648
-8.6759148 -14.2429438 328.2990112
-7.5788093 -14.1692314 328.2021484
-6.5168700 -14.0432224 328.1090698
-3.8456368 -13.2062540 327.9291687
-3.0309861 -12.8258200 327.8864136
-0.8600920 -11.4379768 327.8140259
-0.2190157 -10.8818092 327.8052673
0.3775341 -10.2902498 327.8077087
0.9486085 -9.6517172 327.8120117
1.4816388 -8.9921436 327.8262329
1.9746282 -8.2943430 327.8479309
3.6969092 -3.7837226 328.1243286
3.8861728 -2.7070549 328.2134399
3.9595544 -1.4892932 328.3297424
42.1477509 -3.9370387 324.3561707
43.0974922 -3.8072002 324.2776489
44.0195618 -3.5934200 324.2107544
50.0914993 0.8249584 324.0427856
50.5705185 1.5450066 324.0780640
50.9991722 2.3195434 324.1097107
51.3673935 3.1168714 324.1621704
51.6927299 4.0863113 324.2133484
51.9560432 5.1348243 324.2944641
52.1217232 6.2349367 324.3870239
92.4624405 8.6535177 320.6932983
93.3030472 8.8962183 320.6406860
94.0957031 9.1926327 320.5925598
94.7767868 9.5894899 320.5573120
95.4121399 10.0418911 320.5450745
96.0489044 10.5910692 320.5415344
96.6091537 11.2453566 320.5465393
97.0842209 11.9206038 320.5786133
97.5068512 12.7436352 320.6198730
-107.2416992 -30.3038578 335.4320984
-106.0935822 -30.1386814 335.3332214
-105.0750504 -29.8748627 335.2715759
-104.1525955 -29.5416336 335.2219849
-103.2330322 -29.1672173 335.1600647
-102.3766632 -28.7450123 335.1093750
-101.6202240 -28.2586708 335.0860291
-100.9019623 -27.7096424 335.0708923
-100.2069244 -27.0928841 335.0655212
-98.4526138 -25.0828915 335.0903015
-97.9843979 -24.3045406 335.1259460
-97.5590897 -23.5044022 335.1629944
-97.1640701 -22.6365471 335.2040405
-96.8419342 -21.6497803 335.2767944
-96.6086273 -20.6615887 335.3451843
-96.4536896 -19.5800724 335.4379883
-96.4003677 -18.3522625 335.5561523
-96.4821701 -17.0062199 335.6827698
-57.2867012 -22.6174870 331.3465271
-56.2545433 -22.4637794 331.2625122
-55.2607384 -22.2450676 331.1881714
-54.2721672 -21.9568882 331.1178284
-53.4062958 -21.6063805 331.0707397
-52.5862923 -21.2115345 331.0304260
-51.7905884 -20.7674084 330.9962769
-45.6336174 -10.8222256 331.3749390
-45.5796165 -9.5551014 331.4930725
-45.6484337 -8.1166639 331.6418457
-8.9186316 -13.9839029 327.5054626
-7.8039894 -13.9168215 327.4085999
-6.7244749 -13.8035431 327.3156738
-4.0347300 -12.9925222 327.1330566
-3.2218714 -12.6234694 327.0958557
-1.0664008 -11.2159319 327.0243835
-0.4328496 -10.6216412 327.0134583
0.1654749 -10.0437422 327.0120850
0.7535307 -9.4372253 327.0180359
1.2958111 -8.7772064 327.0285950
1.7718786 -8.0712252 327.0528564
3.4802744 -3.5237617 327.3319397
3.6426983 -2.4202204 327.4247437
3.6962986 -1.1763604 327.5414429
41.6945992 -3.3813615 323.6596375
42.6559715 -3.2745969 323.5660095
43.6011124 -3.0718510 323.4908142
49.6895752 1.2904843 323.3342590
50.1575470 2.0602586 323.3561096
50.5695992 2.8655503 323.3913574
50.9235764 3.6963534 323.4413757
51.2371750 4.6472588 323.5119934
51.4618912 5.7483344 323.5994568
51.5978241 6.9059114 323.6900024
93.8897705 10.7519970 319.9808655
94.5470276 11.2179050 319.9612427
95.1911163 11.7562294 319.9512024
95.7216797 12.4351387 319.9489746
-108.2028198 -30.6291122 334.5994568
-107.0210800 -30.5129700 334.4910889
-105.8942566 -30.3310261 334.3984680
-104.8722153 -30.0369568 334.3261719
-103.9647598 -29.7009315 334.2809143
-103.0502701 -29.3238640 334.2197571
-98.3037949 -25.2290535 334.1703186
-97.8231506 -24.4596901 334.1938171
-97.3980637 -23.6539478 334.2359314
-97.0187531 -22.7686825 334.2814331
-96.6847458 -21.8012733 334.3434753
-96.4275360 -20.8289318 334.4163208
-96.2485962 -19.7756710 334.5002747
-96.1678009 -18.5807819 334.6073914
-96.2262497 -17.2342148 334.7431641
-96.4200897 -15.7166624 334.9144592
-57.3551178 -22.5472050 330.4920349
-48.5706596 -17.8457088 330.1047974
-48.0439262 -17.1420631 330.1228943
-47.5451202 -16.3925648 330.1476135
-47.1081085 -15.6190767 330.1812439
-46.7222214 -14.7733011 330.2268982
-46.3757401 -13.8525047 330.2825317
-46.0760765 -12.8799896 330.3486938
-45.8632965 -11.8737631 330.4265747
-45.7162247 -10.7331781 330.5239563
-45.6477890 -9.4817934 330.6390076
-45.7205124 -8.0321741 330.7851257
-8.0888824 -13.6179457 326.6228638
-6.9772172 -13.5089207 326.5298157
-6.0413880 -13.2949696 326.4504700
-5.1506987 -13.0298090 326.3965454
-2.7246072 -11.9433594 326.2754822
-2.0029254 -11.4751120 326.2480774
-1.3143059 -10.9184847 326.2399597
-0.6743087 -10.3468723 326.2268372
-0.0473708 -9.7971840 326.2278442
0.5396941 -9.1742287 326.2252808
1.0625136 -8.5142212 326.2455444
1.5237836 -7.7854028 326.2694702
2.7082686 -5.2065926 326.4075928
2.9920714 -4.2445817 326.4691467
3.2192383 -3.2208049 326.5514221
3.3493099 -2.0993998 326.6482544
41.1343079 -2.7215278 322.9518738
42.1473122 -2.6488075 322.8736267
43.1185036 -2.4794633 322.7883301
43.9983749 -2.2288013 322.7248840
44.8021851 -1.8990228 322.6709290
46.9295883 -0.6079010 322.5963440
47.5898895 -0.1076638 322.5995178
49.2217789 1.8701481 322.6189575
49.6874123 2.6552615 322.6452026
50.0893593 3.4614098 322.6974487
50.4239502 4.3339682 322.7471619
50.6821938 5.3211880 322.8244324
-106.8621445 -30.6532288 333.5619202
-105.7481384 -30.4442406 333.4744873
-104.7419357 -30.1486893 333.4088745
-103.8331375 -29.8109398 333.3573914
-102.9510269 -29.4159031 333.3141479
-98.1933823 -25.3272114 333.2504883
-97.7147751 -24.5488663 333.2862549
-97.3064880 -23.7460556 333.3214111
-96.9255219 -22.8537903 333.3746338
-96.5756989 -21.9075298 333.4307251
-96.3048630 -20.9202366 333.5017395
-96.1165466 -19.8802147 333.5813293
-96.0058670 -18.7155514 333.6819763
-96.0386505 -17.3943119 333.8104248
-96.2176895 -15.9291964 333.9678040
-57.4701691 -22.4204884 329.6467896
-48.6808853 -17.7346859 329.2597961
-48.1579094 -17.0227489 329.2792664
-47.6655006 -16.2593861 329.3077393
-47.2394981 -15.4795828 329.3410645
-46.8507462 -14.6363316 329.3835144
-46.4900627 -13.7355385 329.4387207
-46.1889801 -12.7490492 329.5036926
-45.9862900 -11.7251596 329.5826416
-45.8402863 -10.5712318 329.6790771
-45.7755127 -9.3417845 329.7952881
-45.8533134 -7.9037371 329.9386597
-8.3847456 -13.2664661 325.8488770
-7.2879000 -13.1726980 325.7566223
-6.3254886 -12.9697828 325.6774597
-5.4282966 -12.7114573 325.6126099
-3.0022523 -11.6134653 325.4869690
-2.2741024 -11.1308718 325.4721375
-1.5865779 -10.5981932 325.4547729
-0.9405345 -10.0511503 325.4421387
-0.3196396 -9.4660416 325.4501038
0.2562598 -8.8353987 325.4548950
0.7655262 -8.1737480 325.4680176
1.2320354 -7.4538217 325.4880371
2.4247854 -4.8582277 325.6235046
2.6923251 -3.8998997 325.6948853
2.8922062 -2.8504152 325.7816467
2.9806819 -1.6727141 325.8789063
41.5241318 -1.9168847 322.1714172
42.5498466 -1.7902341 322.1073303
43.4617310 -1.5646046 322.0371094
44.2877388 -1.2681257 321.9867554
46.4195900 0.0157518 321.8988647
47.0564117 0.5400063 321.8920898
48.6969452 2.5203323 321.9297180
49.1449623 3.3099961 321.9650879
49.5080109 4.1846128 322.0041504
49.8042793 5.0990863 322.0739746
50.0153770 6.1713262 322.1505432
-107.9472122 -30.8438721 332.7477112
-106.8148193 -30.7190685 332.6566162
-100.6210632 -27.9695091 332.3349915
-99.9243622 -27.3647480 332.3237000
-99.2861481 -26.7343121 332.3236694
-98.6982269 -26.0791874 332.3297119
-98.1455994 -25.3579826 332.3471069
-97.6621475 -24.5944462 332.3703003
-97.2375183 -23.7934132 332.4106750
-96.8475571 -22.9317913 332.4549255
-96.5000839 -21.9750214 332.5135498
-96.2389984 -20.9890919 332.5862427
-96.0408554 -19.9452801 332.6672668
-95.9126663 -18.8044739 332.7657776
-95.9190903 -17.5202065 332.8866882
-96.0944214 -16.0482178 333.0433350
-58.8544731 -22.2740746 328.9247742
-57.6589203 -22.2399826 328.8123169
-56.6127777 -22.1036091 328.7244568
-55.5774803 -21.8855953 328.6495667
-54.6281853 -21.6048222 328.5835571
-53.7182541 -21.2671032 328.5350647
-48.8326149 -17.5672588 328.4278259
-48.3168182 -16.8535385 328.4421387
-47.0030594 -14.4692001 328.5483398
-46.6320992 -13.5614424 328.6016846
-46.3385124 -12.5994301 328.6662292
-46.1399078 -11.5731707 328.7460632
-46.0069656 -10.4119778 328.8450012
-45.9611778 -9.1560431 328.9652405
-8.7801285 -12.8471107 325.0796814
-7.6432137 -12.7678432 324.9942017
-6.6569552 -12.6054010 324.9064636
-5.7411966 -12.3658752 324.8426819
-4.8597651 -12.0639095 324.7880859
-4.0623026 -11.6937542 324.7550659
-3.3373029 -11.2618694 324.7273254
-2.6279101 -10.7708864 324.6987610
-1.9117697 -10.2444916 324.6833191
-1.2692164 -9.6803780 324.6706543
-0.6617151 -9.0857811 324.6670837
-0.0879014 -8.4529829 324.6703491
1.3707895 -6.2875304 324.7534790
1.7675438 -5.4070759 324.8048096
2.0744932 -4.4717927 324.8643188
2.3138406 -3.4459071 324.9326172
2.4804037 -2.3596907 325.0259399
2.5405657 -1.1817207 325.1376343
42.8143883 -0.7729504 321.3563232
43.6760292 -0.5186844 321.3142090
44.4537125 -0.1414814 321.2616577
45.1722603 0.2779863 321.2385559
45.8177261 0.7628238 321.2151489
46.4552917 1.2913585 321.2052917
47.0801315 1.8821653 321.2160645
47.5907936 2.5702257 321.2226257
48.0555916 3.2947984 321.2536621
48.4669533 4.1263051 321.2977600
48.7969017 5.0619168 321.3468628
-107.9265976 -30.8599510 331.8448792
-106.7799072 -30.7314262 331.7487793
-100.6172180 -27.9510517 331.4372559
-99.9087830 -27.3559780 331.4224243
-99.2840118 -26.7283783 331.4285583
-98.7031326 -26.0606670 331.4368896
-98.1555405 -25.3384361 331.4541321
-97.6650696 -24.5813408 331.4812012
-97.2354584 -23.8082333 331.5131836
-96.8382797 -22.9420376 331.5582275
-96.5013428 -21.9618969 331.6215515
-96.2369232 -20.9812794 331.6898193
-96.0409927 -19.9485722 331.7681885
-95.9133759 -18.7930717 331.8683472
-95.8879471 -17.5322723 331.9855957
-96.0395584 -16.1050186 332.1330872
-57.8776665 -22.0068703 327.9868774
-56.8025780 -21.8868847 327.8974915
-55.7915993 -21.6798992 327.8201599
-54.8101234 -21.3990631 327.7536316
-53.9198799 -21.0686684 327.7050171
-49.0299301 -17.3492165 327.5950012
-48.5034561 -16.6503162 327.6197510
-47.1937561 -14.2757893 327.7169189
-46.8363228 -13.3456125 327.7732849
-46.5499268 -12.3609781 327.8415527
-46.3681679 -11.3118172 327.9234924
-46.2507706 -10.1221304 328.0216980
-46.2310219 -8.8349705 328.1471863
-8.1095476 -12.2627592 324.2381287
-7.0583315 -12.1490269 324.1533813
-6.1315608 -11.9369326 324.0815735
-5.2314677 -11.6296806 324.0265503
-4.4597130 -11.2502985 323.9809570
-3.7418909 -10.8216953 323.9541321
-3.0145304 -10.3273315 323.9233093
-2.2677052 -9.8323212 323.9356384
-1.6344653 -9.2864618 323.9126892
-1.0156192 -8.6939001 323.9113770
-0.4655178 -8.0403805 323.9239807
0.9614307 -5.8144164 323.9987793
1.3441123 -4.9290133 324.0516052
1.6413836 -3.9646909 324.1084900
1.8626224 -2.9284916 324.1835327
1.9924006 -1.8094864 324.2821045
42.0265388 0.1781121 320.7031250
42.9055824 0.4213322 320.6694641
43.6964378 0.7616909 320.6108398
44.4490204 1.1501683 320.5827026
45.1112480 1.6246432 320.5547485
45.7436028 2.1490326 320.5498047
46.3403854 2.7851913 320.5561218
46.8452301 3.4945028 320.5810852
47.2790451 4.2599168 320.6209717
47.6356506 5.1747999 320.6662903
-107.9652100 -30.8195400 330.9540100
-106.8000183 -30.6986504 330.8557129
-102.1319885 -28.9269619 330.5888672
-101.3960419 -28.4258251 330.5675354
-100.6724930 -27.8945789 330.5504456
-99.9622116 -27.3174477 330.5382080
-96.0949860 -19.8801041 330.8821716
-95.9561310 -18.7591991 330.9756775
-95.9171600 -17.5023537 331.0907593
-96.0497284 -16.1066647 331.2342834
-57.0719490 -21.6042213 327.0785217
-56.0391121 -21.4142780 327.0021973
-55.0518150 -21.1461830 326.9330750
-54.1860809 -20.8067455 326.8796082
-49.2732468 -17.0982990 326.7728577
-48.7359467 -16.3906631 326.7911072
-48.2556038 -15.6459761 326.8214111
-47.8210182 -14.8673353 326.8568115
-47.4432602 -14.0130825 326.8988953
-47.1037941 -13.0595198 326.9553223
-46.5511742 -9.8131113 327.2127075
-46.5751686 -8.4947338 327.3450928
-46.7460327 -6.9381700 327.4913635
-8.6124735 -11.6946774 323.4996033
-7.5506520 -11.5863314 323.4113159
-6.5891128 -11.3987331 323.3397827
-5.7042818 -11.1148043 323.2789001
-4.9011374 -10.7620087 323.2399902
-4.1443043 -10.3513680 323.2144165
-3.4317412 -9.8762321 323.1825256
-2.7126627 -9.3452463 323.1726685
-2.0515530 -8.7906446 323.1669922
-1.4510332 -8.2049561 323.1605530
-0.9102215 -7.5250487 323.1646423
-0.4095381 -6.8479857 323.1882019
0.0620295 -6.1296253 323.2171936
0.4779352 -5.2765231 323.2456970
0.8570388 -4.3705039 323.3046265
1.1496381 -3.3901112 323.3747559
1.3427442 -2.3419380 323.4595642
1.4323847 -1.1707339 323.5597534
41.9210930 1.6080034 320.0329590
42.7812805 1.8809422 319.9780273
43.5617981 2.2501609 319.9669189
