-97.4676514 -20.5415840 274.6712646
-97.2600174 -19.5607891 274.6970825
-97.1253891 -18.5925617 274.7506104
-97.0799103 -17.5089607 274.8032837
-97.1680527 -16.2785740 274.8623047
-97.4297485 -14.9280071 274.9303589
-105.4574509 -28.1820927 273.8693848
-104.4386063 -27.8297272 273.8221436
-103.5004883 -27.3687115 273.7797241
-102.6217194 -26.8471069 273.7637939
-101.8833389 -26.2755451 273.7359009
-101.1678543 -25.6721649 273.7349243
-99.4296951 -23.6576710 273.7411194
-98.9504623 -22.8448811 273.7538147
-98.5598068 -21.9880600 273.7556152
-98.2262573 -21.1168423 273.7851257
-97.9568329 -20.1801872 273.8157654
-97.7637863 -19.2087421 273.8529968
-97.6707153 -18.1706409 273.8840332
-97.6721420 -17.0396328 273.9312439
-97.8219452 -15.7838316 274.0064392
-106.1572495 -27.6881657 273.0156860
-105.0560684 -27.3630047 272.9804688
-104.1060333 -26.9244099 272.9384766
-103.1949234 -26.4287987 272.9187317
-102.4358215 -25.8705292 272.8924866
-101.7316971 -25.2571278 272.8728027
-100.0238953 -23.2187653 272.8640747
-99.5182114 -22.4203396 272.8939514
-99.1009445 -21.5960445 272.9150696
-98.7984467 -20.6836243 272.9215393
-98.5533142 -19.7353325 272.9559631
-98.3920364 -18.7312870 272.9889832
-98.3216705 -17.6961365 273.0364990
-98.3957520 -16.5049324 273.0941162
-98.6521835 -15.1432219 273.1588745
-105.8714828 -26.8091812 272.1043701
-104.8563614 -26.3787041 272.0956421
-103.9288788 -25.8906345 272.0582886
-103.0876923 -25.3799171 272.0483704
-102.3798676 -24.7800388 272.0227966
-101.7390366 -24.1360016 272.0199585
-101.1685791 -23.4762745 272.0299988
-100.6876144 -22.7271767 272.0140991
-100.2099380 -21.9018002 272.0235291
-99.7992783 -21.0697460 272.0532532
-99.4845810 -20.1771049 272.0757446
-99.2821274 -19.1785641 272.0925903
-99.1605988 -18.1712551 272.1459045
-99.1623611 -17.0645332 272.1981812
-99.3236160 -15.8062048 272.2575684
-105.7582855 -25.7367401 271.2299500
-104.7957840 -25.2595348 271.2235413
-103.9328537 -24.7574539 271.2077942
-103.1831131 -24.1917362 271.1978455
-102.5878754 -23.5431843 271.1630859
-101.9591751 -22.8855362 271.1836548
-101.4532089 -22.1583881 271.1823730
-100.9946976 -21.3179016 271.1928406
-100.6034088 -20.4610310 271.2062378
-100.2988281 -19.5611324 271.2395935
-100.1622391 -18.5222969 271.2691345
-100.1285019 -17.4503670 271.3262024
-105.0041733 -24.0033588 270.3630981
-104.2302170 -23.4353390 270.3685303
-103.5555725 -22.8253937 270.3680115
-102.9614868 -22.1667175 270.3533020
-102.4349899 -21.4512196 270.3638000
-101.9835205 -20.5821133 270.3684387
-101.6195068 -19.7042751 270.3900146
-101.3914261 -18.7642136 270.4271240
-101.3511429 -17.6323624 270.4497681
-104.2100983 -21.2546997 269.5242920
-103.3111954 -19.6134453 269.5720825
-103.0200882 -18.6620083 269.5663147
146.5669403 18.9149132 241.7269592
147.0057373 19.5476532 241.7640533
145.7431030 16.3457890 240.9377289
146.3741150 16.7687893 240.9411774
147.0017853 17.2434940 240.9180756
147.5537567 17.8176746 240.9167938
148.0053406 18.4258766 240.9230194
148.4178162 19.1176414 240.9353485
148.7693481 19.9041672 240.9628906
144.9601135 14.8693533 240.1991882
145.7472229 15.1626205 240.1795502
146.4935760 15.5122519 240.1544495
147.1178741 15.9523287 240.1651306
148.7741241 17.5746231 240.1477661
149.1911316 18.2449875 240.1551666
149.5685425 19.0127373 240.1636200
149.8935089 19.7924213 240.1901855
144.8533020 13.8830557 239.4240723
145.6219940 14.1431494 239.4141388
146.3808594 14.4724474 239.4022522
147.0747528 14.8523912 239.3980560
147.7360382 15.2774582 239.3879395
149.3842468 16.8946934 239.3900146
149.8363800 17.5306759 239.3802490
150.2273254 18.2624264 239.3865967
150.5665894 19.0327759 239.4017029
144.5988770 13.0436220 238.6818237
145.4395752 13.2546101 238.6571960
149.8869171 16.3390484 238.6250305
150.3340912 16.9585304 238.6228333
150.7484283 17.6905689 238.6394806
151.1295624 18.3971996 238.6265869
151.4246826 19.1993542 238.6441803
151.6788940 20.0891953 238.6604462
151.8765411 21.0854893 238.7110901
144.1840210 12.3282356 237.9337463
145.0853119 12.5071077 237.9198914
145.8943787 12.7553959 237.9025574
150.3077850 15.8705444 237.8637543
150.7665405 16.4840164 237.8654633
151.2005005 17.1774406 237.8738708
151.5928040 17.8918800 237.8839874
151.9170990 18.6594086 237.8903198
152.1972961 19.5213699 237.8985901
152.4093475 20.4602013 237.9189453
152.5493622 21.4535313 237.9512939
144.6197510 11.8551302 237.1829529
151.5854187 16.7484665 237.1180573
151.9843750 17.4541206 237.1268463
152.8550568 19.9398079 237.1535797
153.0051117 20.9230766 237.1844940
153.0980988 21.9761162 237.2201996
-104.0883636 -21.0353279 242.1363525
143.1386566 11.2018900 236.4751434
144.0831757 11.3012342 236.4494324
144.9925995 11.4612312 236.4242096
151.8961334 16.4026852 236.3681793
152.3104248 17.0813065 236.3748779
153.2108765 19.5654011 236.4351349
153.4150696 20.4483509 236.4303436
153.5298462 21.4584999 236.4512482
153.5699615 22.6356697 236.4966583
-105.4590149 -24.5127907 241.1547089
143.4960632 10.8302031 235.7131805
152.1468506 16.1291580 235.6449738
152.5858307 16.7860527 235.6313324
152.9536591 17.5094032 235.6368713
153.2608337 18.3331909 235.6530304
153.5345154 19.1818848 235.6643066
153.7594910 20.0610771 235.6796570
153.8902740 21.0755234 235.7068634
153.9361267 22.1867046 235.7259369
-105.2292023 -25.8198776 240.2081604
-104.2877579 -25.3757820 240.1889191
-103.4583130 -24.8821602 240.1788330
-102.7281189 -24.2809410 240.1793365
-102.1067200 -23.6024990 240.1959229
-101.5723343 -22.8853054 240.1952820
-101.1345901 -22.1183701 240.1961823
-100.7332306 -21.2575798 240.1811676
-100.4099274 -20.3385887 240.1985474
-100.1847153 -19.4238987 240.2182007
-100.1573944 -18.2835808 240.2550812
-100.2372742 -17.0370998 240.3244171
142.7645264 10.4702377 234.9949493
143.7556763 10.5369911 234.9706573
152.3796997 15.8607044 234.8854980
152.8168945 16.5173187 234.8934021
153.1912689 17.2446899 234.8977356
153.5096588 18.0501747 234.9145355
153.7934265 18.8998661 234.9297180
154.0234222 19.7652760 234.9400940
154.1788330 20.7306786 234.9570160
154.2525787 21.8098202 234.9836273
154.2842102 22.9784222 235.0173645
-105.2545013 -26.9310703 239.2522736
-104.2477036 -26.5307541 239.2442322
-103.3526764 -26.0498867 239.2370300
-102.5720367 -25.5125980 239.2284698
-101.8989868 -24.8947906 239.2336884
-101.2953873 -24.2153320 239.2405853
-100.7191391 -23.5291004 239.2253876
-100.2422104 -22.7763290 239.2273407
-99.8466263 -21.9006119 239.2477264
-99.5178299 -21.0276527 239.2663574
-99.2517853 -20.1339512 239.2737579
-99.1347580 -19.0692692 239.2923279
-99.1490784 -17.9086590 239.3126068
-99.2644119 -16.6804676 239.3882751
142.9886017 10.2198992 234.2497711
143.9839020 10.2915440 234.2240601
150.5670929 13.3122473 234.1413574
151.1207275 13.8562317 234.1374817
154.4139404 20.4729729 234.2184143
154.5268250 21.5064316 234.2331238
154.5813446 22.6095867 234.2620544
-105.5094147 -27.8537693 238.3256683
-104.4575806 -27.5276299 238.3205414
-103.4921799 -27.0778465 238.3076935
-102.6508255 -26.5650864 238.3097076
-101.9089050 -26.0043125 238.2963867
-101.2665939 -25.3772697 238.3031769
-100.6339798 -24.7128925 238.2910461
-100.0604553 -24.0018539 238.3047943
-99.5783310 -23.2603664 238.3028412
-99.1817780 -22.4055004 238.3304138
-98.8135605 -21.5473404 238.3208771
-98.5532455 -20.6265831 238.3547974
-98.3819809 -19.6204529 238.3687134
-98.3257294 -18.5166073 238.3819427
-98.3524475 -17.3874550 238.4073792
143.1912842 9.9993725 233.5020599
144.1571045 10.0844545 233.4866791
150.6972351 13.1601467 233.4048767
151.2563477 13.6952448 233.4028168
154.6141357 20.2407265 233.4758606
154.7440491 21.2779331 233.4971771
154.8014069 22.3551865 233.5194397
154.7399445 23.6625175 233.5536804
-104.7975464 -28.3757019 237.3916473
-103.8223724 -27.9869442 237.3880615
-102.9163208 -27.5097160 237.3794556
-102.0717926 -26.9820633 237.3654327
-101.3633118 -26.4110527 237.3778381
-100.6786957 -25.7707920 237.3585510
-98.2438583 -21.9671917 237.3928528
-97.9660263 -21.0632877 237.4149933
-97.7569122 -20.0855637 237.4214935
-97.6675949 -18.9974689 237.4551239
-97.6730728 -17.8865452 237.4818573
-97.7709961 -16.7216415 237.4985809
142.3570251 9.7706003 232.7837219
143.3818054 9.8193359 232.7565460
144.3235474 9.9158154 232.7413025
154.7745819 20.0673523 232.7384338
154.9185638 21.0666466 232.7567444
154.9800110 22.1574459 232.7785950
154.9360046 23.4184589 232.8073120
-106.5162430 -29.3575096 236.5059357
-105.2968521 -29.1080952 236.4763947
-104.2550659 -28.7711983 236.4642487
-103.3546219 -28.3447132 236.4633636
-102.4396286 -27.8495407 236.4483032
-101.5835724 -27.3217621 236.4368744
-100.8647995 -26.7571564 236.4333038
-100.2295151 -26.0971909 236.4454803
-97.8013153 -22.2797165 236.4704590
-97.5157623 -21.3913555 236.4869385
-97.2759399 -20.4213581 236.5043030
-97.1191864 -19.4090347 236.5111847
-97.0732193 -18.3510780 236.5361328
-97.1270142 -17.2060833 236.5545197
-97.3450089 -15.8492041 236.5962830
142.4713898 9.6471615 232.0439148
143.4689331 9.6977568 232.0233765
144.4415283 9.7998133 232.0022888
154.8923492 19.9388351 232.0032501
155.0490265 20.9127121 232.0188751
155.1120453 22.0201473 232.0430298
155.0879669 23.2648506 232.0732269
-105.9929504 -29.7437782 235.5777130
-104.8333359 -29.4570732 235.5559692
-103.8503494 -29.0807533 235.5501709
-102.9259262 -28.6407928 235.5366211
-102.0461349 -28.1527615 235.5387573
-101.1935730 -27.6076756 235.5220032
-100.4881210 -27.0183353 235.5195923
-99.8593826 -26.3738594 235.5142670
-99.2685318 -25.6903076 235.5253296
-98.7196960 -25.0024357 235.5259552
-98.2370453 -24.2476540 235.5379333
-97.8037949 -23.4145927 235.5361023
-97.4494629 -22.5361633 235.5626526
-97.1401291 -21.6573601 235.5679932
-96.8782425 -20.7184238 235.5757446
-96.7043762 -19.7036324 235.6034088
-96.6074371 -18.6794224 235.6201019
-96.6185379 -17.5608177 235.6377563
-96.8020096 -16.2642975 235.6671295
-97.0923691 -14.8402624 235.7176208
142.5401459 9.5717621 231.3046875
155.2005768 21.9060097 231.3060150
155.1904449 23.1484909 231.3344879
-105.5603256 -30.0350895 234.6432648
-104.4465408 -29.7237606 234.6308594
-103.4509506 -29.3412418 234.6180878
-102.5417786 -28.9083290 234.6065369
-101.6645889 -28.4001312 234.5979156
-100.8787842 -27.8401814 234.6045227
-100.1824188 -27.2406693 234.6003571
-99.5480347 -26.6015530 234.6012878
-98.9544144 -25.9232883 234.6035767
-98.4302521 -25.2071934 234.6092987
-97.9444275 -24.4502850 234.6132965
-97.4944153 -23.6294842 234.6136780
-97.1325836 -22.7635593 234.6386871
-96.8153381 -21.9084797 234.6386261
-96.5480194 -20.9566593 234.6623077
-96.3482285 -19.9815083 234.6702576
-96.2288513 -18.9530563 234.6917419
-96.2182999 -17.8462391 234.7175140
-96.3533859 -16.5972729 234.7426300
-96.6224442 -15.1876888 234.7872314
142.5846100 9.5275259 230.5687256
155.2365570 21.8721523 230.5753632
155.2312012 23.1227207 230.6017303
-106.4829559 -30.4961739 233.7481842
-105.2645340 -30.2496719 233.7286377
-104.1957245 -29.9274578 233.7209167
-103.1901779 -29.5352097 233.7065887
-102.2946625 -29.0908928 233.6971893
-99.9519043 -27.4139099 233.6858215
-99.3008499 -26.7742653 233.6858215
-97.7073364 -24.6258221 233.6976929
-97.2417374 -23.7989731 233.7095184
-95.9582443 -19.1754112 233.7770996
-95.9130859 -18.0791149 233.7969360
-95.9900131 -16.8670540 233.8181458
142.5904846 9.5281277 229.8349457
153.8569336 16.4963951 229.7626190
154.2061615 17.2723331 229.7707214
155.2300262 21.8936901 229.8449554
155.2268066 23.1284237 229.8690186
-106.2172394 -30.6766052 232.8270416
-105.0361252 -30.4125347 232.8098450
-103.9444809 -30.0752220 232.7961121
-102.9873734 -29.6798992 232.7873535
-102.1131439 -29.2209339 232.7840576
-99.7857132 -27.5345955 232.7765503
-99.1192932 -26.9002666 232.7712555
-97.5291901 -24.7551937 232.7858124
-97.0536270 -23.9407749 232.7884216
-95.7717209 -19.3160610 232.8606567
-95.7104874 -18.2380390 232.8820496
-95.7671051 -17.0202847 232.9064331
-95.9510651 -15.7170925 232.9334717
142.5650787 9.5629787 229.1018982
153.8158722 16.5554104 229.0344696
154.1729889 17.3244743 229.0442963
155.1840820 21.9392319 229.1169739
155.1773682 23.1918793 229.1390228
-106.0597305 -30.8029785 231.9154205
-102.8547363 -29.7780571 231.8774414
-101.9883575 -29.3041935 231.8718109
-95.6087189 -17.1349850 231.9917908
-95.8010941 -15.8352404 232.0205231
142.4831696 9.6323853 228.3694305
145.3007507 9.9855776 228.3276367
146.1499939 10.2339201 228.3187408
146.9208984 10.5271301 228.3092957
147.6554260 10.8265448 228.3005219
155.0948029 22.0338745 228.3898163
155.0829620 23.3119259 228.4093628
-105.9448471 -30.8623161 231.0012207
-102.7861938 -29.8181362 230.9665070
-101.9220581 -29.3345013 230.9610901
-95.5202103 -17.1868401 231.0808258
-95.6935501 -15.9151621 231.1062927
-96.0779953 -14.4126453 231.1404419
-96.8086853 -12.5066986 231.1898499
142.3762512 9.7533607 227.6393738
145.2214508 10.0891695 227.6007843
146.0822144 10.3205938 227.5915833
146.8574066 10.6042786 227.5818787
147.6006622 10.9131184 227.5778961
154.9608154 22.1983700 227.6642456
154.9492035 23.4493027 227.6838379
-105.9563828 -30.8576603 230.0917206
-104.7492142 -30.5775204 230.0771027
-103.6967239 -30.2317200 230.0664215
-99.5865402 -27.6572838 230.0473022
-98.9140701 -27.0231724 230.0489655
-98.3319092 -26.3564987 230.0512695
-97.8161545 -25.6472225 230.0564423
-95.5216522 -19.4830399 230.1300354
-95.4661636 -18.4162903 230.1485596
-95.5093460 -17.1979809 230.1710663
-95.6633148 -15.9190321 230.1964417
-96.0432816 -14.4532814 230.2288666
142.2210236 9.9197845 226.9100952
143.2483368 9.9675140 226.8975830
144.1974945 10.0666065 226.8819122
151.7721863 14.2503080 226.8373871
152.2257385 14.8584566 226.8395844
154.6127930 20.2389259 226.9044647
154.7386627 21.2895432 226.9171295
154.7899628 22.4212914 226.9353333
-107.3648682 -31.0236778 229.1970825
-106.0506516 -30.8028889 229.1830597
-104.8461838 -30.5245533 229.1711884
-103.7787704 -30.1829967 229.1604614
-99.6284866 -27.6350956 229.1417236
-98.9779282 -26.9951496 229.1427460
-98.3975372 -26.2987728 229.1454315
-97.8788223 -25.5880318 229.1515350
-95.5698547 -19.4506435 229.2247772
-95.5159378 -18.3611965 229.2412262
-95.5563660 -17.1681061 229.2635345
-95.7117157 -15.8810520 229.2875366
-96.1102142 -14.3849707 229.3213959
-96.8238297 -12.5208893 229.3602448
143.0722198 10.1694679 226.1737061
144.0261383 10.2617102 226.1570892
151.6337738 14.4156475 226.1192017
152.0784302 15.0275240 226.1165009
154.4358215 20.4613762 226.1758575
154.5489502 21.5084534 226.1903534
154.5883331 22.6241112 226.2151642
-106.1520538 -30.7007122 228.2767029
-104.9924164 -30.4209328 228.2635345
-103.8976746 -30.0912266 228.2533722
-102.9274597 -29.6957302 228.2487335
-102.0545044 -29.2339458 228.2435150
-101.2037506 -28.7133312 228.2399139
-100.4225235 -28.1498775 228.2379456
-99.7185898 -27.5413113 228.2389221
-99.0806046 -26.9023933 228.2424316
-95.6676636 -19.3718548 228.3195801
-95.6214905 -18.2870712 228.3358307
-95.6710052 -17.0793915 228.3572388
-95.8404236 -15.7875051 228.3821259
-96.2607803 -14.2765188 228.4140625
141.7573242 10.4027281 225.4448242
142.8188477 10.4275103 225.4415283
143.8027039 10.5007610 225.4303589
153.1607208 17.3121815 225.4095612
153.4956207 18.0907669 225.4153290
153.7957153 18.9214516 225.4297333
154.0351105 19.7581635 225.4418945
154.2138672 20.7019482 225.4563599
154.3098602 21.7800751 225.4690247
154.3374939 22.9264393 225.4944000
-105.1586380 -30.2807713 227.3638000
-104.0669556 -29.9589577 227.3514557
-103.1172333 -29.5692539 227.3438263
-102.2392273 -29.1185074 227.3376923
-101.3791656 -28.5938988 227.3351440
-100.5893784 -28.0152321 227.3349915
-99.9001007 -27.4179859 227.3345032
-99.2492752 -26.7844238 227.3349609
-95.8434601 -19.2319241 227.4150085
-95.8092117 -18.1361485 227.4302826
-95.8663330 -16.9211559 227.4536285
-96.0423431 -15.6360207 227.4782562
142.5369720 10.7185898 224.7153320
143.5466156 10.7831240 224.7070618
152.9365082 17.5673351 224.6905518
153.2634735 18.3631268 224.6967773
153.5343933 19.2014370 224.7082367
153.7658386 20.0639763 224.7176361
153.9351807 21.0125847 224.7346497
154.0013428 22.1244431 224.7503662
-106.6736832 -30.3578262 226.4574127
-105.4412918 -30.0826550 226.4588165
-104.3285217 -29.7734699 226.4484863
-103.3493423 -29.3936539 226.4408264
-102.4574280 -28.9475155 226.4382324
-100.1138916 -27.2566719 226.4380798
-99.4646454 -26.6285210 226.4431152
-97.8911743 -24.4830284 226.4499512
-97.4374924 -23.6469364 226.4617920
-96.4509277 -20.9949646 226.4864502
-96.2391510 -20.0346050 226.4979858
-96.0968704 -19.0535011 226.5182190
-96.0727997 -17.9414349 226.5273132
-96.1383514 -16.7285252 226.5530243
-96.3245087 -15.3873711 226.5738220
142.1792603 11.0649099 223.9734039
143.2423248 11.1250811 223.9868774
144.1338654 11.2619905 223.9680939
145.0077515 11.4528809 223.9557800
148.7113037 13.0974751 223.9448700
149.3138428 13.5626011 223.9447021
150.9573517 15.1680069 223.9437714
151.4062500 15.7764530 223.9491272
151.8674469 16.4655781 223.9579315
152.2942047 17.1550865 223.9622345
152.6634369 17.8685513 223.9676208
152.9757538 18.6999874 223.9791107
153.2255554 19.5624161 223.9792786
153.4462128 20.4209213 224.0000305
153.5859985 21.4136467 224.0114441
153.6229553 22.5610390 224.0274506
-105.7878113 -29.8348656 225.5555573
-104.6494980 -29.5290813 225.5515442
-103.6536255 -29.1660595 225.5459900
-102.7866592 -28.7279358 225.5315247
-100.4200211 -27.0289783 225.5223389
-99.7515640 -26.4051571 225.5423126
-98.1753006 -24.2691326 225.5471802
-97.7341461 -23.4304543 225.5631561
-96.7311935 -20.7706833 225.5865936
-96.5400543 -19.8012028 225.5930786
-96.4191132 -18.8089352 225.6127625
-96.4087906 -17.6870956 225.6263733
-96.5005951 -16.4363499 225.6501007
142.8524628 11.5228128 223.2426758
143.8047791 11.6441507 223.2548218
144.6835785 11.8103886 223.2424316
148.3897095 13.4487295 223.2040100
149.0109711 13.8929176 223.2116089
150.6540527 15.5065670 223.2272034
151.0690308 16.1458950 223.2183075
151.5324097 16.8243237 223.2332001
151.9762878 17.5074272 223.2342529
152.3415222 18.2356033 223.2453613
152.6345673 19.0685768 223.2507477
152.8786621 19.9565773 223.2566986
153.0650482 20.8460674 223.2769165
153.1708374 21.8724442 223.2982330
153.1762390 23.0602150 223.3096619
-106.2065887 -29.5382042 224.6468048
-105.0643234 -29.2253399 224.6523132
-104.0771332 -28.8793697 224.6392365
-103.1618423 -28.4496498 224.6368561
-102.2696533 -27.9378853 224.6380005
-101.4675674 -27.3651924 224.6430511
-100.7669373 -26.7570095 224.6345062
-100.1093140 -26.1432285 224.6314240
-99.4785767 -25.4916534 224.6560211
-98.9758759 -24.7795963 224.6495667
-97.6805801 -22.3211136 224.6712952
-97.3377380 -21.4527969 224.6780090
-97.0866928 -20.5333004 224.6928864
-96.9105759 -19.5364475 224.7030640
-96.8143158 -18.5089378 224.7189636
-96.8316803 -17.3675404 224.7302399
-97.3609619 -14.5853691 224.7608948
143.3837738 12.0754900 222.5130615
144.2974396 12.2393541 222.5191498
145.1572723 12.4456043 222.5132294
145.9471283 12.7143173 222.5103455
146.6571960 13.0479136 222.4994354
147.3604736 13.4087038 222.5046387
149.2874908 14.7617235 222.4962006
149.8382416 15.2931538 222.5063477
150.2792511 15.9001665 222.4956818
150.7052460 16.5514488 222.4869995
151.1916351 17.2166862 222.5085449
151.6296387 17.8908024 222.5268097
151.9735413 18.6535149 222.5224915
152.2579193 19.4859810 222.5353546
152.4738159 20.3936005 222.5432434
152.6062317 21.3636513 222.5489044
152.6743317 22.4334240 222.5684357
-104.5639420 -28.5032711 223.7532959
-103.6391830 -28.1080322 223.7335663
-102.7071762 -27.6065292 223.7412262
-101.2022476 -26.4399014 223.7378387
-99.9283371 -25.1553707 223.7332916
-99.4020004 -24.4684639 223.7417297
-98.0918961 -22.0153255 223.7534027
-97.7694321 -21.1189270 223.7697601
-97.5472794 -20.1462231 223.7728882
-97.3993607 -19.1570072 223.7886810
-97.3376389 -18.1153049 223.8076172
-97.3941193 -16.9531689 223.8293457
-97.6377716 -15.5782223 223.8544006
143.8228607 12.7318659 221.7818146
144.7006836 12.9381495 221.7972717
145.5038910 13.1956615 221.8035583
146.2039337 13.5356264 221.7687683
146.9454346 13.8718176 221.7722168
148.8878021 15.2073984 221.7718658
149.4286346 15.7577696 221.7795105
149.9000702 16.3298912 221.7875671
150.3544312 16.9543362 221.7906036
150.8071136 17.6491032 221.7857819
151.2082062 18.3698196 221.7947998
151.5367279 19.1391239 221.8044739
151.7978363 20.0023022 221.8151550
151.9831238 20.9303131 221.8324585
152.0725555 21.9619026 221.8442230
-105.1859894 -28.0632210 222.8570557
-104.1939392 -27.6906738 222.8412933
-103.2593994 -27.2221832 222.8399048
-102.4107056 -26.6771793 222.8489532
-101.6947479 -26.1062279 222.8265839
-99.8697052 -24.1370831 222.8371277
-99.3737259 -23.3820019 222.8558807
-98.9399261 -22.5390739 222.8627167
-98.5813141 -21.6621456 222.8610077
-98.2839890 -20.7704067 222.8925323
-98.0972824 -19.7522182 222.8895264
-97.9757690 -18.7307682 222.9052429
-97.9534760 -17.6688747 222.9218140
-98.0922775 -16.4273872 222.9324036
144.9368896 13.7918005 221.0529022
145.7425995 14.0497818 221.0555115
146.5010986 14.3735685 221.0564728
148.4066467 15.7299156 221.0492706
148.9453430 16.2768822 221.0497284
149.4449768 16.8383331 221.0633850
149.9003906 17.4638081 221.0676270
150.3273926 18.1908417 221.0603485
150.7050629 18.9197502 221.0797272
151.0053711 19.7158566 221.0831146
151.2500000 20.6246109 221.0890656
151.3725739 21.6205082 221.1036224
-105.8998642 -27.5491333 221.9560089
-104.8826523 -27.1865597 221.9514465
-103.8795013 -26.7549725 221.9518280
-103.0055237 -26.2486153 221.9474030
-102.2740021 -25.6803589 221.9357605
-101.5763626 -25.0526810 221.9561157
-100.9923477 -24.3735237 221.9389801
-100.4578552 -23.6970367 221.9518280
-99.9741592 -22.9469986 221.9560547
-99.5344925 -22.0981216 221.9592590
-99.1903839 -21.2035942 221.9742432
-98.9542084 -20.2496777 221.9736328
-98.7870102 -19.2232456 221.9877014
-98.7091370 -18.1821404 222.0075226
-98.7414398 -17.0970421 222.0272980
144.4038544 14.3963175 220.3489838
145.1827545 14.6635590 220.3410034
145.9538879 14.9801550 220.3401337
147.8717499 16.2951965 220.3366547
148.4171143 16.8454800 220.3393707
148.8891602 17.4459000 220.3304749
149.3530731 18.0798664 220.3496399
149.7553101 18.8116455 220.3504791
150.1044159 19.5923481 220.3461151
150.4373169 20.3996677 220.3492737
-105.7941055 -26.5564804 221.0346069
-104.7167130 -26.1460991 221.0545044
-103.7921906 -25.6706467 221.0439758
-103.0102921 -25.1292572 221.0440063
-102.3485107 -24.4896221 221.0278015
-101.7185440 -23.8167343 221.0383911
-101.1846542 -23.1440697 221.0483093
-100.7098083 -22.4106197 221.0471649
-100.2646561 -21.5692158 221.0664825
-99.9619217 -20.6363621 221.0614014
-99.7185822 -19.6949863 221.0900574
-99.6127167 -18.6234360 221.1007080
-99.6305389 -17.5145836 221.1013641
144.4869995 15.4127550 219.6274109
145.2580261 15.7328691 219.6242676
145.9911346 16.0852299 219.6270294
146.6492004 16.5085812 219.6232147
147.2373657 17.0084553 219.6185760
147.7597656 17.5728664 219.6155853
148.2337646 18.1676807 219.6164856
148.6720123 18.8110542 219.6317139
149.0553131 19.5912056 219.6297302
-104.7228165 -24.9999599 220.1456451
-103.9015274 -24.4729958 220.1631927
-103.1923523 -23.8707924 220.1611023
-102.5847321 -23.1926308 220.1470490
-102.0475006 -22.5000973 220.1556396
-101.5639114 -21.7770138 220.1638489
-101.1451874 -20.9176903 220.1835022
-100.9149323 -19.9333477 220.1605072
-100.6867294 -18.9755573 220.2085114
144.3749237 16.6590767 218.8694153
145.1395416 16.9907227 218.8838806
145.8180542 17.3996086 218.8972473
146.4231873 17.8919067 218.9092102
146.9393616 18.4713516 218.9048157
147.4178314 19.0571938 218.9162445
-103.6975937 -22.3920879 219.2775421
-103.1681671 -21.6954422 219.2731628
-102.6941147 -20.9373894 219.2831726
-102.3359985 -20.0455818 219.2839813
145.8642120 19.6568737 218.1591187
21.2585087 -1.3789942 216.2165527
19.6399155 -4.4258518 215.4074554
20.4488773 -4.0396452 215.3915710
21.1410980 -3.5514169 215.3947296
21.7571659 -2.9442391 215.4159393
22.3203945 -2.3324609 215.4129028
22.8429813 -1.7009318 215.3897095
23.2571735 -0.9252714 215.4113617
23.6175632 -0.1132105 215.4073639
20.5533733 -5.2381601 214.5580902
21.3054981 -4.8067517 214.5717773
22.0054188 -4.3171244 214.5640564
22.6534977 -3.7312264 214.5544891
23.1788998 -3.0900335 214.5886993
23.7015495 -2.4574938 214.5780792
24.1422920 -1.7272242 214.5807037
24.5119610 -0.9225143 214.5786285
24.7680435 -0.0558713 214.5880127
24.9638691 0.9093242 214.5958557
25.0503464 2.0223398 214.6495209
19.5331650 -6.6170168 213.7226105
20.4491882 -6.2775650 213.7267151
21.2961788 -5.8871245 213.7255859
22.0022717 -5.4318075 213.7447052
22.7116547 -4.9269862 213.7308807
25.2292881 -1.5614835 213.7618713
25.5252571 -0.7263873 213.7646790
25.7480888 0.2121941 213.7737427
25.9132824 1.2028108 213.7670441
25.9623966 2.2862177 213.7728729
20.1671238 -7.1805911 212.9037476
21.0664501 -6.8235364 212.9061890
21.8854408 -6.4133792 212.9075470
22.5945377 -5.9509706 212.9162292
23.2661095 -5.4322853 212.9129486
25.8230400 -2.0847406 212.9411316
26.1484795 -1.2739143 212.9462585
26.4248848 -0.4002433 212.9428253
26.6207829 0.5765434 212.9520874
26.7073288 1.6044424 212.9506531
26.7222672 2.7423134 212.9820404
19.8459721 -8.0082302 212.0617981
20.7221031 -7.6841760 212.0778503
21.5841217 -7.3043041 212.0823822
22.4097404 -6.8640933 212.0762177
24.3423100 -5.2579093 212.0971069
24.9027157 -4.6437283 212.1096191
26.3229408 -2.5348597 212.1078491
26.6693802 -1.7551817 212.1151886
26.9721127 -0.8720381 212.1267700
27.1962891 0.0553447 212.1241608
27.3225479 1.0498806 212.1338043
27.3732452 2.1254489 212.1333008
19.3798237 -8.7020912 211.2440796
20.3370438 -8.4350710 211.2442474
21.1986065 -8.0989523 211.2565155
22.0345421 -7.6897602 211.2666931
22.8167896 -7.2317734 211.2586823
24.7410889 -5.6147442 211.2641602
25.3166676 -5.0097966 211.2709656
26.7282982 -2.8878925 211.2936707
27.0881023 -2.1139233 211.3047791
27.4124374 -1.2845314 211.2960968
27.6571445 -0.3398701 211.3088379
27.8279457 0.6054569 211.3130798
27.9085007 1.6310399 211.3156738
27.8872242 2.7973771 211.3280792
18.7761669 -9.2901764 210.4217224
19.8051414 -9.0685644 210.4253540
20.7360382 -8.7802887 210.4328461
21.6060047 -8.4359512 210.4228210
23.8376217 -7.0472231 210.4405212
24.4567604 -6.4847903 210.4506531
25.0564232 -5.8954759 210.4570770
25.6493816 -5.2983689 210.4588165
26.1703796 -4.6722965 210.4625854
26.6487350 -3.9533429 210.4603882
27.7639961 -1.5882776 210.4823303
28.0330124 -0.6730122 210.4922485
28.2426777 0.2454719 210.4936981
28.3604965 1.2310207 210.4923553
28.3536167 2.3803875 210.4994507
28.2793713 3.6132536 210.5186920
18.0890160 -9.7689524 209.5926056
19.1529579 -9.6071587 209.5955505
20.1559563 -9.3634806 209.6017303
21.0800514 -9.0557966 209.6034241
21.8939152 -8.6969357 209.6152191
24.1344509 -7.2948895 209.6189117
24.7334404 -6.7256742 209.6295319
25.3443985 -6.1365666 209.6289520
25.9227753 -5.5293393 209.6395416
26.4339390 -4.8967671 209.6391907
26.9162369 -4.1967759 209.6411591
28.0667381 -1.8544630 209.6627197
28.3600788 -0.9810154 209.6598511
28.5784454 -0.0528999 209.6723328
28.7154922 0.9138586 209.6721191
28.7386131 2.0407069 209.6811371
28.6980686 3.2073188 209.6861725
18.4098454 -10.0326166 208.7696991
21.3345051 -9.2860136 208.7869568
22.1677742 -8.9208384 208.7886810
22.9486656 -8.4996347 208.8036499
23.7115765 -8.0166664 208.7980804
24.3638783 -7.4935331 208.8000031
24.9778252 -6.9289713 208.8126678
25.6006718 -6.3542156 208.8132019
26.1532230 -5.7433939 208.8216705
26.6458015 -5.0952363 208.8229675
27.1338120 -4.4055376 208.8307343
28.8361702 -0.2829559 208.8550720
28.9911423 0.6737552 208.8575592
29.0603142 1.7471523 208.8573761
29.0541630 2.8977435 208.8679504
17.4896984 -10.3652611 207.9456024
18.6291332 -10.2482319 207.9509277
21.5622253 -9.4788790 207.9642487
22.3778973 -9.1081085 207.9688416
23.1553116 -8.6722612 207.9705200
23.8868179 -8.1687050 207.9781036
24.5504379 -7.6441956 207.9873810
25.1924934 -7.1181941 207.9920959
25.8126450 -6.5540838 207.9844818
26.3375988 -5.9152298 208.0014801
26.8225689 -5.2611732 208.0093231
27.3404865 -4.5680251 208.0050049
29.0403557 -0.4891233 208.0280151
29.2082233 0.4844109 208.0370483
29.3037643 1.5390780 208.0408325
29.3068161 2.6654048 208.0456696
17.7118225 -10.5349703 207.1201019
18.8427811 -10.4148827 207.1281738
19.8507557 -10.2104959 207.1350250
20.8248768 -9.9386253 207.1391907
21.7116070 -9.6119986 207.1470490
22.5212650 -9.2303743 207.1508026
23.2838459 -8.7723989 207.1579437
24.0272961 -8.2648001 207.1618652
24.7103424 -7.7851181 207.1649780
25.3623505 -7.2726250 207.1747742
25.9669456 -6.6920714 207.1781158
26.4920177 -6.0485005 207.1815643
26.9951324 -5.3960724 207.1901245
27.4998341 -4.7023177 207.1889038
29.1947670 -0.6146243 207.2148895
29.3761768 0.3330661 207.2189178
29.4907436 1.3820767 207.2218933
29.5111771 2.4707417 207.2212219
29.4189491 3.7228956 207.2301178
17.8370838 -10.6560345 206.3006897
18.9730644 -10.5347233 206.3074188
19.9725266 -10.3168230 206.3151245
20.9312706 -10.0337915 206.3204803
21.8092918 -9.7015982 206.3271484
22.6332016 -9.3070202 206.3291779
23.4014015 -8.8459558 206.3406372
24.1482620 -8.3763943 206.3468933
24.8326683 -7.9149876 206.3513641
25.4889603 -7.3794179 206.3526764
26.0854588 -6.7824230 206.3595734
26.6147194 -6.1471214 206.3615112
27.1142826 -5.4980969 206.3685760
27.6046505 -4.7962251 206.3768005
29.3249645 -0.7299680 206.3974152
29.5091228 0.1960521 206.3969879
29.6306782 1.2532810 206.4022217
29.6615429 2.3579714 206.4063263
29.5655327 3.5842259 206.4074402
16.5823021 -10.7412291 205.4700928
17.9240780 -10.7314281 205.4784851
19.0601406 -10.6029234 205.4855957
23.4814625 -8.9344959 205.5193481
24.2432823 -8.4721451 205.5234985
26.1368427 -6.8327751 205.5404663
26.6715393 -6.2052798 205.5473480
29.6534557 3.4981108 205.5876312
29.4368191 4.9431510 205.5902863
16.6106186 -10.7694693 204.6473236
17.9581642 -10.7536802 204.6571350
19.0905666 -10.6213236 204.6657715
23.5151768 -8.9746819 204.7010803
24.2731380 -8.4971762 204.7071228
26.1656876 -6.8561392 204.7236481
26.7116795 -6.2371955 204.7301636
29.6724873 3.4954832 204.7681427
29.4503136 4.9261365 204.7679596
17.9416275 -10.7237358 203.8361206
19.0504627 -10.5896549 203.8437195
29.3997631 -0.7917373 203.9398499
29.5743351 0.1387864 203.9431000
29.6872616 1.1999561 203.9445190
29.7246819 2.3019643 203.9460907
29.6435566 3.5131671 203.9474182
29.3973083 4.9886160 203.9445801
17.8467140 -10.6450052 203.0132904
18.9733944 -10.5135527 203.0225677
29.3348980 -0.7342328 203.1223145
29.5025425 0.2265106 203.1240082
29.6036072 1.2882541 203.1223145
29.6422024 2.3806934 203.1287079
29.5476246 3.6048248 203.1278076
29.2940311 5.0878773 203.1208954
17.6936722 -10.5267572 202.1872253
18.8387356 -10.3907824 202.2027588
19.8540306 -10.1880226 202.2103424
20.8031254 -9.9118786 202.2170868
23.3234310 -8.7903519 202.2411346
24.0840836 -8.3193436 202.2495880
25.9721394 -6.6742797 202.2704315
26.5170517 -6.0509758 202.2725067
27.9609165 -3.9693942 202.2866821
28.3619518 -3.2274706 202.2940979
29.4581013 1.4124675 202.3034210
29.4854202 2.5387878 202.3039093
17.4937878 -10.3623028 201.3586273
18.6355686 -10.2253151 201.3768768
19.6717911 -10.0334196 201.3863068
20.6468182 -9.7662792 201.3967285
23.1952477 -8.6593981 201.4266663
23.9474850 -8.1922655 201.4349060
25.8297291 -6.5515308 201.4492798
26.3664455 -5.9211006 201.4593201
27.8092384 -3.8292055 201.4702759
28.2010231 -3.0809221 201.4695740
29.2723331 1.5932984 201.4764709
29.2908688 2.7035711 201.4829102
18.4120388 -10.0100288 200.5581970
19.4335213 -9.8277140 200.5647583
20.4269123 -9.5696526 200.5770111
24.4209576 -7.5194650 200.6181335
25.0722580 -6.9694037 200.6305389
25.6357651 -6.3661036 200.6222839
26.1575432 -5.7353048 200.6349640
26.6545124 -5.0804787 200.6377563
27.1576576 -4.3852606 200.6475372
27.6129875 -3.6537089 200.6541901
28.0011616 -2.8942425 200.6490784
29.0350246 1.7899852 200.6615601
29.0097218 2.9769828 200.6556549
18.0786343 -9.7396297 199.7168274
19.1350899 -9.5459747 199.7385101
20.1279564 -9.3069162 199.7465820
24.1761627 -7.3073187 199.7955780
24.8087387 -6.7628894 199.8053741
25.3903141 -6.1441722 199.8054352
25.9271164 -5.5163503 199.8121796
26.4203396 -4.8699889 199.8125305
26.9177589 -4.1559949 199.8266602
27.3467350 -3.4169514 199.8270874
27.7389145 -2.6658695 199.8390045
28.7204666 2.0773404 199.8350677
18.7793808 -9.2334146 198.9144287
19.7779846 -9.0084639 198.9209747
20.7425709 -8.7334719 198.9355316
21.5845585 -8.3861017 198.9398651
23.8637753 -7.0223088 198.9689941
24.5031948 -6.4892693 198.9788361
25.1048260 -5.9052505 198.9818878
25.6547413 -5.2814727 198.9902344
26.1356068 -4.6070900 198.9873962
26.6195049 -3.8901403 199.0057526
27.4266205 -2.3559170 199.0081177
27.7745819 -1.5465074 199.0114746
28.0348568 -0.6544759 199.0164032
28.2091732 0.2866336 199.0073242
28.3332481 1.2751287 199.0177917
28.3521385 2.4241908 199.0114746
28.2787952 3.6574616 198.9996185
19.3933392 -8.6544209 198.1038666
20.3282070 -8.3834715 198.1127472
21.2045269 -8.0518961 198.1206512
23.4987354 -6.6926098 198.1453857
24.1462345 -6.1745272 198.1531830
24.7910900 -5.6161294 198.1709595
25.3368568 -5.0018668 198.1751099
25.8117371 -4.3207583 198.1620636
26.2935448 -3.6070101 198.1914825
26.7125702 -2.8398600 198.1973724
27.0791149 -2.0381155 198.1792603
27.3990955 -1.2053818 198.1875305
27.6438732 -0.2907257 198.1806641
27.8186932 0.6462251 198.1856384
27.9080467 1.6862394 198.1778717
27.8973503 2.8420463 198.1840973
19.8395500 -7.9543929 197.2804108
20.7415257 -7.6502423 197.2948608
21.5905476 -7.2694092 197.3003845
22.3916016 -6.8092771 197.3138733
25.4209652 -3.9625044 197.3431702
25.8585243 -3.2194450 197.3387756
26.2843380 -2.4391155 197.3495026
26.6453857 -1.6534449 197.3518677
26.9509926 -0.8189733 197.3607635
27.1763401 0.1295433 197.3498383
27.3289700 1.0861857 197.3642578
27.3695145 2.1697052 197.3590546
27.2931156 3.3987031 197.3466492
20.2008686 -7.1696925 196.4660950
21.0651932 -6.8110118 196.4781799
21.8831406 -6.3692389 196.4797516
24.9316750 -3.5324490 196.5126801
25.3713665 -2.7843382 196.5194550
25.7872334 -1.9915884 196.5161896
26.1414871 -1.2005234 196.5291748
26.4227104 -0.3450832 196.5298157
26.6012421 0.6452947 196.5125885
26.6885853 1.6683844 196.5211487
26.6521301 2.8277457 196.5146790
19.5354595 -6.6056318 195.6092377
20.4363403 -6.2511911 195.6457977
21.2759838 -5.8402333 195.6532593
22.0238228 -5.3927565 195.6576843
22.7150364 -4.8916965 195.6661682
24.3627834 -3.0306964 195.6813049
24.8055267 -2.2819455 195.6956940
25.1996460 -1.4791745 195.6963959
25.5161419 -0.6365928 195.6852264
25.7674656 0.2423744 195.7038879
25.9070663 1.2397268 195.7080078
25.9031639 2.3745618 195.6843262
19.6550961 -5.5869508 194.7712555
20.5411358 -5.1965122 194.8150635
21.3247719 -4.7645755 194.8346100
22.0148640 -4.2788491 194.8344269
23.6380615 -2.3957670 194.8350830
24.0537643 -1.6136782 194.8415070
24.4456482 -0.8135257 194.8608093
24.7162762 0.0782705 194.8559723
24.8799915 1.0652745 194.8398743
24.9803829 2.1095169 194.8370209
20.3708534 -3.9393964 193.9739990
21.1315689 -3.4867308 194.0146484
21.7789326 -2.9487541 194.0060883
22.3239803 -2.3340380 194.0211182
22.7625504 -1.6372265 194.0174103
23.1639156 -0.8462271 194.0243073
23.4680767 0.0417091 193.9951935
-103.5377884 -21.1731358 190.9234772
-103.1795502 -20.3222733 190.9651031
21.1745586 -1.2919248 193.1584778
-104.8678818 -24.6443424 190.0281982
-104.1511154 -24.0907421 190.0567169
-103.4365387 -23.4843369 190.0520630
-102.8509521 -22.7817097 190.0848694
-102.2969284 -22.0758705 190.0655670
-101.8841629 -21.2769070 190.0651855
-101.5687256 -20.3582973 190.0641174
-101.3222122 -19.4015846 190.0774841
-101.2207642 -18.3488712 190.1088715
-105.7270126 -26.3322811 189.1286011
-104.7609253 -25.8975792 189.1478577
-103.8535919 -25.3981342 189.1545563
-103.1231766 -24.8346691 189.1634369
-102.4797058 -24.1767330 189.1863251
-101.8685760 -23.5106525 189.1780396
-101.3737335 -22.7818451 189.1963806
-100.9508133 -21.9771614 189.1993713
-100.5826874 -21.0976467 189.1877594
-100.3000717 -20.1686516 189.1825562
-100.1413574 -19.1916828 189.1716003
-100.1032562 -18.0725632 189.1628571
-105.8470306 -27.3556538 188.2122040
-104.8372269 -26.9887676 188.2357788
-103.8930893 -26.5158863 188.2573242
-103.0586777 -25.9921989 188.2683563
-102.3600540 -25.4039860 188.2887573
-101.7146149 -24.7563515 188.2992706
-100.1524811 -22.5709629 188.2983246
-99.7882233 -21.6915112 188.3106689
-99.4746552 -20.7893906 188.3000336
-99.2711029 -19.8211193 188.2960052
-99.1887894 -18.7277985 188.2832947
-99.2109528 -17.5951176 188.2629089
-99.3430481 -16.3617611 188.2803192
-105.0706024 -27.9284420 187.3309326
-104.0974808 -27.5085411 187.3562927
-103.2213593 -27.0115986 187.3721466
-102.3905334 -26.4616852 187.3751526
-101.6794662 -25.8917789 187.3759003
-101.0538864 -25.2354431 187.3974457
-99.5155411 -23.0223141 187.4153748
-99.1327667 -22.1675777 187.4113007
-98.8217545 -21.2665138 187.4156647
-98.5898132 -20.3307400 187.4042664
-98.4636002 -19.2770786 187.4161682
-98.3940964 -18.1977367 187.3861847
-98.4760361 -17.0362988 187.3713989
-98.6972046 -15.7032080 187.3807831
-104.4209366 -28.3851261 186.4356842
-103.5005112 -27.9439754 186.4492493
-102.6665115 -27.4166985 186.4796906
-101.8834229 -26.8532772 186.4889526
-101.1893768 -26.2757683 186.5013885
-100.5192108 -25.6251907 186.4938202
-98.2934113 -21.6608276 186.5242920
-98.0411758 -20.7243862 186.5269470
-97.8278885 -19.7611351 186.5033569
-97.7394257 -18.6710682 186.5062256
-97.7752380 -17.5405560 186.5021210
-97.9183731 -16.3283310 186.4585419
-106.0429382 -29.4410000 185.5038605
-104.9279251 -29.1266212 185.5281677
-103.9231720 -28.7457390 185.5513153
-103.0205612 -28.2939739 185.5636597
-102.1963043 -27.7635136 185.5734406
-101.4242172 -27.1813297 185.5894775
-100.7373810 -26.5890141 185.5968475
-100.1013641 -25.9358883 185.6135101
-97.8427887 -22.0052319 185.6146088
-97.5711899 -21.0887413 185.6191711
-97.3518448 -20.1132183 185.6256104
-97.2116241 -19.0694275 185.6123810
-97.1774673 -18.0032558 185.5935974
-97.5730515 -15.4001265 185.5606537
146.7748566 18.9194794 190.9132996
147.1754150 19.6115303 190.9392548
-106.7150803 -30.0438633 184.5837402
-105.5503845 -29.7795620 184.6057587
-104.4687729 -29.4531860 184.6304321
-103.4761887 -29.0523949 184.6445923
-102.6291122 -28.5792675 184.6636047
-100.3843002 -26.8400116 184.7062988
-99.7318268 -26.1905327 184.7069855
-99.1717148 -25.5101051 184.7214661
-98.6610260 -24.7867241 184.7217102
-98.1916046 -24.0011120 184.7288208
-97.8004074 -23.1392784 184.7335510
-97.4710693 -22.2671833 184.7341919
-97.1783295 -21.3582382 184.7309113
-96.9413605 -20.4084721 184.7165527
-96.8060608 -19.3852940 184.7136078
-96.7731476 -18.2891827 184.7131348
-96.8133621 -17.1360607 184.6898499
-97.0344772 -15.8003778 184.6680145
144.5169525 15.6381750 190.1894379
145.2648315 15.9815025 190.1958771
145.9513702 16.3649979 190.2035980
146.5639191 16.8200111 190.2172699
147.1222382 17.3713551 190.2310028
147.6330872 17.9616795 190.2273865
148.0588074 18.6084728 190.2274323
148.4481354 19.3162498 190.2161255
148.7407684 20.1642208 190.2399597
-106.3303757 -30.3371906 183.6878815
-105.1587372 -30.0569363 183.7100677
-104.0872650 -29.7063904 183.7333221
-103.1680984 -29.2907944 183.7531281
-102.3426437 -28.8001766 183.7733612
-100.0747833 -27.0601826 183.8117523
-99.4405136 -26.4036884 183.8152313
-98.8932190 -25.7028046 183.8222504
-98.3867798 -24.9880886 183.8244781
-97.9001694 -24.2266064 183.8205261
-97.4867020 -23.3776226 183.8297577
-97.1299667 -22.4985466 183.8266602
-96.8456116 -21.6164112 183.8232117
-96.6194916 -20.6404572 183.8276062
-96.4673538 -19.6358700 183.8132477
-96.4075623 -18.5746231 183.8115692
-96.4193039 -17.4312420 183.7929230
-96.5877304 -16.1256466 183.7726288
-96.9145355 -14.6704245 183.7529907
144.5050201 14.5392923 189.4507751
145.2627411 14.8242321 189.4646759
145.9819183 15.1924419 189.4831848
146.6418915 15.6094799 189.5061340
147.2598724 16.0608215 189.5117950
147.8378601 16.5976715 189.5178528
148.3454285 17.1845703 189.5269470
148.7860870 17.8122768 189.5308380
149.1750641 18.5096283 189.5350494
149.5466156 19.2849922 189.5160522
149.8305817 20.1234798 189.5355377
-106.0146179 -30.5660095 182.7866364
-104.8592682 -30.2703400 182.8103943
-103.8294983 -29.9005623 182.8356018
-102.9195328 -29.4675751 182.8544922
-102.0835876 -28.9807949 182.8669434
-101.2467041 -28.4321156 182.8815002
-100.4891663 -27.8523540 182.8970184
-99.8240891 -27.2404461 182.9064484
-99.2162933 -26.5751476 182.9158325
-98.6642838 -25.8616295 182.9288330
-98.1544800 -25.1448936 182.9353485
-96.2518997 -16.3684635 182.8757324
-96.5455933 -14.9707117 182.8520966
144.3164215 13.6158733 188.7329865
145.1190338 13.8608866 188.7453308
147.2236328 14.9748440 188.7838593
147.8173218 15.4419479 188.8033752
149.3882904 17.1410332 188.8172302
149.7902832 17.8198700 188.8234406
150.1623688 18.5808125 188.8218689
150.4739990 19.3968792 188.8205414
150.7445526 20.2505627 188.8115845
150.9649353 21.1884747 188.8326874
-105.7502289 -30.7307835 181.8832855
-104.6440735 -30.4198303 181.9098969
-103.6290817 -30.0378857 181.9314880
-102.7229233 -29.6013451 181.9529724
-101.8900452 -29.1230717 181.9703979
-101.0682144 -28.5770397 181.9842682
-100.3099442 -27.9720936 181.9947510
-99.6620407 -27.3564568 182.0081024
-99.0218735 -26.6878433 182.0100708
-98.4692001 -26.0037975 182.0180511
-97.9644241 -25.2785053 182.0278320
-96.0206146 -16.5364151 181.9767609
-96.2991180 -15.1476097 181.9513245
144.0213776 12.8010426 187.9896545
144.8681488 13.0268097 188.0145569
145.6298370 13.3105717 188.0334320
147.7192383 14.4326925 188.0640564
148.2982635 14.9165630 188.0873413
149.8812103 16.6121044 188.1073608
150.2906036 17.2642403 188.1163635
150.6905823 17.9892540 188.1033936
151.0335999 18.7753124 188.1043549
151.3117065 19.6217995 188.1098633
151.5444183 20.5204620 188.1010590
151.7025909 21.5441265 188.1191711
-105.6097031 -30.8348408 180.9804077
-100.9399261 -28.6582394 181.0808258
-100.2121124 -28.0524521 181.0954437
-99.5594864 -27.4296322 181.1072388
-98.9253769 -26.7822208 181.1155853
-97.3529053 -24.6272030 181.1266174
-96.9240341 -23.7793598 181.1316986
-96.0179443 -21.0870266 181.1230164
-95.8392563 -20.0865211 181.1163025
-95.7473679 -19.0559864 181.1065826
-95.7529678 -17.9318008 181.0916901
-95.8603439 -16.6765594 181.0714417
-96.1209183 -15.2901125 181.0478516
-96.6210938 -13.6466045 181.0185089
143.5725555 12.1284962 187.2549896
144.4834137 12.3037310 187.2788391
151.1124420 17.5173359 187.4008331
151.4907379 18.2672768 187.3973083
151.8113251 19.0572910 187.3899384
152.0591583 19.9466553 187.3863525
152.2365570 20.9265366 187.3785858
152.3477478 21.9252148 187.3898468
-105.5345993 -30.8890305 180.0738678
-100.8701324 -28.7062702 180.1774139
-100.1295319 -28.1058903 180.1891479
-99.4743881 -27.4947472 180.2004242
-98.8385391 -26.8366661 180.2097931
-97.2829514 -24.6677303 180.2266388
-96.8434677 -23.8381062 180.2276459
-95.9345856 -21.1470432 180.2186432
-95.7721939 -20.1438122 180.2107239
-95.6931610 -19.1048107 180.1991272
-95.6958389 -17.9605694 180.1861725
-95.7737656 -16.7301693 180.1672668
-96.0096054 -15.3712158 180.1412048
-96.5414505 -13.7426758 180.1069794
143.0767059 11.5355520 186.5137482
143.9791870 11.6705894 186.5402222
144.8634491 11.8652000 186.5620270
151.4856720 17.1217918 186.6908722
151.8798218 17.8264580 186.6814423
152.2185364 18.5866528 186.6793518
152.4983368 19.4571609 186.6752930
152.6942596 20.3945370 186.6649017
152.8096771 21.3833981 186.6642456
152.8880768 22.4629364 186.6650391
-106.7529068 -31.1528645 179.1349030
-105.5152206 -30.9001255 179.1655579
-98.2263718 -26.1718502 179.3131104
-97.7241821 -25.4452705 179.3174133
-95.7458344 -16.7311096 179.2583160
-95.9897537 -15.3696213 179.2338104
-96.5390930 -13.7286968 179.1947937
143.4428101 11.1287975 185.7951965
144.3350372 11.2813444 185.8280640
145.2170563 11.4871998 185.8424072
150.9625244 15.4124527 185.9506836
151.3949585 16.0482693 185.9597321
151.8237457 16.7307701 185.9622040
152.2116241 17.4562244 185.9745483
152.5636292 18.2060871 185.9698029
152.8564301 19.0512619 185.9617157
153.0774536 19.9804611 185.9600372
153.2257233 20.9146614 185.9462128
153.3174133 21.9776936 185.9409485
-106.8516312 -31.0807571 178.2212067
-105.5672836 -30.8607292 178.2566376
-98.2470322 -26.1451225 178.4085236
-97.7526245 -25.4289818 178.4106293
-95.7962723 -16.7050228 178.3479919
-96.0559845 -15.3246794 178.3214874
-96.5988846 -13.6529760 178.2788239
142.8042755 10.6706839 185.0582428
143.7939911 10.7691946 185.0732574
144.6707153 10.9311447 185.0991516
145.5072784 11.1631117 185.1285095
151.2295837 15.1323433 185.2488403
151.6893463 15.7310362 185.2468109
152.1218262 16.4043713 185.2467804
152.5068817 17.1269875 185.2522430
152.8622437 17.8728027 185.2440186
153.1704559 18.7194347 185.2494812
153.4127960 19.5924549 185.2413025
153.5821075 20.5105858 185.2243347
153.6863861 21.5214882 185.2140503
-107.0159378 -30.9680405 177.3018951
-105.6880569 -30.7592182 177.3429108
-104.5678787 -30.4683781 177.3692169
-103.5444565 -30.0909309 177.3954010
-102.6500397 -29.6514874 177.4151459
-101.8100433 -29.1700706 177.4322052
-95.8098602 -19.0152168 177.4720459
-95.8028641 -17.8901577 177.4573975
-95.9232788 -16.5978451 177.4322815
143.1238708 10.3510456 184.3274689
144.0802155 10.4536028 184.3596802
144.9605713 10.6335220 184.3800507
145.7688599 10.8864994 184.4076538
149.2867889 12.7209473 184.4794006
149.8468781 13.2113218 184.4992981
150.4170990 13.7364273 184.5112762
150.9808807 14.2807007 184.5103455
151.4866028 14.8461809 184.5174103
151.9546204 15.4342508 184.5145721
152.3583221 16.1180210 184.5306854
152.7409058 16.8485317 184.5284424
153.0979614 17.6076069 184.5299835
153.4061737 18.4315300 184.5216370
153.6431274 19.3376484 184.5202637
153.8218842 20.2523060 184.5191498
153.9818573 21.2053967 184.5010071
154.0695648 22.3082561 184.4911194
-105.9299850 -30.6001606 176.4259644
-104.7653275 -30.3172951 176.4578400
-103.7428665 -29.9510288 176.4817657
-102.8361740 -29.5213013 176.5009460
-101.9622421 -29.0383720 176.5222473
-95.9639587 -18.8971653 176.5539246
-95.9756470 -17.7598019 176.5439148
-96.1279831 -16.4752789 176.5231323
142.3680725 10.0383282 183.5800323
143.3795319 10.0800200 183.6073151
144.3302002 10.1952801 183.6341095
145.1634674 10.3981848 183.6614532
145.9822235 10.6597061 183.6813507
149.4671478 12.5192184 183.7636414
150.0431671 13.0021152 183.7729034
150.6224823 13.5213528 183.7868652
151.1731873 14.0606813 183.7883148
151.6658630 14.6417618 183.8028259
152.1154175 15.2492800 183.8028107
152.5227203 15.9320831 183.8080139
152.9081268 16.6536579 183.8078003
153.2594604 17.4299965 183.8059235
153.5733337 18.2867451 183.8094177
153.8374939 19.1101513 183.8005829
154.0648346 19.9920654 183.8051910
154.2566681 20.9000950 183.7801361
154.3457794 21.9928169 183.7703705
-106.2461624 -30.3845749 175.4985962
-105.0669098 -30.1116047 175.5340271
-104.0079727 -29.7641888 175.5571594
-103.0547104 -29.3479881 175.5867615
-102.1983261 -28.8780441 175.6016083
-97.7438126 -24.3179607 175.6806488
-97.3150406 -23.4859600 175.6791382
-96.9506607 -22.6140137 175.6652069
-96.6565704 -21.7412643 175.6755066
-96.4421158 -20.7576580 175.6616364
-96.2779236 -19.7475872 175.6561432
-96.2027969 -18.7042980 175.6402740
-96.2688904 -17.5213909 175.6098633
-96.4662399 -16.1840935 175.5851135
142.5865936 9.8038082 182.8545837
143.5897369 9.8697090 182.8822937
144.4951019 10.0134869 182.9135742
146.9300537 10.7842131 182.9778290
147.6558075 11.1047812 183.0004425
149.6322021 12.3306131 183.0381622
150.2226105 12.8236704 183.0470428
150.7818298 13.3502817 183.0652771
151.3261566 13.9024515 183.0707245
151.8082428 14.4777336 183.0820465
152.2526245 15.1053724 183.0882568
152.6798706 15.7935343 183.0879059
153.0752106 16.5012665 183.0917358
153.4361420 17.2499866 183.0916595
153.7739410 18.0367985 183.0886078
154.0727234 18.8512764 183.0759583
154.3089447 19.7189064 183.0753326
154.4788208 20.6556149 183.0648651
154.5763092 21.7251835 183.0500031
-105.3981628 -29.8532715 174.6152191
-104.3107758 -29.5244694 174.6448212
