51.0116234 4.9721613 86.9572220
51.0820580 5.9225845 86.9043808
51.0475311 6.9616947 86.8382874
50.9216843 8.0535431 86.7387772
50.6276588 9.3094282 86.6452484
-54.0007973 -21.9165039 73.5791092
-52.9494247 -21.4992886 73.7017593
-52.0087814 -21.0185127 73.7898636
-51.1743240 -20.5078506 73.8724060
-50.3939323 -19.9357815 73.9371414
-49.6437950 -19.3182316 74.0088348
-49.0190353 -18.6835365 74.0472794
-46.6864662 -14.9481249 74.1403809
-46.4108467 -14.0725250 74.1070023
-46.2123833 -13.1791267 74.0759506
-46.0417976 -12.2481070 74.0563660
-45.9583054 -11.2609386 74.0019150
-45.9731827 -10.2373419 73.9342041
-46.0517006 -9.1938028 73.8679123
-46.2598457 -7.9747858 73.7473297
-5.4747438 -14.8423681 79.7273102
-4.3905077 -14.4933767 79.8517456
-3.3554854 -14.1000414 79.9664688
3.3427076 -7.2910204 80.4484100
3.6274745 -6.4849706 80.4354553
3.8741338 -5.6386971 80.4156876
4.0865984 -4.7242613 80.3880005
4.0767565 0.3413128 80.0694427
3.7329552 1.6324900 79.9412537
43.9980202 -4.1665277 85.7790298
44.9717293 -3.8352172 85.8879929
45.8364410 -3.4325230 85.9831314
46.6349831 -2.9657414 86.0580597
47.3474007 -2.4395804 86.1278152
47.9938812 -1.9073340 86.1945648
48.6322975 -1.3583530 86.2361603
49.2216110 -0.7468860 86.2711716
51.2057304 2.8428898 86.3207397
51.4459305 3.6682794 86.2960205
51.6097679 4.5680904 86.2669296
51.7025795 5.5091715 86.2138519
51.7073860 6.5159988 86.1590195
51.6572876 7.5541224 86.0704422
51.4744110 8.6839037 85.9745712
-53.3346825 -21.2703056 72.7548294
-52.3766708 -20.8148975 72.8522644
-51.4909630 -20.3156471 72.9460602
-50.6831932 -19.7519169 73.0132141
-49.9208183 -19.1456566 73.0869141
-49.3076782 -18.5076885 73.1186142
-47.7406616 -16.3688984 73.2092590
-47.3508835 -15.5969963 73.2027206
-47.0013466 -14.7659798 73.1948547
-46.7046738 -13.9082937 73.1978683
-46.5147476 -13.0063467 73.1560745
-46.3714256 -12.0385408 73.1086960
-46.3113403 -11.0314283 73.0529785
-46.3368034 -10.0077696 72.9802780
-46.4504471 -8.9470406 72.9095154
-4.2730308 -14.5704689 79.0337219
-3.2447779 -14.1787376 79.1494446
3.4615128 -7.3548288 79.6347580
3.7612870 -6.5635638 79.6261444
4.0079150 -5.7207890 79.6058502
4.2111731 -4.8209043 79.5766983
4.2341113 0.2231492 79.2600479
3.9025118 1.5316032 79.1307678
43.5369987 -4.8672862 84.9600067
44.5753136 -4.5596108 85.0857010
45.5094032 -4.1950278 85.1824799
47.8552704 -2.7903183 85.4129410
48.4985161 -2.2610071 85.4751282
52.1190224 4.2224264 85.5638657
52.2341156 5.1392121 85.5215759
52.2806358 6.1032562 85.4581299
52.2466049 7.1498747 85.3919678
52.1127472 8.2390318 85.2963028
51.8618240 9.4437656 85.2026367
-52.8082695 -20.5449009 71.9085617
-51.9337158 -20.0673733 71.9863815
-51.1026878 -19.5209999 72.0616150
-50.3309441 -18.9191113 72.1314011
-49.6875000 -18.2879772 72.1840057
-48.1199951 -16.1409340 72.2533798
-47.7073402 -15.3697701 72.2758255
-47.3577690 -14.5435104 72.2671814
-47.0942535 -13.6624212 72.2472382
-46.9236412 -12.7535143 72.1990356
-46.7733421 -11.8102179 72.1802521
-46.7157745 -10.8013382 72.1236420
-46.7791901 -9.7426672 72.0419540
-46.9629517 -8.6343889 71.9496994
-4.1784086 -14.6092129 78.2119217
-3.1810279 -14.2208061 78.3240280
3.5252810 -7.4116950 78.8123856
3.8203456 -6.6128821 78.8005295
4.0562582 -5.7541366 78.7787247
4.2666917 -4.8412957 78.7490997
4.3113737 0.1698050 78.4401321
3.9894025 1.5074248 78.3043060
44.1144867 -5.2221737 84.2489090
45.0625610 -4.8930993 84.3701859
45.9583435 -4.4991341 84.4705048
48.2942276 -3.0923715 84.7022629
48.9337883 -2.5501394 84.7543106
52.5690842 3.9019885 84.8431244
52.7161102 4.7936711 84.7950439
52.7779770 5.7558403 84.7479401
52.7700996 6.8001451 84.6886826
52.6835861 7.8413658 84.5986481
52.4641647 8.9874058 84.4973984
93.4993668 10.1478996 90.0732727
94.1358719 10.6884871 90.1183701
94.6195755 11.3044300 90.1723557
95.0289993 11.9852161 90.1866302
95.3621292 12.7311611 90.1969681
-52.4671631 -19.7583542 71.0082474
-51.5942726 -19.2228756 71.1160583
-50.8366776 -18.6283474 71.1646423
-50.1683311 -18.0052547 71.2184372
-49.5758934 -17.3368149 71.2535019
-49.0377502 -16.6206875 71.2927170
-47.8279686 -14.2654953 71.3038712
-47.5940552 -13.3518829 71.2631378
-47.4128571 -12.4631872 71.2407684
-47.2958717 -11.4902391 71.1879959
-47.2720337 -10.4579735 71.1380844
-47.4021416 -9.3533831 71.0430222
-4.1962509 -14.6002321 77.3689575
-3.1998007 -14.2212305 77.4793396
0.6800584 -11.6337862 77.8527756
1.2738558 -11.0065966 77.8929672
3.5542259 -7.4254713 77.9805298
3.8468068 -6.6238356 77.9719009
4.4492035 -3.9328547 77.8809128
4.5518937 -2.9955738 77.8338547
4.5583677 -2.0037789 77.7751312
4.4664760 -0.9202767 77.6872482
4.3050523 0.1816775 77.5990295
43.4657402 -5.7877564 83.4058304
44.5293579 -5.5145788 83.5344391
47.2053261 -4.3531013 83.8258286
47.9766998 -3.8793397 83.9018555
52.5138206 1.9341296 84.1623459
52.7554626 2.7767057 84.1431656
52.9539833 3.6416228 84.1119080
53.1065712 4.5383945 84.0764771
53.2010460 5.4834390 84.0331573
53.2308884 6.4638596 83.9709930
53.1557083 7.5224500 83.8942184
52.9760780 8.6222954 83.7924500
94.0828629 8.7257128 89.4744949
94.7251587 9.2409697 89.5348053
95.3005981 9.8189068 89.5839767
95.8134537 10.4243488 89.6074600
96.2274704 11.0862446 89.6125641
96.5287399 11.8569708 89.6223526
96.8270493 12.6173630 89.6093826
-52.2659721 -18.8446903 70.1097641
-51.4578285 -18.2706451 70.1914749
-50.7693176 -17.6618958 70.2350006
-50.1582108 -16.9999466 70.2701340
-49.6116486 -16.2915306 70.3072662
-48.4050331 -13.9404497 70.3350296
-48.1816216 -13.0148792 70.2876129
-48.0096436 -12.1033878 70.2770004
-47.9617043 -11.1021242 70.1949387
-48.0056343 -10.0230989 70.1317978
-48.1956253 -8.8738279 70.0271835
-4.2789993 -14.5589132 76.5179596
-3.2176342 -14.1874390 76.6403580
0.6754746 -11.6230593 77.0188370
1.2782950 -11.0056477 77.0591125
3.5394945 -7.4168839 77.1440887
3.8334205 -6.6207438 77.1364746
4.4386024 -3.9219012 77.0440292
4.5193963 -2.9786630 76.9933395
4.5074835 -1.9742899 76.9285660
4.4062243 -0.8988219 76.8442993
4.2319517 0.2319210 76.7521591
43.8532104 -6.0493550 82.6754913
44.8968315 -5.7617369 82.7992935
47.5261917 -4.5770583 83.0951996
48.3102188 -4.0937581 83.1668015
52.8310966 1.7258004 83.4193344
53.0711784 2.5516539 83.4134750
53.2933235 3.3992743 83.3753815
53.4607391 4.2899961 83.3461533
53.5755615 5.2042232 83.3029709
53.6163406 6.2027960 83.2409363
53.5589714 7.2333636 83.1676331
53.4086609 8.3259182 83.0728683
53.1254921 9.5851030 82.9582062
93.6001587 7.1296616 88.7505341
94.3750305 7.5464869 88.8354263
95.0659180 8.0129986 88.8999710
95.6833801 8.5310869 88.9552841
96.2597122 9.0973034 88.9942169
96.7487793 9.7220154 89.0235367
97.1386642 10.3891048 89.0426788
97.5203552 11.1179419 89.0367355
97.8292770 11.8679667 89.0316391
98.0458450 12.6700344 89.0105896
98.1957245 13.5590668 88.9666290
98.2699966 14.5315170 88.9455338
-52.2310410 -17.8014126 69.1779861
-51.4722061 -17.2238960 69.2548523
-50.8480110 -16.5858479 69.2940750
-50.3052635 -15.8759432 69.3163834
-49.8537369 -15.1125002 69.3250427
-49.4690971 -14.3249187 69.3238449
-49.1472168 -13.4912424 69.3217545
-48.9425240 -12.5573196 69.2826462
-48.8253174 -11.6146336 69.2376328
-48.8054161 -10.5822182 69.1979218
-48.9379845 -9.4719210 69.0911484
-5.5629086 -14.7909040 75.5089645
-4.4117370 -14.4872484 75.6545029
-3.3062227 -14.1266012 75.7896500
-2.3445899 -13.7011223 75.8959579
-1.5276213 -13.2459116 75.9752731
1.7948200 -10.3091764 76.2514954
2.3053591 -9.6269207 76.2831650
3.4747319 -7.3721609 76.2922516
3.7740088 -6.5732183 76.2859192
4.3918457 -1.8910551 76.0659561
4.2750134 -0.7858505 75.9705963
4.0948172 0.3555084 75.8751221
44.1966667 -6.2641802 81.9330215
45.2031746 -5.9694290 82.0583572
51.5664558 -1.3635077 82.6546097
52.0292015 -0.6972311 82.6708221
53.8790283 5.0022655 82.5608139
53.9240417 5.9787374 82.5014801
53.5053024 9.3018990 82.2239075
94.4717255 6.4849491 88.1509476
98.3417206 10.5166569 88.4396133
98.6600418 11.2637138 88.4296341
98.8789673 12.0518675 88.4156647
99.0654373 12.9069490 88.3761063
99.1917801 13.8189487 88.3243256
99.1948853 14.8258324 88.2890091
-51.7853317 -16.0445290 68.2170410
-51.2130089 -15.3507013 68.2602310
-50.7727737 -14.5750208 68.2713318
-50.4067497 -13.8007612 68.2865448
-50.1013031 -12.9342947 68.2844467
-5.7620716 -14.6704779 74.6276550
-4.6087704 -14.3617020 74.7831268
-3.5178816 -14.0076523 74.9129410
-2.5268929 -13.6000032 75.0197906
-1.6578836 -13.1549292 75.1198196
1.6866337 -10.2397738 75.3953323
2.1814313 -9.5456800 75.4155655
3.3651395 -7.2970881 75.4465179
3.6405945 -6.4879670 75.4188919
4.2477174 -1.8144705 75.2085114
4.1318789 -0.7167136 75.1197968
3.9271617 0.4698375 75.0070648
44.4458466 -6.4341145 81.1810532
45.4726830 -6.1342678 81.3064423
51.8016472 -1.5148486 81.8956223
52.2468567 -0.8323449 81.9201736
54.1247177 4.8396635 81.8111572
54.1920509 5.8031602 81.7554855
53.8166542 9.0848255 81.4853668
53.3908348 10.4754457 81.3362350
94.3884277 5.5562658 87.4390564
95.1778793 5.9638715 87.5277023
99.0098267 10.0110121 87.8008881
99.3332138 10.7572470 87.8013153
99.6087646 11.5128708 87.7775955
99.8115387 12.3570442 87.7670364
99.9724503 13.2344484 87.7228622
100.0365906 14.1821117 87.6659622
100.0097504 15.1910563 87.6031876
-4.9080100 -14.1856966 73.8706360
-3.7858679 -13.8407030 74.0232849
-2.7578638 -13.4503241 74.1448593
-1.8701651 -13.0164738 74.2433853
-1.0813050 -12.5204248 74.3224945
-0.3607039 -11.9808550 74.3834839
1.5214682 -10.1307468 74.5388336
2.0047495 -9.4291744 74.5535889
3.6925166 -5.4959335 74.5286255
3.8986373 -4.5920177 74.5074768
4.0246544 -3.6502261 74.4547119
4.0792236 -2.7068393 74.4098511
4.0348663 -1.6526394 74.3273849
3.9013646 -0.5518256 74.2426071
3.6514668 0.6471598 74.1229706
44.6623917 -6.5731769 80.4211273
45.6718559 -6.2723770 80.5453110
51.9836655 -1.6447598 81.1339798
52.4225349 -0.9682812 81.1536255
54.0551453 2.9041624 81.1305618
54.2193909 3.7710071 81.0966721
54.3428116 4.6753130 81.0529175
54.4094810 5.6352978 80.9996185
54.3961029 6.6614079 80.9309769
54.3014832 7.7097116 80.8473892
54.0670967 8.9075937 80.7348785
53.6582108 10.2772207 80.5852814
93.3012085 4.4128170 86.6028900
94.1885300 4.7303958 86.7136612
95.0186310 5.0913157 86.8087769
95.8001175 5.5170798 86.8835678
96.5070648 5.9864092 86.9420013
97.0963211 6.5134029 87.0164566
100.6376495 12.7512522 87.0924683
100.7304764 13.6807280 87.0451126
100.7523880 14.6214800 86.9804230
100.6976395 15.6895428 86.9218979
-4.1038880 -13.6627045 73.1168823
-3.0820479 -13.2607794 73.2523651
-2.1879342 -12.8328876 73.3427277
-1.3815309 -12.3545628 73.4177551
-0.6071461 -11.8166075 73.5052643
1.2747527 -9.9794922 73.6451187
1.7710295 -9.2884502 73.6731567
3.4634831 -5.3463717 73.6518250
3.6542518 -4.4291453 73.6239853
3.7673831 -3.4882376 73.5766830
3.7965226 -2.5088139 73.5138245
3.7247481 -1.4548092 73.4326096
3.5498028 -0.3261274 73.3375244
3.2507055 0.9133545 73.1971207
44.8256760 -6.6772518 79.6519012
45.8422508 -6.3711591 79.7765732
52.1280899 -1.7303631 80.3668442
52.5768013 -1.0583684 80.3863602
54.2149582 2.7854764 80.3638000
54.3793716 3.6607614 80.3304596
54.4821243 4.5905867 80.2833328
54.5470657 5.5537081 80.2287521
54.5588799 6.5495615 80.1639023
54.4850349 7.5878792 80.0844650
54.2670288 8.7668505 79.9744644
53.8730850 10.1309958 79.8269348
92.9197159 3.6941183 85.8321304
93.9066696 3.9640579 85.9529953
94.7859879 4.2913413 86.0611496
95.6166840 4.6685400 86.1418686
96.3246307 5.1076570 86.2337036
97.0272522 5.5995426 86.2873611
97.6124420 6.1384220 86.3534698
101.1914291 12.3252850 86.4421921
101.3206482 13.2150288 86.3936234
101.3834915 14.1452112 86.3416443
101.3583755 15.1637049 86.2680740
101.2428741 16.2700768 86.2061996
-3.4683859 -13.0099754 72.3327789
-2.5343874 -12.6019287 72.4505234
-1.7021883 -12.1400566 72.5358124
-0.9284722 -11.6095591 72.6057892
-0.2365720 -11.0488844 72.6702576
0.3955217 -10.4513550 72.7235565
2.6636143 -6.8545742 72.8070679
2.9393861 -6.0212584 72.7882538
3.1694038 -5.1635904 72.7682495
3.3352869 -4.2204490 72.7174301
3.4339786 -3.2670782 72.6707382
3.4404438 -2.2916396 72.6127625
3.3328743 -1.2074983 72.5213547
3.1099107 -0.0385181 72.4100266
44.9197273 -6.7415128 78.8707199
45.9562302 -6.4382243 78.9992905
54.3262978 2.7144701 79.5900497
54.4760017 3.5947049 79.5523987
54.5705299 4.5263186 79.5032043
54.6543312 5.4752626 79.4528351
54.6818237 6.4651279 79.3906403
54.6069641 7.5205345 79.3088074
54.3915482 8.6825628 79.2006836
53.9982224 10.0586395 79.0508118
93.4723663 3.2858334 85.1792679
94.4356461 3.5735471 85.2965622
95.3015518 3.9194293 85.3992386
101.6829376 11.9768162 85.7829056
101.8179703 12.8543320 85.7511673
101.9318390 13.7418547 85.6892471
101.9296265 14.7434425 85.6230316
101.8467331 15.7835875 85.5436325
-3.9288967 -12.7285213 71.3936462
-2.9716921 -12.3245020 71.5321198
-2.1451430 -11.8603859 71.6144028
-1.3545686 -11.3469782 71.6896210
-0.6449289 -10.7993622 71.7546692
0.0049754 -10.2030344 71.8066559
2.3092616 -6.6176004 71.9007950
2.5839000 -5.7920103 71.8768997
2.8130820 -4.9169674 71.8557434
2.9576757 -3.9724045 71.8246918
3.0033360 -2.9783006 71.7540665
2.9870687 -1.9925103 71.7039566
2.8431799 -0.8869778 71.6002426
44.9545937 -6.7638736 78.0776138
45.9791756 -6.4723420 78.2057571
54.3939705 2.6652305 78.8084259
54.5441704 3.5441492 78.7709503
54.6469803 4.4721608 78.7216339
54.7327080 5.4416070 78.6685181
54.7533417 6.4269824 78.6064606
54.6654091 7.4739785 78.5229111
54.4408150 8.6432600 78.4122314
54.0694695 10.0142632 78.2636566
93.0009537 2.6892467 84.3861542
93.9985733 2.9367402 84.5106125
94.8881531 3.2436569 84.6248322
95.7320328 3.6092737 84.7214661
102.1338882 11.6438961 85.1063843
102.2884140 12.5040302 85.0736465
102.4072800 13.3964109 85.0278625
102.4309387 14.3575382 84.9619446
102.3671875 15.3871698 84.8855743
102.2419586 16.4908161 84.8034363
-3.5640588 -11.9683342 70.5543823
-2.7010727 -11.5046530 70.6727448
-1.8607924 -11.0137987 70.7643890
-1.1103476 -10.4823265 70.8335648
-0.4548869 -9.9061832 70.8921280
0.1430153 -9.2664528 70.9357452
0.6559801 -8.5719385 70.9535675
1.1079738 -7.8730359 70.9700470
1.5218620 -7.1351309 70.9875870
1.8771131 -6.3374348 70.9902573
2.1642640 -5.5300193 70.9760437
2.4007728 -3.6230540 70.8716736
2.4203134 -2.6192560 70.8054504
2.3648114 -1.5742923 70.7259827
44.9397354 -6.7457190 77.2755508
45.9780312 -6.4614301 77.4076691
52.3091393 -1.8479805 78.0125275
52.7774162 -1.1880163 78.0396423
53.9000130 1.0075876 78.0520401
54.1809807 1.7982914 78.0387726
54.4225159 2.6471779 78.0171814
54.5767441 3.5403218 77.9769821
54.4405632 8.6497669 77.6137314
93.4086227 2.3883090 83.7097244
94.4067688 2.6491039 83.8308182
96.8607712 3.7595673 84.1143188
97.5849838 4.2242646 84.1883163
98.2613373 4.7229781 84.2486420
98.8532791 5.2437840 84.2986069
102.8160706 15.0608225 84.2131653
102.7014008 16.1311665 84.1229935
142.6260376 18.2458706 89.8062057
143.2061157 18.7746372 89.8555450
143.7056122 19.3600979 89.9007111
-3.3581395 -11.1049223 69.6847916
-2.5114214 -10.6286011 69.7849579
-1.7426150 -10.0914736 69.8667221
-1.0881503 -9.5220165 69.9263153
-0.4427352 -8.8986368 69.9878922
0.0918857 -8.2262573 70.0084686
0.5757650 -7.5352807 70.0416794
0.9713302 -6.7842779 70.0400696
1.3099277 -5.9689016 70.0258636
1.5872556 -5.1408992 70.0214920
1.7229301 -4.2235522 69.9788818
1.7618526 -3.2012019 69.9091873
1.7581784 -2.1870351 69.8501892
44.8546600 -6.6888032 76.4598465
45.9131966 -6.4170580 76.5951538
52.2788849 -1.8262694 77.2135620
52.7592545 -1.1680058 77.2410049
53.8919754 1.0175864 77.2556686
54.1660042 1.8199682 77.2465591
54.3904190 2.6658032 77.2235107
54.5505447 3.5507214 77.1808853
54.3924255 8.6829615 76.8079987
92.7326202 1.9051203 82.8793030
93.7762833 2.1241415 83.0146637
94.7323303 2.3938532 83.1368103
97.1591034 3.5369897 83.4165268
97.8705292 4.0159435 83.4840775
98.5292435 4.5152636 83.5489044
99.1442871 5.0247641 83.6037292
103.2086945 14.7556868 83.5339508
103.1188126 15.8065948 83.4454498
102.9253235 16.9898853 83.3428040
143.2395325 16.8093262 89.2377243
143.8191833 17.2909298 89.3002548
144.3914185 17.8165569 89.3377151
144.8778381 18.4170322 89.3723602
145.2811432 19.0572338 89.3880768
145.5925751 19.7798576 89.4012985
145.9123535 20.5247345 89.3963089
-1.8070527 -9.0591612 68.9630127
-1.1552651 -8.4372406 69.0202255
-0.6017829 -7.7732859 69.0452728
-0.1245074 -7.0828390 69.0673141
0.2778973 -6.3341112 69.0810852
0.5957606 -5.5169892 69.0722961
0.8112979 -4.6525002 69.0385818
0.9534048 -3.7462878 69.0111618
0.9592336 -2.6989727 68.9240189
44.7277107 -6.5927701 75.6380234
45.7929001 -6.3309402 75.7754211
46.7845726 -6.0017972 75.8978958
47.6761246 -5.6100392 76.0026398
49.9382248 -4.1751413 76.2361374
50.5609550 -3.6266663 76.2919464
53.8220673 1.0705367 76.4448166
54.0653305 1.9077637 76.4163208
54.2788658 2.7502692 76.3887100
54.4783173 3.5960424 76.3742981
54.6560860 6.5088515 76.1947174
54.5361900 7.5682807 76.1065598
54.2611656 8.7821121 75.9826736
93.0639648 1.6745703 82.1795807
97.4489059 3.3446696 82.7089157
98.1099014 3.8145192 82.7921600
98.8006363 4.3100996 82.8472672
99.4236908 4.8146176 82.8998489
103.5416412 14.5100374 82.8436661
103.4735870 15.5425720 82.7584381
103.2797546 16.7100010 82.6506882
142.7818909 15.2236547 88.5645447
143.5079803 15.6254015 88.6595001
144.1835327 16.0372696 88.7163239
144.7694397 16.5341854 88.7741318
146.2563782 18.2919769 88.8599319
146.6016541 18.9767494 88.8641663
146.9073944 19.7222195 88.8630829
147.3102722 22.3302155 88.7484131
-2.0734241 -7.8623910 67.9896851
-1.5090044 -7.1873689 68.0407944
-1.0443016 -6.4919324 68.0575867
-0.6572490 -5.7390175 68.0658264
-0.4054711 -4.8960161 68.0330963
-0.2009612 -4.0209885 68.0014420
44.5002060 -6.4791923 74.7831116
45.5885048 -6.2050962 74.9369431
46.5849571 -5.8789573 75.0602188
47.5048637 -5.5055957 75.1681442
49.7993851 -4.0928965 75.4137268
50.4037437 -3.5461814 75.4512787
53.7007942 1.1526575 75.6347351
53.9268532 2.0009716 75.5942459
54.1597862 2.8339126 75.5811996
54.3647957 3.6784465 75.5621262
54.5129166 6.5989261 75.3718948
54.3673248 7.6675158 75.2800064
54.0640678 8.9288387 75.1434097
93.3175964 1.4815736 81.4719238
97.7084198 3.1634755 82.0004120
98.4101563 3.6284530 82.0704575
99.0780258 4.1226597 82.1405411
99.6859207 4.6364493 82.1936188
103.8234253 14.3027496 82.1401443
103.7681808 15.3307161 82.0595245
103.5909119 16.4800949 81.9534607
103.2635803 17.7839394 81.8157578
142.8553162 14.1895561 87.9245834
143.6545410 14.5372982 88.0102234
144.3620300 14.9476671 88.0924683
144.9917908 15.4025145 88.1607361
145.5820923 15.8931818 88.2113571
147.0302429 17.6528683 88.3037872
147.3882446 18.3420830 88.3131638
147.7202148 19.0665569 88.3049393
147.9680634 19.8108578 88.2874603
148.1347809 20.6581974 88.2493896
148.2193298 21.5709991 88.1998978
148.2796631 22.5351887 88.1493073
45.3179779 -6.0454001 74.0805969
46.3742943 -5.7099614 74.2221069
47.3041649 -5.3656950 74.3335419
48.1521301 -4.9545889 74.4361801
48.9214935 -4.4830585 74.5142136
53.5395355 1.2674441 74.8048096
53.7602921 2.1061110 74.7621078
53.9872208 2.9643404 74.7528152
54.1511879 3.8423080 74.7086563
54.2753105 4.7641401 74.6637421
54.3443413 5.7264719 74.6143951
54.2778244 6.7757249 74.5222931
54.1072655 7.8722053 74.4287338
53.7996445 9.1344042 74.2859955
93.5447769 1.3331200 80.7522049
103.8530960 16.2925873 81.2462997
103.5357819 17.5786743 81.1102905
142.7659302 13.2910156 87.2553177
143.5923004 13.6055918 87.3506393
145.6609802 14.8534508 87.5814362
146.2517700 15.3603611 87.6284409
146.7611847 15.9096622 87.6698151
147.2646027 16.5057068 87.6909027
147.6839142 17.1335201 87.7243805
148.0762939 17.8038330 87.7382126
148.4141083 18.5018139 87.7344742
148.6618958 19.2478905 87.7193222
148.8450012 20.0824146 87.7011261
149.0156250 20.9302750 87.6515350
149.1342926 21.8229313 87.5907822
149.1343842 22.8097458 87.5270615
46.0722504 -5.5234466 73.3610764
47.0315475 -5.1744905 73.4897461
47.8472824 -4.7715726 73.5623627
48.6739349 -4.3174019 73.6679764
53.3388367 1.4003993 73.9702835
53.5586662 2.2614968 73.9340057
53.7423668 3.1546404 73.8938141
53.8871384 4.0400600 73.8595123
54.0184135 4.9458861 73.8264847
54.0634422 5.9251690 73.7587357
53.9743729 6.9765706 73.6692963
53.7794800 8.0991764 73.5598221
93.7322693 1.2127256 80.0277100
104.0513382 16.1451797 80.5296326
103.7704239 17.4055042 80.3982925
142.5729523 12.4646931 86.5566635
143.4343872 12.7583122 86.6633530
144.2062073 13.0991125 86.7620926
146.2749786 14.3796806 86.9706268
146.8028564 14.9026070 87.0162277
147.2756195 15.4843884 87.0691223
147.8035889 16.0708828 87.0839844
148.2758179 16.6657600 87.1088715
148.6860657 17.3099194 87.1227264
149.0171509 18.0239639 87.1311646
149.2838287 18.7526016 87.1210861
149.5056915 19.5435734 87.0980225
149.6802063 20.3981724 87.0749817
149.8394623 21.2495365 87.0220947
149.8973694 22.1651554 86.9613495
149.8450470 23.2356148 86.8988800
46.6640854 -4.9229565 72.6182327
47.5127983 -4.5359507 72.7083359
48.3688316 -4.1030097 72.8189087
49.0986443 -3.6116550 72.8761215
49.7578850 -3.0841172 72.9400024
52.4149780 0.0911724 73.1292419
52.7896919 0.8266300 73.1253967
53.0827065 1.5865917 73.1249161
53.2950058 2.4289756 73.0946198
53.4543991 3.3406761 73.0523529
53.5763893 4.2701893 72.9875488
53.6979675 5.1967139 72.9503632
53.7227020 6.1637716 72.8999786
53.5994644 7.2461228 72.8002396
93.8555603 1.1286451 79.2924805
98.1850433 2.8094351 79.8263855
98.8939285 3.2765193 79.9005737
103.3525772 8.7466459 80.1869888
103.6345596 9.5122719 80.1759491
104.3636703 13.9092131 79.9760666
104.3128891 14.9328938 79.8964310
104.1825562 16.0409718 79.7994766
103.9416199 17.2907372 79.6724548
142.2633209 11.7405930 85.8334503
143.1776428 11.9978113 85.9589615
146.7778778 13.9802628 86.3606415
147.2938690 14.5176449 86.4022064
148.7644043 16.2683754 86.4976959
149.1598663 16.9229374 86.5217285
150.0760803 19.0802879 86.4907227
150.2611084 19.9354973 86.4802094
150.4297485 20.7668114 86.4346771
150.5107269 21.6972961 86.3891068
150.5235748 22.6516094 86.3057861
150.4485626 23.7428112 86.2425842
46.1938667 -4.6298575 71.7169037
47.0907173 -4.2386279 71.8276749
47.9510727 -3.8167467 71.9289322
48.7333717 -3.3510029 72.0122528
49.4378395 -2.8393676 72.0915985
52.0761719 0.3322064 72.2664032
52.4323997 1.0674844 72.2602234
52.7315598 1.8378793 72.2528687
52.9600792 2.6682658 72.2270355
53.1130943 3.5777838 72.1740952
53.2509956 4.4917383 72.1485138
53.3201408 5.4395428 72.0928040
53.2719269 6.4835010 72.0041962
53.1152420 7.5905786 71.8978195
92.6775131 0.9263822 78.3684082
93.9026642 1.0830325 78.5427933
98.2520065 2.7567811 79.0822601
98.9829178 3.2267606 79.1605759
103.4421921 8.6871490 79.4498367
103.7329712 9.4506302 79.4386749
104.4437332 13.8446827 79.2352676
104.3652725 14.8803434 79.1514053
104.2374268 16.0015316 79.0525742
104.0263443 17.2294140 78.9314499
141.8399658 11.1164131 85.0979538
142.7937927 11.3148355 85.2232285
143.6876221 11.5888758 85.3415375
147.2281952 13.6274252 85.7318649
147.7670288 14.1447687 85.7651901
149.1884003 15.9091072 85.8759995
149.6214447 16.5484848 85.8808823
150.5762024 18.6855946 85.8789978
150.7912292 19.4953747 85.8588486
150.9700775 20.3365173 85.8269119
151.0919495 21.2074299 85.7746048
151.1177521 22.1741753 85.7162781
151.0705872 23.1885090 85.6282654
150.9183044 24.3199806 85.5495834
46.5942001 -3.9065397 70.9305496
47.4599342 -3.4828634 71.0354919
48.2685699 -3.0216532 71.1248016
48.9789772 -2.5305841 71.1954803
49.6371956 -1.9914478 71.2581711
50.2297478 -1.3916804 71.3098831
50.7426109 -0.7438889 71.3168716
51.2167130 -0.0858029 71.3470612
52.3019638 2.1367450 71.3644333
52.5513191 2.9511542 71.3612747
52.7230225 3.8535299 71.3137741
52.8156433 4.7880201 71.2630997
52.8035316 5.7997441 71.1782379
52.7129974 6.8752623 71.0941010
92.7108459 0.9090307 77.6120987
93.9183960 1.0624877 77.7854233
94.9442596 1.3000942 77.9255981
95.8676071 1.5875028 78.0453033
98.2978745 2.7339501 78.3354492
99.0070724 3.2026064 78.4097519
103.4893188 8.6488943 78.7073441
103.7774811 9.4236832 78.6900253
104.4206085 11.8963737 78.6144562
104.5009003 12.8209105 78.5625458
104.4681931 13.8506498 78.4791718
104.3823776 14.8947964 78.3917694
104.2602234 15.9934950 78.2995605
104.0563583 17.2045135 78.1797714
142.3640900 10.7384567 84.4740982
143.2749481 10.9523802 84.6030884
144.1399078 11.2312584 84.7128601
148.6731873 14.3972397 85.1918259
149.1556244 14.9814081 85.2021408
149.5784302 15.5896263 85.2370300
150.0187225 16.2298107 85.2522583
150.4139862 16.8991756 85.2612457
150.7291870 17.6024590 85.2690277
151.0171051 18.3308372 85.2490921
151.2503967 19.1225758 85.2359085
151.4483948 19.9411945 85.2034912
151.5811920 20.8130589 85.1634369
151.6311646 21.7605801 85.1047897
151.6012115 22.7683945 85.0280304
151.4846802 23.8164921 84.9312592
151.2595520 25.0333138 84.8319702
46.8630829 -3.0953076 70.1108246
47.6906013 -2.6256893 70.2162170
48.4126396 -2.1478713 70.2757416
49.1171570 -1.6287551 70.3592606
49.7178497 -1.0453743 70.3921814
50.2960739 -0.4401944 70.4581146
50.7561111 0.2320745 70.4697495
51.7889519 2.5006549 70.4639130
52.0106506 3.3447320 70.4323654
94.9197922 1.3190407 77.1625061
95.8492584 1.6080350 77.2851257
98.2881012 2.7491057 77.5725250
99.0037155 3.2150156 77.6490479
103.4952545 8.6594667 77.9486389
103.7890320 9.4302368 77.9367218
104.4164124 11.9106750 77.8545990
104.5006409 12.8296862 77.8051529
104.4901276 13.8178568 77.7308426
104.4119339 14.8736286 77.6407471
104.2796555 16.0028400 77.5404205
104.0535507 17.2373390 77.4148407
141.7674103 10.2163115 83.7104645
142.7643280 10.4015360 83.8424072
143.7035675 10.6308651 83.9666367
144.5347900 10.9264278 84.0775757
149.0441132 14.1154814 84.5312347
149.4808044 14.7249966 84.5629807
149.9026184 15.3383799 84.5823746
150.3409576 15.9594994 84.6010132
150.7576447 16.6258049 84.6169052
151.0930634 17.3026791 84.6232071
151.3871307 18.0342445 84.6204681
151.6344604 18.8081932 84.6024475
151.8394775 19.6288738 84.5726547
151.9909515 20.4711475 84.5308380
152.0669861 21.4140453 84.4793777
152.0781097 22.3835011 84.4059143
151.9892426 23.4168072 84.3174591
151.7975006 24.5613728 84.2102509
46.9802856 -2.1585212 69.2667694
47.7783356 -1.7081751 69.3618546
48.4832764 -1.1962408 69.4299240
49.1303635 -0.6297843 69.4794922
49.7362251 -0.0339059 69.5455551
50.1824570 0.6227939 69.5613861
50.5768280 1.3501945 69.5654221
50.9107399 2.1306710 69.5611038
51.1503105 2.9378204 69.5278397
51.3769913 3.7770233 69.5180511
94.8265686 1.3794872 76.3828354
95.7557831 1.6640511 76.5044861
100.8529587 4.7573690 77.0685196
101.3750763 5.3384619 77.1022415
104.0364075 10.2452927 77.1619263
104.2404404 11.0696955 77.1343842
104.3681717 11.9507627 77.0873413
104.4532776 12.8801365 77.0368576
104.4726486 13.8382769 76.9743500
104.4152679 14.8676891 76.8873367
104.2685165 15.9980211 76.7856674
143.1433258 10.1037979 83.2012177
149.3538666 13.8815365 83.8851318
149.7785187 14.5001059 83.9144745
152.4562531 21.0867176 83.8417664
152.4781952 22.0582638 83.7800903
152.4297638 23.0543518 83.6939468
152.2768250 24.1553078 83.5851364
46.0556107 -1.5652094 68.2606583
46.9341812 -1.1462590 68.3796463
47.6758728 -0.6462266 68.4750290
48.3421783 -0.0821707 68.5327835
48.9407692 0.5060528 68.5876694
49.4203033 1.1537744 68.6208878
49.8403893 1.8694167 68.6347122
50.1316261 2.6556029 68.6098785
50.3666039 3.4751203 68.5917969
50.5079918 4.3715863 68.5617142
94.6953125 1.4718039 75.5912094
95.6479874 1.7440760 75.7239532
100.7718124 4.8221760 76.2959976
101.3247910 5.4254327 76.3373489
103.9623032 10.3097048 76.3877182
104.1601791 11.1302299 76.3643417
104.2737122 12.0223761 76.3115311
104.3314667 12.9855537 76.2471313
104.3445969 13.9392920 76.1866837
104.3134689 14.9587736 76.1074448
104.1577454 16.0919418 76.0022888
142.5181427 9.6400471 82.4167557
143.4887848 9.8538837 82.5465317
149.6515198 13.6420355 83.2236176
150.1018219 14.2507992 83.2533646
152.8065338 20.7910366 83.1935425
152.8473358 21.7549152 83.1351852
152.8101501 22.7529659 83.0581512
152.6713409 23.8433990 82.9550095
152.4196472 25.0480900 82.8267365
47.2703438 0.6452599 67.5060501
49.0964584 3.3877652 67.5713806
95.5177536 1.8628346 74.9386749
96.4222794 2.1723776 75.0565796
97.2445755 2.5352626 75.1501541
101.7215271 6.0892792 75.6025238
102.1826401 6.7235918 75.6169281
103.8520279 10.3936548 75.6102982
104.0482025 11.2196989 75.5830841
104.1388702 12.1392841 75.5245514
104.1691589 13.1020613 75.4612503
104.1834488 14.0745554 75.3919067
104.1598282 15.0759115 75.3227692
103.9778519 16.2458000 75.1997681
142.8158112 9.4206715 81.7555389
143.7645721 9.6358891 81.8864670
147.6271362 11.3889894 82.3594742
148.2601318 11.8539047 82.4295578
152.3050995 17.2900734 82.6607513
152.5769806 18.0485802 82.6439896
152.8011017 18.8448067 82.6184540
152.9734497 19.6918755 82.5893021
153.1391907 22.4646206 82.4102478
153.0162964 23.5685062 82.3102722
152.7716827 24.7687359 82.1809387
95.2830811 2.0254066 74.1219482
96.2053070 2.3345430 74.2518539
97.0623093 2.6766992 74.3591385
101.5699997 6.2084656 74.7922974
102.0479813 6.8384280 74.8341064
103.7171402 10.4994135 74.8245544
103.8981552 11.3239584 74.8027802
103.9688644 12.2498503 74.7399673
103.9860840 13.2400179 74.6598587
104.0015411 14.2171526 74.5933456
103.9407730 15.2605934 74.5137024
143.0720978 9.2303410 81.0877151
144.0168915 9.4462185 81.2197342
147.8527679 11.2117815 81.6895599
148.4791870 11.6877775 81.7525253
152.5220184 17.1149998 81.9895630
152.7944183 17.8840313 81.9774399
153.0291595 18.6666985 81.9531708
153.2143707 19.4918518 81.9229126
153.4085693 22.2555866 81.7495804
95.9391251 2.5274506 73.4379425
96.8200989 2.8559670 73.5507584
97.6470261 3.2274487 73.6568451
98.4038162 3.6631963 73.7440643
99.0973129 4.1451130 73.8149567
99.7168198 4.6459818 73.8650055
102.9841843 9.0780602 74.0617218
103.2800446 9.8302822 74.0547028
103.5019913 10.6667690 74.0157623
103.6557770 11.5272369 73.9828339
103.7396393 12.4226904 73.9394608
103.7689896 13.4340887 73.8551102
103.7713318 14.4065800 73.7947464
143.2737732 9.0709448 80.4086304
144.2264557 9.2866201 80.5431900
153.6300659 22.0780182 81.0788803
96.5156326 3.0892997 72.7292480
97.3630524 3.4434679 72.8341064
98.1218414 3.8636365 72.9166641
98.8535919 4.3316708 73.0027695
99.5032730 4.8108850 73.0748520
102.7540436 9.2468281 73.2608871
103.0172806 10.0331240 73.2435074
103.2192078 10.8770351 73.2056046
103.3668823 11.7580204 73.1591721
103.4597855 12.6619663 73.1126099
103.4940414 13.6346321 73.0417328
103.4534225 14.6571655 72.9626236
143.4499817 8.9455175 79.7246094
144.3826904 9.1665773 79.8566971
153.8070068 21.9431152 80.3994522
153.7314606 22.9933701 80.3098526
153.5622559 24.1450558 80.1967773
153.2264404 25.4614544 80.0453873
96.1542435 3.3763962 71.8970718
97.0230637 3.7112167 72.0103683
97.8022461 4.1101699 72.0917282
98.5436859 4.5620718 72.1768417
99.1928482 5.0448275 72.2474976
99.7938156 5.5731444 72.2901077
100.3872986 6.1293654 72.3574524
100.9083099 6.7175388 72.4021530
101.3592529 7.3424716 72.4238281
101.7800598 8.0217409 72.4374847
102.1468048 8.7313643 72.4367599
102.9085464 11.1033936 72.3913956
103.0506668 11.9904108 72.3350143
103.1281738 12.9086447 72.2863388
103.1177979 13.9301910 72.2076569
142.5039825 8.6981783 78.8722382
143.5690613 8.8597355 79.0298767
144.4837494 9.0785522 79.1593475
153.7222900 24.0164318 79.5132217
153.3779907 25.3511772 79.3586578
96.5709534 4.0310941 71.1384430
97.4220352 4.4185677 71.2642288
98.1441193 4.8569436 71.3337479
98.7897415 5.3248901 71.3998795
99.4382324 5.8394742 71.4759445
100.0103683 6.4204521 71.5124512
100.5091934 7.0215349 71.5368652
100.9938278 7.6257820 71.5821457
101.4370804 8.2867022 71.6039124
101.8043137 8.9919062 71.6221771
102.5287704 11.4167681 71.5451889
102.6574631 12.2831917 71.5042038
102.6682281 13.2783775 71.4205093
102.6078568 14.3183670 71.3356705
143.6332092 8.8083344 78.3236923
144.5746307 9.0241442 78.4578934
153.8357544 23.9276333 78.8203125
153.4970093 25.2605915 78.6643524
96.8879013 4.7902961 70.3821030
97.6676254 5.2231827 70.4741287
98.3263168 5.6755657 70.5379639
98.9679718 6.1902680 70.6076736
99.5241699 6.7733006 70.6407547
100.0642242 7.3528056 70.7028351
100.5667801 7.9544969 70.7391281
101.6079865 10.1147413 70.7131729
101.8517761 10.9122648 70.7165985
102.0292969 11.8051186 70.6657791
102.1288681 12.6870327 70.6323624
102.1020355 13.7029896 70.5415344
143.6625977 8.7911329 77.6093292
144.6024170 9.0058346 77.7441788
153.8886871 23.8956051 78.1127548
153.5776062 25.2186737 77.9602509
96.2672424 5.2443357 69.4721985
97.0425644 5.6635032 69.5886765
97.7576523 6.1028752 69.6704636
98.4092026 6.6035852 69.7262878
98.9913101 7.1680083 69.7745514
99.5212860 7.7567878 69.8050461
100.0411530 8.3528938 69.8620071
101.0728378 10.5076714 69.8638840
101.2627792 11.3714218 69.8227386
101.4106674 12.2422552 69.7903671
101.4625168 13.2061882 69.7146988
143.6455536 8.7992201 76.8838348
144.5952301 9.0202074 77.0230942
153.8988190 23.8933048 77.3959656
153.5929565 25.2185307 77.2422028
96.2251892 6.2613859 68.6181412
97.0200729 6.6504827 68.7483673
97.7462158 7.1056671 68.8408737
98.3459549 7.6567554 68.8906708
98.8803864 8.2402306 68.9228439
99.3763733 8.8495865 68.9570007
99.7989578 9.5267534 68.9725037
100.1255493 10.2621288 68.9712524
100.3484344 11.0520983 68.9466324
100.5017395 11.9455032 68.8932800
100.6102295 12.8528242 68.8373795
144.5368500 9.0662031 76.2901611
151.7126923 13.9384975 77.0802612
152.1341248 14.5709410 77.1061096
153.7018127 18.1502476 77.0892944
153.8990326 18.9651661 77.0583267
154.0357666 19.8388977 77.0114212
154.1151276 20.7588005 76.9539642
153.8695831 23.9193668 76.6706161
153.5652466 25.2334080 76.5166321
97.4895477 8.2794609 67.9170227
98.0417709 8.8609686 67.9703979
98.5280914 9.4845953 68.0172653
98.9096985 10.1754332 68.0250397
99.2222366 10.9279642 68.0223618
99.4351196 11.7327433 67.9788361
143.4684448 8.9353018 75.3996277
144.4294891 9.1524534 75.5449905
151.6936188 13.9716082 76.3649216
152.1002808 14.6091738 76.3782425
153.6471558 18.2020893 76.3500977
153.8225555 19.0403633 76.3158646
153.9611969 19.9092999 76.2768250
154.0516510 20.8269062 76.2171402
153.7966766 23.9835835 75.9352036
144.3137512 9.2557688 74.7986832
153.5652466 18.2862473 75.6148987
153.7394257 19.1203308 75.5777588
153.9790955 21.8444157 75.4148178
153.8833008 22.9057045 75.3171616
153.6560516 24.1116333 75.1821976
144.1392975 9.3954773 74.0373459
153.4723816 18.3630009 74.8865891
153.6370544 19.1880836 74.8494415
153.8197479 21.9866295 74.6570206
153.7044678 23.0724545 74.5510864
143.9060211 9.5733595 73.2571030
144.8295288 9.7934160 73.4042282
145.7195740 10.0673180 73.5306854
146.5513306 10.3848352 73.6462021
147.3073730 10.7482166 73.7420654
150.3932343 13.1061840 74.0677261
150.8993530 13.6715536 74.1109085
151.3483582 14.2626028 74.1338272
151.7729034 14.8758316 74.1566620
153.3190460 18.4954948 74.1284637
153.4727936 19.3506527 74.0827255
153.5839996 20.2369919 74.0389023
153.6407013 21.1911812 73.9698105
153.6019135 22.1772881 73.8892441
153.4548035 23.2766190 73.7770767
145.4614258 10.2743969 72.7489777
146.3179321 10.5802803 72.8708115
147.0749664 10.9299850 72.9646835
150.1824951 13.2675161 73.2916336
150.6837463 13.8464622 73.3345871
151.1425018 14.4246330 73.3783646
151.5977173 15.0395508 73.4062271
153.1240387 18.6535492 73.3695602
153.2662811 19.5238972 73.3184586
153.3602448 20.4412689 73.2637863
153.3952789 21.3880005 73.2027664
153.3146515 22.4159088 73.1090469
153.1250458 23.5631180 72.9764023
146.0143738 10.8188639 72.0848999
146.8081512 11.1545630 72.1841965
148.8518219 12.4193630 72.4311829
149.4225616 12.9286604 72.4887848
149.9642029 13.4774818 72.5402679
150.4278107 14.0592356 72.5490570
150.8718872 14.6357384 72.5657578
151.3533936 15.2334700 72.6290741
152.4197235 17.2912579 72.6401596
152.6706543 18.0500565 72.6260605
153.0765533 20.6715565 72.4840393
153.0666656 21.6704845 72.4011688
146.4646759 11.4206161 71.3922272
148.5484772 12.6721697 71.6376419
149.1067657 13.1697559 71.6767883
149.6827393 13.6962748 71.7589722
150.1802216 14.2590561 71.8007126
150.6403809 14.8588982 71.8116455
151.0890198 15.4746046 71.8421097
152.1014404 17.5553017 71.8395538
152.3412628 18.3087616 71.8243561
152.7067871 20.9768658 71.6806259
152.6644897 22.0094051 71.5939255
145.2109528 11.4639006 70.4490051
146.0544891 11.7514133 70.5830612
146.7991486 12.1125708 70.6689606
147.5319977 12.5229712 70.7626343
148.1879578 12.9589367 70.8431168
148.7724457 13.4455709 70.8898697
150.3185730 15.1236315 71.0281067
150.7276001 15.7535353 71.0337219
151.7374573 17.8465290 71.0450516
151.9651642 18.6253872 71.0212631
152.1299133 19.4616756 70.9853973
152.2209778 20.3835583 70.9304199
152.2226563 21.3932953 70.8447189
145.5451202 12.1472683 69.7165527
146.3265686 12.4988966 69.8426590
147.0745850 12.8894110 69.9375305
147.7591095 13.3056993 70.0214844
148.3787994 13.7757750 70.0914307
149.8985443 15.4629698 70.2095566
150.2855530 16.1229248 70.2081070
151.3169556 18.1979485 70.2327728
151.5134735 19.0011158 70.1972198
151.6292877 19.9071178 70.1338959
151.6790466 20.8377075 70.0801163
145.7290192 12.9633818 68.9823685
146.4974213 13.3528271 69.0820160
147.2130127 13.7423372 69.1728668
147.8695526 14.1845884 69.2507858
148.4515533 14.7001820 69.3034592
148.9709167 15.2528410 69.3446884
149.4136658 15.8574266 69.3755112
149.7742615 16.5451927 69.3574829
150.1485901 17.2266445 69.3832474
150.5057831 17.9111061 69.3987656
150.7906799 18.6354904 69.3955460
150.9602814 19.4681110 69.3519745
151.0410004 20.3756771 69.2935181
145.7892151 13.9088154 68.1740646
146.5555267 14.2734499 68.2996750
147.2200775 14.7045012 68.3769150
147.8469849 15.1802998 68.4538879
148.3787231 15.7170744 68.4898376
148.8449249 16.3015842 68.5342255
149.2129669 16.9899445 68.5383759
149.5242157 17.7523975 68.4900208
149.8829193 18.4329891 68.5341644
150.1174927 19.1981106 68.5070267
147.0010834 15.8329782 67.5297775
147.5800323 16.3538342 67.5923309
148.0587311 16.9364071 67.6218185
148.4742889 17.5834446 67.6522903
148.8097076 18.3182049 67.6309280
146.9477844 17.8322582 66.6106033
150.2784424 16.3136158 339.5117188
151.1239319 17.5816841 339.4887390
148.8108063 13.6196432 338.0665588
150.0181885 14.5679073 337.9667358
151.0775299 15.6556120 337.8935242
152.5974731 18.3149166 337.8865967
149.3976898 13.1504583 336.4995728
153.1925354 17.8256340 336.3174133
148.4359131 11.9510794 335.1056824
151.9564056 14.9413767 334.8277283
152.8377075 16.1804810 334.7998657
153.5446014 17.5332947 334.8051758
154.0930328 19.0278378 334.8437195
154.4652405 20.6807461 334.9237061
99.6263046 8.8716106 340.6136780
100.4641266 10.2132187 340.6018066
147.1817780 11.0097017 333.7781372
152.1778412 14.7517099 333.3418884
153.0468140 15.9989395 333.3177185
153.7588196 17.3578739 333.3221436
154.2966461 18.8407574 333.3659973
154.6924133 20.4942360 333.4409180
154.8607635 22.3359909 333.5665283
99.6150970 6.9085202 338.9400024
100.6976547 8.0786438 338.8731384
102.1800232 10.9090614 338.8883362
147.3186951 10.9026651 332.3054504
152.2564850 14.6962805 331.8923645
153.1248169 15.9347830 331.8647156
153.8367310 17.2931900 331.8715515
154.3876953 18.7683926 331.9094543
154.7822113 20.4204979 331.9859619
154.9696045 22.2375584 332.1049194
101.4176636 7.5277934 337.2070007
102.2723846 8.8620520 337.1904602
102.9499664 10.3338413 337.2093506
103.4136581 11.9565582 337.2742310
147.2810211 10.9245338 330.8731384
148.7579041 11.7029505 330.7220154
153.0524902 15.9912853 330.4459534
153.7735596 17.3425903 330.4496460
154.3158569 18.8200569 330.4897156
154.9125519 22.2752342 330.6789856
99.6941147 4.8998389 335.7281494
100.8732910 5.9635191 335.6471558
101.8959198 7.1758595 335.5949402
102.7455826 8.5086985 335.5799561
103.9386444 11.5431061 335.6484070
147.1202545 11.0543289 329.4662781
148.5929260 11.8376198 329.3180542
152.8694153 16.1510334 329.0499573
154.6827393 22.4669380 329.2889404
98.6256104 3.7260320 334.2702942
104.5864944 13.0330801 334.1578064
146.8208313 11.2990990 328.0874023
148.2883759 12.0788145 327.9399414
149.5883636 12.9880524 327.8291626
150.6985168 14.0007668 327.7521057
151.6928406 15.1494541 327.7012939
152.5580750 16.4036942 327.6787109
153.2468109 17.7603741 327.6866455
154.1524506 20.9468269 327.8064880
50.4809761 0.6726953 339.1981812
101.3094482 5.6345334 332.5253296
102.3339844 6.8460202 332.4760742
146.3593292 11.6493063 326.7362366
147.8601074 12.4251814 326.5878296
149.1485443 13.3462448 326.4798279
150.2332916 14.3629904 326.4047852
151.2568970 15.5001593 326.3527832
152.1175537 16.7542400 326.3294373
152.7986908 18.1231079 326.3411865
153.3197479 19.6402626 326.3866882
153.6651306 21.3516426 326.4685364
51.3137550 0.0978292 337.4410400
52.0994492 1.5288821 337.4440002
97.2106857 2.7931025 331.3557739
100.1270523 4.5985146 331.0934143
101.2860031 5.6624136 331.0157471
102.3144760 6.8650618 330.9664307
103.1574326 8.1964617 330.9517822
103.8456497 9.6339159 330.9673462
104.3794327 11.2044420 331.0141602
104.7290421 12.9360733 331.0969543
147.2560883 12.9067669 325.2662048
148.5707855 13.8084860 325.1559143
149.6768494 14.8102722 325.0795593
150.7055206 15.9485521 325.0268555
151.5413971 17.2253437 325.0079651
152.2026215 18.6031895 325.0230103
48.2687531 -3.7814994 335.9647522
49.7089615 -2.7690527 335.8427124
50.8904839 -1.6064883 335.7751465
51.8916283 -0.2975945 335.7358398
52.6911583 1.1106917 335.7325134
97.0589905 2.8985744 329.8640747
98.6102982 3.7451189 329.7174683
99.9732819 4.7161083 329.6062317
103.0014801 8.3244743 329.4683838
103.6828995 9.7604561 329.4841003
104.1917801 11.3394642 329.5338745
104.5405884 13.0747204 329.6176758
104.6212692 14.9850063 329.7501526
146.4948425 13.5107346 323.9706116
147.8373260 14.3939934 323.8566589
148.9653778 15.3784504 323.7788086
149.9718628 16.5377789 323.7280579
150.7980804 17.8264008 323.7162781
151.4196625 19.2368889 323.7330322
48.6803322 -4.0558376 334.2899475
51.2685242 -1.8496747 334.1060791
52.2441368 -0.5402403 334.0738831
53.0269165 0.8797146 334.0758057
53.6643982 2.4584980 334.1091003
54.1070862 4.1521549 334.1744080
96.7246323 3.1403148 328.4057617
98.2935104 3.9795725 328.2597656
99.6570587 4.9478431 328.1486511
100.8175125 6.0088820 328.0731506
101.8232269 7.2280416 328.0287781
103.3368607 10.0176725 328.0339050
103.8398590 11.5978775 328.0859070
104.1747208 13.3557835 328.1708984
104.2436523 15.2748899 328.3034668
149.0426483 17.2869740 322.4685059
149.8440857 18.6004753 322.4576721
1.0783112 -6.5586448 338.7849426
47.2860718 -5.0811605 332.7989807
48.8756218 -4.1770320 332.6562195
50.2420998 -3.1373065 332.5526123
51.4250755 -1.9535950 332.4835205
53.1885071 0.7723563 332.4523315
53.8370705 2.3424237 332.4802856
54.2835159 4.0293736 332.5466919
54.4979324 5.8667288 332.6539612
97.8086624 4.3349156 326.8287659
100.3306427 6.3688459 326.6464539
101.3455658 7.5915937 326.6026611
102.8387222 10.3956957 326.6103210
103.6476364 13.7740631 326.7510071
146.8281250 17.0865326 321.3025513
147.8325195 18.2693920 321.2571716
148.6177216 19.6024303 321.2567444
45.4581261 -5.8201079 331.3832703
47.3076134 -5.0933757 331.1955872
48.8828697 -4.1852841 331.0570984
50.2405739 -3.1309896 330.9563599
51.3975143 -1.9277482 330.8936462
53.8217545 2.3506122 330.8888245
54.2836456 4.0296731 330.9501038
54.5087395 5.8645716 331.0543213
54.4386864 7.9282355 331.2134705
97.1510391 4.8188362 325.4308777
98.5248337 5.7822676 325.3214417
99.6943054 6.8413024 325.2467041
100.7173767 8.0689087 325.2042236
102.9361038 14.2999506 325.3645630
-0.7688781 -11.4303770 335.3151550
47.1223450 -4.9739532 329.6284180
48.7075157 -4.0658970 329.4904175
52.1888657 -0.4946650 329.2986755
53.0066452 0.9202038 329.2960815
53.6453552 2.4826219 329.3255005
54.1024132 4.1639481 329.3879700
54.3103180 6.0064683 329.4929199
54.2472076 8.0663357 329.6490479
96.2804871 5.4628954 324.0667725
97.6770859 6.4090757 323.9527283
100.7200012 10.0416040 323.8210754
101.8118362 13.1359749 323.9061584
-49.9468231 -15.7791109 339.5571594
-49.0652237 -14.2470226 339.5560913
-0.4216744 -11.6456871 333.5756226
1.9457326 -9.1149149 333.4570313
2.8260477 -7.6541662 333.4479370
3.4796667 -6.0652604 333.4783325
3.9548755 -4.3469853 333.5398560
4.1870084 -2.4523520 333.6441956
46.7271461 -4.7031608 328.0960388
49.6847076 -2.7323928 327.8616638
52.6421890 1.1728815 327.7639160
53.2781448 2.7360103 327.7955627
53.7213745 4.4349394 327.8589478
53.9276924 6.2796564 327.9638977
97.8368530 8.2196732 322.5454407
100.2732468 12.3231478 322.5228882
-48.9364624 -16.3741875 337.6275024
-1.8312795 -12.7605419 331.9998779
2.0573282 -9.1797342 331.7635193
2.9573371 -7.7289453 331.7506104
3.6147358 -6.1411471 331.7814636
4.2956452 -2.5186331 331.9505005
46.1678543 -4.3277893 326.5941467
47.7766495 -3.4251461 326.4533081
49.1565514 -2.3760035 326.3570557
52.1028786 1.5500665 326.2619629
52.7126999 3.1324553 326.2957153
53.1442451 4.8413377 326.3627319
53.3342400 6.6999183 326.4687195
96.4290771 9.2474327 321.2634277
97.4786377 10.4673042 321.2183838
-49.4298096 -18.1216145 335.8104248
-48.2979813 -16.7397747 335.7694702
-3.6170900 -13.6383047 330.4785156
-0.3637128 -11.6701260 330.2138977
0.9158573 -10.4361868 330.1410828
1.9733977 -9.1195107 330.1021729
2.8727186 -7.6666174 330.0920410
3.5587721 -6.1047902 330.1153564
47.0217781 -2.9084113 324.9824829
48.4170456 -1.8756384 324.8817749
49.5880203 -0.6893775 324.8206177
50.5822258 0.6404721 324.7891235
51.3599396 2.0579433 324.7917480
51.9717216 3.6515489 324.8259277
-46.3856316 -13.7804518 333.9819946
-3.8863523 -13.4523067 328.8437195
-0.6293427 -11.4961853 328.5814209
0.6355895 -10.2589474 328.5123291
1.6989496 -8.9405136 328.4729614
2.5954587 -7.4941325 328.4636536
3.2638698 -5.9125791 328.4894409
47.4505005 -1.2152277 323.4452209
48.6507187 -0.0438884 323.3795166
49.6427498 1.2813444 323.3464050
50.3879890 2.7351346 323.3542175
50.9873123 4.3382578 323.3949890
-99.4627533 -24.6064262 337.8507080
-98.5290222 -23.0499783 337.8456116
-50.2336922 -19.6710377 332.2917175
-48.9199829 -18.3994770 332.2193604
-47.7957153 -17.0138836 332.1774902
-46.9180794 -15.4911356 332.1756897
-46.2517090 -13.8545036 332.2057495
1.2374488 -8.6392622 326.8726196
2.1084287 -7.1737933 326.8663330
2.7790279 -5.6000776 326.8941956
3.2292767 -3.8507626 326.9557800
47.4078751 0.8131319 321.9800415
48.3943062 2.1312017 321.9556580
-99.9141998 -26.4216423 335.9466553
-98.7024689 -25.0066261 335.8961792
-50.3053131 -19.6274300 330.5458374
-49.0061302 -18.3427982 330.4781189
-47.8895798 -16.9538078 330.4386902
-47.0059319 -15.4305897 330.4364319
0.5628791 -8.2043104 325.3034058
2.5411937 -3.4015901 325.3906860
2.7029214 -1.4777155 325.4979553
-100.9556351 -27.9652462 334.1289673
-99.4770966 -26.6432209 334.0439758
-98.3014450 -25.2289772 334.0020142
-96.6977692 -21.9409847 334.0304260
-96.1433334 -18.0627022 334.2187195
-50.5852470 -19.4516621 328.8343201
-49.2922058 -18.1750908 328.7673035
-48.1987534 -16.7716122 328.7317505
-47.3263588 -15.2359991 328.7306519
-1.4279343 -8.9459782 323.8097229
-0.3523175 -7.6277337 323.7715454
0.5249921 -6.1561608 323.7592773
1.1749723 -4.5600982 323.7960815
1.5824437 -2.7742672 323.8634033
-99.3316574 -26.7175522 332.1880493
-51.1387215 -19.1224537 327.1590881
-48.6969337 -16.4741116 327.0520630
-47.8205070 -14.9358139 327.0523987
-47.1576385 -13.2892694 327.0812073
-102.5446701 -29.1436863 330.5596008
-100.8443298 -27.9969769 330.4410706
-98.2735291 -25.2193203 330.3283997
-97.3381882 -23.6617584 330.3221130
-50.5299225 -17.4281406 325.4415894
-49.4285889 -16.0438881 325.4075928
-48.5546074 -14.4929304 325.4046021
-47.9214249 -12.8259792 325.4416809
-98.5912857 -25.0357151 328.5404968
-50.4343414 -15.4387350 323.7987671
-48.9600334 -12.2026310 323.8403015
-100.3168793 -26.1446934 326.8240967
-99.1460266 -24.7191277 326.7867126
-101.1574402 -25.6761189 325.1030273
-99.5534210 -20.3065090 323.4216919
-101.8111267 -21.1696548 321.7603149
149.2395935 15.2671900 289.1614685
147.4910736 12.8057804 287.7535400
148.8966217 13.6323175 287.6690674
151.9837341 16.9454575 287.5578003
152.6498566 18.3342648 287.5725708
148.1643219 12.2641859 286.2209778
149.5336304 13.1166983 286.1414490
150.6793213 14.0850677 286.0881348
