-100.9136505 -26.5645180 84.7511063
-100.2795334 -25.8243637 84.8085556
-99.6987839 -25.0408630 84.8464661
-99.1873474 -24.2393608 84.8725204
-98.8083496 -23.4259892 84.8962784
-97.9811325 -20.7946491 84.9093018
-97.8056335 -19.8741512 84.8802032
-97.7165680 -18.8996239 84.8636856
-97.7248383 -17.8954926 84.8268661
-97.8334198 -16.8500614 84.7830811
-54.4225922 -12.2742605 90.0467758
-54.2154121 -11.3937893 90.0544815
-54.0447273 -10.4681129 90.0196915
-103.8613586 -29.3541069 83.5611191
-102.8312149 -28.7776890 83.6613464
-101.9427719 -28.1644325 83.7672958
-101.0880890 -27.4884357 83.8296890
-100.3967209 -26.7722759 83.8998795
-99.7944717 -26.0340061 83.9542923
-99.2117462 -25.2485714 83.9893188
-98.7200012 -24.4353657 84.0237427
-98.3290329 -23.6190014 84.0355759
-97.4842606 -20.9866123 84.0485077
-97.3113098 -20.0581131 84.0374756
-97.1972198 -19.0992012 84.0096283
-97.2163162 -18.0903263 83.9771118
-54.4570961 -15.1333389 89.2414017
-53.8456116 -14.4351587 89.2956390
-53.3195038 -13.6871691 89.3345871
-52.8973160 -12.9126816 89.3442764
-52.6236763 -12.0666676 89.3438568
-52.4823723 -11.1569672 89.3331375
-52.4110603 -10.2028618 89.3072433
-52.4682846 -9.1904116 89.2902527
-103.3403091 -29.5507984 82.7020187
-102.3392334 -28.9689980 82.8072968
-101.4471512 -28.3446674 82.8972321
-100.6377335 -27.6598797 82.9730148
-99.9419708 -26.9309406 83.0359192
-98.8103027 -25.3786373 83.1236115
-97.0895081 -21.1374416 83.1813889
-96.9094009 -20.2097893 83.1754532
-96.7897949 -19.2510357 83.1421738
-96.8049011 -18.2421112 83.1140976
-54.7307358 -16.9730129 88.4001770
-53.9043770 -16.3316193 88.4730377
-53.2096291 -15.6757431 88.5330505
-52.6173820 -14.9511642 88.5840988
-52.1382904 -14.1837044 88.6173248
-51.7681274 -13.3824425 88.6405945
-51.4592667 -12.5573616 88.6366196
-51.2926598 -11.6581135 88.6394653
-51.1732712 -10.7297316 88.6066437
-51.2026253 -9.7619514 88.5712891
-51.2816391 -8.7300253 88.5014725
-51.4894638 -7.6526217 88.4687653
-104.1431580 -30.3033962 81.7071686
-102.9211426 -29.7131958 81.8344574
-101.9538116 -29.1237965 81.9397812
-101.0673370 -28.4850140 82.0255661
-100.3007355 -27.8001633 82.1017380
-99.6159897 -27.0824986 82.1631012
-99.0073776 -26.3250408 82.2074814
-98.4860611 -25.5098591 82.2469864
-96.7352448 -21.2827129 82.3033295
-96.5615921 -20.3550911 82.2932281
-96.4745636 -19.3781700 82.2675629
-96.4539413 -18.4031467 82.2229385
-54.4728813 -18.0616589 87.5861206
-53.6014061 -17.4451408 87.6707840
-52.8274384 -16.7849026 87.7438049
-52.2155571 -16.1107006 87.8094711
-51.6362038 -15.3665667 87.8371048
-51.2141342 -14.5868950 87.8784103
-50.8161583 -13.7844906 87.8841400
-50.5147781 -12.9604721 87.9065475
-50.2628441 -12.0806751 87.8899078
-50.1345367 -11.1639490 87.8718414
-50.1253090 -10.2184172 87.8465271
-50.1757469 -9.2154217 87.7935944
-50.3224869 -8.1742449 87.7347946
-50.5568008 -7.0985651 87.6830063
-103.7800217 -30.4257145 80.8275986
-102.5894394 -29.8329315 80.9540863
-101.6416626 -29.2432575 81.0582962
-100.7711639 -28.5916805 81.1424179
-100.0052185 -27.9013348 81.2139587
-99.3163910 -27.1820965 81.2743759
-97.6672211 -24.8184452 81.3946228
-97.2890396 -24.0220127 81.4152374
-96.4407959 -21.4060631 81.4236374
-96.2889328 -20.4783573 81.4073944
-96.2062073 -19.4803867 81.3812866
-53.4667282 -18.4630070 86.8366623
-52.6308136 -17.8374214 86.9200745
-51.9203682 -17.1661434 86.9875107
-50.4056511 -14.9257660 87.1123047
-49.9945641 -14.1309252 87.1182098
-49.6897430 -13.3092518 87.1344833
-49.4344177 -12.4271297 87.1322250
-49.2573318 -11.5396156 87.1146545
-49.1738853 -10.6241322 87.0859756
-49.1998138 -9.6408806 87.0440826
-49.3595467 -8.5915117 86.9888153
-49.5918465 -7.5330377 86.9121552
-49.9231339 -6.4087720 86.8515930
-103.5581589 -30.5115204 79.9308777
-102.3901367 -29.9296112 80.0601196
-101.4081268 -29.3244019 80.1630783
-100.5784836 -28.6805668 80.2474365
-99.8015060 -27.9873390 80.3211670
-99.0964737 -27.2659321 80.3837204
-97.4462433 -24.9025421 80.5064621
-97.0665054 -24.1027431 80.5246735
-96.2329941 -21.4785461 80.5313873
-96.0718002 -20.5526848 80.5165558
-53.5537949 -19.3939266 85.9811707
-52.7137604 -18.8096924 86.0750809
-51.8647423 -18.1535473 86.1451569
-51.1967468 -17.4658890 86.2126007
-49.6952248 -15.2154036 86.3288574
-49.2816200 -14.4293814 86.3315277
-48.9739304 -13.6083441 86.3462906
-48.7214813 -12.7479763 86.3445129
-48.5608902 -11.8354197 86.3382187
-48.4579163 -10.9085836 86.3170547
-48.5429077 -8.9380035 86.2230453
-48.7498360 -7.8981590 86.1673203
-49.0010262 -6.8397684 86.0707779
-49.4959450 -5.6052289 85.9756699
-103.4101181 -30.5516891 79.0251923
-102.2643967 -29.9851322 79.1520538
-101.2680740 -29.3776703 79.2588043
-100.4202881 -28.7240257 79.3433151
-98.3348465 -26.5704308 79.5322037
-97.7933426 -25.7713394 79.5712128
-97.3232803 -24.9639511 79.6009750
-96.9156189 -24.1690559 79.6244583
-96.5522232 -23.3468552 79.6379471
-96.2756729 -22.4431210 79.6397858
-96.0782928 -21.5282459 79.6309967
-53.8123169 -20.2450218 85.0979462
-52.8663445 -19.6819630 85.1966400
-52.0372925 -19.0740757 85.2843552
-47.9785080 -12.0870838 85.5444794
-47.8463821 -11.1855583 85.5229263
-47.7871132 -10.2373123 85.4910049
-47.8477516 -9.2394247 85.4452667
-47.9930763 -8.2239819 85.3869247
-48.2270584 -7.1651506 85.3075867
-48.6742897 -5.9707446 85.2160034
-103.3716888 -30.5837479 78.1045609
-102.1715775 -30.0060482 78.2392273
-101.1997070 -29.4102879 78.3431473
-100.3501129 -28.7665825 78.4295349
-98.2726059 -26.6093140 78.6186295
-97.7257690 -25.8099327 78.6581650
-97.2363510 -25.0048981 78.6909943
-96.7957001 -24.2038250 78.7178192
-96.4307709 -23.3737316 78.7334061
-96.1670456 -22.4961529 78.7324753
-95.9663315 -21.5818329 78.7229156
-53.1454239 -20.5002632 84.2999420
-52.3008003 -19.9304752 84.4093475
-51.4831696 -19.3144588 84.4824829
-47.4513206 -12.3113976 84.7295837
-47.3243980 -11.4157753 84.7209625
-47.2693481 -10.4563065 84.7002487
-47.2843132 -9.4784498 84.6473770
-47.3998108 -8.4684830 84.5964890
-47.5842781 -7.4434934 84.5207596
-5.4454503 -5.1434617 89.9937363
-5.0148830 -4.4088130 90.0251312
-4.6891289 -3.6199510 90.0338898
-4.5010853 -2.7577322 90.0291214
-103.3702087 -30.5968723 77.1760254
-102.1570511 -30.0062923 77.3175354
-99.5733414 -28.0814648 77.5801392
-98.8752594 -27.3496666 77.6475067
-98.2624054 -26.6089134 77.6956482
-97.6928940 -25.8224392 77.7382813
-97.1671829 -25.0219936 77.7825089
-96.7582321 -24.2264881 77.8001404
-96.4121704 -23.3775158 77.8118286
-96.1283035 -22.5024815 77.8160934
-95.9195251 -21.5971470 77.8092194
-53.6617966 -21.2759838 83.3908463
-52.6101494 -20.7085590 83.4977646
-49.0498314 -17.4104710 83.8429794
-48.5367470 -16.6661663 83.8819733
-47.4629707 -14.2501812 83.9362869
-47.2214622 -13.3836575 83.9366379
-47.0014763 -12.5009537 83.9213562
-46.8611832 -11.6104221 83.9057007
-46.7869720 -10.6702709 83.8737564
-46.8015709 -9.6921940 83.8336868
-46.8910255 -8.6955738 83.7893219
-5.2045879 -7.1910129 89.2382965
-4.5286493 -6.5224528 89.2973404
-3.9747245 -5.8357692 89.3425903
-3.5304239 -5.1186996 89.3679352
-3.2092309 -4.3198161 89.3807449
-3.0002422 -3.4577065 89.3732986
-2.8638723 -2.5941117 89.3544235
-2.8125136 -1.6592774 89.3346329
-102.2575912 -29.9688091 76.3789597
-99.6478119 -28.0521049 76.6468582
-98.9474792 -27.3271313 76.7071152
-98.2914505 -26.5897102 76.7711945
-97.7170181 -25.8146706 76.8069839
-97.2152863 -25.0064888 76.8479919
-96.8034744 -24.2007637 76.8694839
-96.4534149 -23.3631420 76.8821793
-96.1605377 -22.4792366 76.8895569
-95.9654083 -21.5800514 76.8777771
-53.2132263 -21.4449558 82.5696716
-52.2362671 -20.8826885 82.6814880
-48.6864624 -17.5748768 83.0233917
-48.1718369 -16.8230762 83.0561371
-47.0704231 -14.4155836 83.0980530
-46.8131638 -13.5475531 83.1097870
-46.6104393 -12.6803217 83.0993729
-46.4756088 -11.7864399 83.0780258
-46.4221573 -10.8285875 83.0515213
-46.4254684 -9.8470297 83.0174026
-46.4719543 -8.8694878 82.9654388
-3.9419916 -7.7524214 88.5796661
-3.3474162 -7.0700722 88.6391068
-2.8779728 -6.3433294 88.6979141
-2.4421902 -5.6209664 88.7113419
-2.1212609 -4.8374524 88.7195358
-1.8851721 -3.9831042 88.7269592
-1.6797509 -3.1432223 88.7115250
-1.5748447 -2.2635999 88.6706314
-1.6348594 -1.2523614 88.6372375
-1.7323644 -0.2540857 88.6055603
-103.6808472 -30.4949131 75.2665405
-102.4745407 -29.8929329 75.4153290
-101.4619446 -29.3109913 75.5292892
-100.5595856 -28.6708355 75.6248322
-99.7858505 -27.9981251 75.6957016
-99.0589218 -27.2915459 75.7624741
-98.3969193 -26.5458775 75.8288727
-97.8354187 -25.7640915 75.8710709
-96.5569916 -23.3263893 75.9478836
-96.2770386 -22.4393864 75.9476089
-52.8509216 -21.6070862 81.7408752
-51.8826637 -21.0368729 81.8491135
-51.0108337 -20.4494400 81.9443665
-50.2274704 -19.8259201 82.0210419
-49.5351067 -19.1310062 82.0852814
-48.9201469 -18.4082413 82.1426392
-48.3635635 -17.6986961 82.1834564
-47.8751869 -16.9554386 82.2224121
-46.3013382 -12.8025045 82.2696533
-46.1958618 -11.8908415 82.2466583
-46.1321335 -10.9510908 82.2167740
-46.0941772 -9.9972229 82.1770325
-4.3693614 -9.4310637 87.7546463
-3.6359956 -8.8362713 87.8410492
-2.9701092 -8.1942291 87.8997192
-1.4950349 -6.0449591 88.0066681
-1.1780219 -5.2602935 88.0220337
-0.8913392 -4.4331431 88.0252762
-0.6597776 -3.6016080 88.0155334
-0.5439733 -2.7125294 88.0005188
-0.5273238 -1.7689276 87.9573441
-0.6126780 -0.7939743 87.9078674
-0.8167769 0.2508765 87.8668594
-102.7333832 -29.7915974 74.4530411
-101.7030716 -29.2002258 74.5715256
-100.8131332 -28.6045551 74.6595688
-99.9497757 -27.9211426 74.7542572
-99.2153702 -27.2198334 74.8237839
-98.5880280 -26.4757500 74.8740845
-98.0160751 -25.6894207 74.9223328
-96.7385254 -23.2505360 74.9972153
-96.4665527 -22.3654346 74.9977341
-52.5174332 -21.7285080 80.9060059
-51.5606384 -21.1643257 81.0132294
-50.7065926 -20.5643730 81.1055145
-49.9565582 -19.9287281 81.1812592
-49.2695236 -19.2381916 81.2459793
-48.6493301 -18.5348186 81.3015518
-48.1042252 -17.8186817 81.3472443
-47.6223488 -17.0623627 81.3800659
-46.0442085 -12.9076929 81.4230347
-45.9451408 -12.0140181 81.4031067
-45.8687134 -11.0663643 81.3765488
-4.2952619 -10.4230394 86.9657898
-3.4725482 -9.8335552 87.0482483
-2.7609782 -9.2195082 87.1188736
-2.1364303 -8.5719528 87.1803513
-0.6843719 -6.4051261 87.2922058
-0.3341898 -5.6273561 87.3021164
-0.0510073 -4.8168130 87.3178253
0.1904308 -4.0109129 87.3023529
0.3146684 -3.1220584 87.2921982
0.3660469 -2.1800568 87.2597046
0.3337075 -1.2269521 87.2170258
0.2260988 -0.2540345 87.1407089
-0.0558427 0.8342177 87.0807724
-102.0339966 -29.0780010 73.5941772
-101.0881195 -28.4777470 73.7013550
-100.2332687 -27.8137264 73.7837753
-99.4900818 -27.1198997 73.8558044
-98.8653336 -26.3731918 73.9111786
-98.2889481 -25.5861130 73.9562073
-97.0074234 -23.1487865 74.0314102
-96.7354355 -22.2641087 74.0386963
-54.7434273 -22.7887993 79.7653046
-53.3772354 -22.3411160 79.9334183
-52.3068810 -21.8292122 80.0583420
-51.3545036 -21.2611828 80.1649094
-49.0531425 -19.3278332 80.3981400
-48.4307365 -18.6250401 80.4540024
-46.9849243 -16.3557167 80.5583572
-46.5941887 -15.5622520 80.5790939
-46.2744865 -14.7411518 80.5880432
-46.0259209 -13.8776054 80.5879364
-45.8334961 -13.0170107 80.5769958
-45.7216301 -12.0995388 80.5571594
-4.3473735 -11.3281832 86.1532593
-3.4838214 -10.7719412 86.2425690
-2.7198157 -10.1739540 86.3352509
-0.8705211 -8.1924057 86.4990845
-0.3886453 -7.4661026 86.5336227
0.6672822 -5.1472154 86.5865173
0.8861172 -4.3282232 86.5816498
1.0345048 -3.4495776 86.5653915
1.1219549 -2.5330329 86.5338364
1.1162934 -1.5823008 86.5020523
1.0174305 -0.6059012 86.4562302
0.8395838 0.3988608 86.3672104
0.4803046 1.5103751 86.2753372
-102.4736633 -28.9306755 72.5904694
-101.5282364 -28.3135548 72.7028732
-100.6377182 -27.6456261 72.7938080
-99.8613663 -26.9581223 72.8840485
-99.2567825 -26.2347813 72.9141998
-98.6487427 -25.4573669 72.9757233
-97.3506927 -23.0117054 73.0585251
-97.0665817 -22.1296253 73.0631790
-54.5743561 -22.8649082 78.9076843
-53.2510223 -22.4001923 79.0697250
-52.1641579 -21.8889046 79.1973038
-51.1878815 -21.3069782 79.3066406
-48.9153519 -19.3873081 79.5393524
-48.2929878 -18.6708660 79.5949402
-46.8297386 -16.4123497 79.7027054
-46.4370651 -15.6239738 79.7239380
-46.1377983 -14.8054466 79.7309799
-45.8795967 -13.9339552 79.7308655
-45.6650162 -13.0618210 79.7240677
-4.5429268 -12.1504364 85.3192215
-3.6475136 -11.6428328 85.4177933
-2.8151400 -11.0770292 85.5121765
-2.0295584 -10.4615793 85.5886230
-0.2337145 -8.4763288 85.7507858
0.2253946 -7.7447591 85.7930756
1.2826312 -5.4348693 85.8427048
1.5041854 -4.6018167 85.8348465
1.6534104 -3.7309163 85.8187790
1.7455596 -2.8222113 85.7951584
1.7730684 -1.8857988 85.7612381
1.7359915 -0.9437279 85.7095413
1.5703225 0.0657049 85.6465683
1.2587843 1.1646765 85.5610275
0.9081935 2.2649732 85.4710083
-101.1920319 -27.4510498 71.8013229
-100.4128876 -26.7530231 71.8682175
-99.7129288 -26.0374031 71.9362946
-99.0769424 -25.2759438 71.9790726
-98.5286789 -24.4755936 72.0258560
-98.0963287 -23.6825638 72.0608139
-97.7603378 -22.8510990 72.0698013
-97.4550781 -21.9735947 72.0834427
-54.5374718 -22.9120674 78.0288010
-53.1852226 -22.4220028 78.1969910
-52.0854340 -21.9129524 78.3262482
-51.1171608 -21.3437042 78.4361801
-45.5695877 -13.1045227 78.8591156
-3.9034221 -12.4204369 84.5720062
-3.0602319 -11.9129705 84.6758499
-2.2342994 -11.3387642 84.7614594
-1.4885179 -10.7227449 84.8371353
-0.8508348 -10.0875578 84.9083099
-0.2266008 -9.4030037 84.9545746
1.1583313 -7.2460690 85.0568314
1.5313892 -6.4824586 85.0749512
1.8158364 -5.6811352 85.0816116
1.9922835 -4.8430681 85.0686417
2.2951534 -3.0512378 85.0369720
2.1688807 -0.1997154 84.9070206
1.9241322 0.8558074 84.8292389
1.6019262 1.9393616 84.7318344
-101.9729385 -27.1683006 70.7384644
-101.1077194 -26.4977131 70.8271179
-100.3362274 -25.8216267 70.9076080
-99.6167221 -25.0529041 70.9829407
-99.0921173 -24.2715702 71.0185165
-98.6818924 -23.4659748 71.0385590
-98.3223953 -22.6298122 71.0473633
-53.1978493 -22.4207611 77.3116913
-52.0767479 -21.9053574 77.4474564
-51.1189041 -21.3479004 77.5550232
-45.5311127 -13.1206417 77.9819489
-4.3800950 -13.1679878 83.7041168
-3.3824592 -12.6571093 83.8206329
-2.5245063 -12.1326885 83.9144287
-1.7257710 -11.5484810 83.9970398
-0.9996346 -10.9219122 84.0719833
-0.3545528 -10.2867527 84.1350479
0.2206114 -9.6159763 84.1930237
1.6074907 -7.4409804 84.2912140
1.9790174 -6.6802049 84.3113022
2.2112772 -5.8506718 84.3095245
2.5812643 -4.1542454 84.2783737
2.7620997 -3.2691910 84.2727661
2.6979096 -0.4558953 84.1477432
2.4970317 0.5839882 84.0764618
2.1834562 1.6790078 83.9921722
46.1282578 4.6773038 89.9425354
46.3159447 5.5072384 89.9538803
-102.7308960 -26.8514099 69.6877670
-101.8247375 -26.1894951 69.8039398
-101.0219803 -25.5192070 69.8970718
-100.3316574 -24.7775803 69.9549866
-99.8251114 -23.9864502 69.9720535
-99.3875732 -23.1906414 70.0042496
-98.9970627 -22.3681374 70.0263748
-52.1722565 -21.8700905 76.5492706
-51.1898689 -21.3099613 76.6620026
-48.8843575 -19.3838463 76.8998947
-48.2629776 -18.6946602 76.9588013
-46.0286255 -14.8418512 77.1080093
-45.7638054 -13.9895859 77.1138840
-45.5705910 -13.1098423 77.1004486
-3.8642564 -13.3719091 82.9324722
-2.9187200 -12.8697538 83.0513611
-2.0735216 -12.3212309 83.1434174
1.9848815 -7.6028824 83.5141068
2.3421953 -6.8367825 83.5260391
2.7530437 -5.1854897 83.5208817
2.9659204 -4.3421230 83.5216217
3.1605110 -3.4578288 83.4998932
3.2405922 -2.5486722 83.4729843
3.2197382 -1.6141793 83.4356155
3.1437917 -0.6659437 83.3772964
2.9605982 0.3799184 83.3128738
44.4487953 0.0128310 89.1367188
45.1785851 0.5687150 89.1920319
45.8129883 1.1959413 89.2537460
46.3402176 1.8276868 89.3000412
46.7785301 2.4996204 89.3403244
47.1485481 3.2391241 89.3579941
47.4032669 4.0459218 89.3664246
47.6175385 4.8570943 89.3538055
47.7328758 5.7036839 89.3319778
47.7421455 6.6405721 89.3103714
-102.0232239 -25.1467533 68.7816086
-101.2927017 -24.4050026 68.8790665
-100.7125168 -23.6405449 68.9153061
-100.2239532 -22.8685799 68.9646225
-99.8339996 -22.0279045 68.9671021
-52.3486328 -21.8101444 75.6365891
-51.3240242 -21.2484112 75.7613068
-48.9930191 -19.3410912 76.0071259
-48.3542061 -18.6499596 76.0660400
-46.1252289 -14.7992992 76.2189636
-45.8745537 -13.9364424 76.2139893
-45.6991768 -13.0442715 76.1953888
-4.5986547 -14.0362835 82.0290985
-3.4685018 -13.5401707 82.1576691
-2.5217881 -13.0273151 82.2704926
-1.7240652 -12.4732323 82.3609161
2.3102028 -7.7489381 82.7270355
2.6485281 -6.9810157 82.7436447
2.9025667 -6.1674614 82.7436981
3.1163814 -5.3465390 82.7345428
3.3143976 -4.4908710 82.7352066
3.5025699 -3.6166236 82.7169342
3.5806091 -2.7002068 82.6929245
3.5711482 -1.7746414 82.6570892
3.5002902 -0.8235291 82.6014709
45.5696754 -0.5197263 88.5035782
46.2508850 0.0518584 88.5736923
46.8497887 0.6696482 88.6344681
47.3807335 1.3269995 88.6828613
47.8284912 1.9990269 88.7096939
48.1704445 2.7486873 88.7383575
48.4725151 3.5231140 88.7356644
48.6793785 4.3296976 88.7349548
48.8172607 5.1707406 88.7114868
48.8646507 6.0690441 88.6817780
48.8341866 6.9914289 88.6325150
48.6633682 7.9912987 88.5973358
-101.4249573 -22.4035892 67.8418655
-101.0015411 -21.5833054 67.8686905
-52.5838318 -21.7168827 74.7163162
-51.5398064 -21.1552010 74.8469772
-50.6611977 -20.5738297 74.9425201
-49.8911591 -19.9536400 75.0254288
-49.1640129 -19.2659149 75.1012726
-48.5207977 -18.5730686 75.1592636
-47.9487457 -17.8778934 75.2077255
-47.4317398 -17.1318893 75.2482300
-46.2904701 -14.7317524 75.3030930
-46.0458298 -13.8610506 75.3113098
-4.2561331 -14.1669703 81.2365112
-3.1932962 -13.6860075 81.3672333
-2.2266371 -13.1566105 81.4803238
-1.4211766 -12.6043663 81.5709534
-0.6859996 -12.0184669 81.6521912
0.0260159 -11.3906336 81.7235336
3.2016320 -6.2867970 81.9544144
3.4089694 -5.4679551 81.9511414
3.6143823 -4.6157165 81.9423141
3.7934849 -3.7390993 81.9293518
3.8856852 -2.8469031 81.9023056
45.7426987 -1.5148895 87.7785568
46.4882126 -0.9626472 87.8551025
47.1644478 -0.3881449 87.9149857
48.6735535 1.5893245 88.0445862
49.0046005 2.3419149 88.0770874
49.3054771 3.1163614 88.0811234
49.5514107 3.8912385 88.0748291
49.7174454 4.7314825 88.0690994
49.7997513 5.6020894 88.0515900
49.8229141 6.4813561 87.9958878
49.6972771 7.4634051 87.9443054
49.5029526 8.4990473 87.8765488
-52.9325256 -21.5770302 73.7717361
-51.8933182 -21.0330791 73.9045410
-50.9504967 -20.4520721 74.0178604
-50.1463928 -19.8391495 74.1000824
-49.4220963 -19.1691933 74.1662292
-48.7535324 -18.4790649 74.2350693
-48.1548157 -17.7711105 74.3045273
-47.6549683 -17.0229836 74.3347244
-46.5119858 -14.6455507 74.4038391
-46.2732620 -13.7637320 74.3844757
-3.9902627 -14.2711821 80.4356537
-2.9292426 -13.7972660 80.5682755
-1.9691191 -13.2760468 80.6819916
-1.1410915 -12.7238827 80.7750320
-0.4058995 -12.1298676 80.8537979
0.2791790 -11.4921484 80.9242859
3.4379671 -6.3915405 81.1563721
3.6620250 -5.5804443 81.1582870
3.8739021 -4.7391648 81.1465759
4.0336456 -3.8582890 81.1333237
4.1169538 -2.9539106 81.1045532
44.8570061 -2.9443734 86.9024429
45.7467842 -2.4547701 87.0130920
46.5553436 -1.9058104 87.1091843
47.2565231 -1.3471133 87.1907501
47.9067230 -0.7513793 87.2514648
49.3756332 1.2384684 87.3759766
49.7266846 1.9809625 87.3943100
50.0281868 2.7505381 87.4086075
50.2985153 3.5225651 87.4029236
50.4791412 4.3436666 87.3955612
50.5704308 5.2148061 87.3714447
50.5867691 6.1171093 87.3454285
50.5690460 7.0284696 87.2824326
50.4251747 8.0306625 87.2124176
50.1122398 9.1314278 87.1370621
-51.3255348 -20.2994003 73.0764618
-50.4938431 -19.7036858 73.1676254
-49.7187080 -19.0441036 73.2512360
-49.0334091 -18.3541546 73.3215942
-47.4950523 -16.1229401 73.4535217
-47.1349030 -15.3315125 73.4508514
-46.8198586 -14.5151205 73.4713898
-3.8025351 -14.3645668 79.6276169
-2.7307806 -13.8861771 79.7602539
-1.7555697 -13.3604136 79.8770065
-0.9668146 -12.8137226 79.9672241
3.6495428 -6.4855890 80.3536301
3.8918521 -5.6831474 80.3509674
4.0809779 -4.8423419 80.3444519
4.2144618 -3.9392817 80.3252640
4.2956166 -3.0295084 80.2980194
44.7221680 -3.7594430 86.1239929
45.6359024 -3.3144937 86.2358627
46.4968452 -2.8049445 86.3325043
47.2583580 -2.2465773 86.4230804
51.2844353 5.7778497 86.6516800
51.2726021 6.6874280 86.6104507
51.1684494 7.6710091 86.5540771
50.9338226 8.7182484 86.4696579
50.6238556 9.7962141 86.3833313
-51.8176346 -20.1189194 72.0987854
-50.9173775 -19.5044422 72.2229538
-50.1473885 -18.8693047 72.2971725
-49.4526978 -18.1904640 72.3623276
-47.8913193 -15.9723206 72.4934921
-47.5181007 -15.1759262 72.5117188
-47.1928825 -14.3577490 72.5217438
-3.6996396 -14.4250212 78.8050919
-2.6001947 -13.9319639 78.9420090
-1.6475850 -13.4165087 79.0564194
-0.8521522 -12.8625755 79.1472092
3.7759528 -6.5441227 79.5388031
4.0001721 -5.7371721 79.5372391
4.1861706 -4.8843517 79.5249481
4.3451781 -3.9936078 79.5097046
45.3867912 -4.0957789 85.4413223
46.2930527 -3.6231880 85.5476074
47.0845795 -3.0994995 85.6378632
47.8235435 -2.5292225 85.7253647
51.8702278 5.4969344 85.9542618
51.8710442 6.4044285 85.9270172
51.8315201 7.3410511 85.8603821
51.6434555 8.3724146 85.7966385
51.3804016 9.4049683 85.7060928
51.0057335 10.5469189 85.6181412
-51.4994316 -19.2794952 71.2373886
-50.7032547 -18.6505241 71.3309250
-49.9618073 -17.9655724 71.4048691
-49.3571281 -17.2703590 71.4546585
-48.8027306 -16.5335159 71.5049667
-48.3314056 -15.7713032 71.5452728
-47.9518204 -14.9763002 71.5577393
-47.6349716 -14.1713161 71.5702667
-3.6591642 -14.4525194 77.9711685
-2.5547540 -13.9574194 78.1109772
1.2704649 -11.0108719 78.5366669
1.8428262 -10.3320141 78.5900803
4.2410693 -4.9020715 78.6975021
4.4093699 -4.0341988 78.6870193
45.0125275 -4.8015404 84.6153107
45.9929390 -4.3748746 84.7383118
46.8364830 -3.8941302 84.8412018
47.5988197 -3.3589525 84.9315948
48.3478355 -2.7832925 85.0112076
49.0255203 -2.2017815 85.0797501
49.6310463 -1.5874380 85.1415253
52.1556473 3.5328486 85.2900391
52.2977867 4.3779101 85.2719574
52.3957863 7.0677447 85.1632538
52.2626953 8.0619659 85.1025620
52.0332794 9.0865755 85.0234680
51.6870308 10.1828079 84.9263992
-51.3835564 -18.3797417 70.3315659
-50.6071663 -17.7015629 70.4207840
-49.9658508 -17.0218086 70.4832535
-49.3921471 -16.2896519 70.5310745
-48.9142532 -15.5309401 70.5652237
-48.5218964 -14.7390213 70.5928268
-48.2305870 -13.9240589 70.6000443
-3.6786914 -14.4398069 77.1279449
-2.5658498 -13.9522095 77.2690430
1.2770525 -11.0189877 77.6963730
1.8607059 -10.3417196 77.7572861
4.2715511 -4.9177241 77.8639679
4.4427595 -4.0402007 77.8553772
45.5496788 -5.0562563 83.9050369
46.5398102 -4.6094284 84.0254364
47.3313904 -4.1308146 84.1286926
48.1114311 -3.5834131 84.2108612
48.8002701 -3.0097613 84.3018341
49.4472923 -2.4128611 84.3677673
50.0477791 -1.7950593 84.4259949
52.5707932 3.3220773 84.5692215
52.7430573 4.1587458 84.5510101
52.8877487 6.8365192 84.4531860
52.7882690 7.7983780 84.3956451
52.6088409 8.7716331 84.3173904
52.2669144 9.8775530 84.2203827
51.8121223 11.1000357 84.1188889
94.2565613 11.5563469 90.2786102
-51.3853111 -17.3904896 69.3846893
-50.7209740 -16.7093067 69.4703140
-50.1378632 -15.9830284 69.5338898
-49.6497879 -15.2222633 69.5658951
-49.2646980 -14.4264469 69.5789261
-48.9613075 -13.6158991 69.5867386
-3.7601194 -14.3920097 76.2723846
-2.6492491 -13.9209337 76.4164276
-1.6414602 -13.4113045 76.5412598
-0.8018938 -12.8741570 76.6399918
-0.0539525 -12.2880507 76.7231140
0.6407050 -11.6564760 76.8004227
1.2719126 -10.9997482 76.8606110
1.8466252 -10.3340282 76.9144287
4.2736225 -4.9114318 77.0319748
44.9069672 -5.7085123 83.0515060
46.0050850 -5.2732177 83.1834335
52.5421066 1.5341222 83.8395767
52.7638779 2.3150306 83.8430710
53.3138199 6.6228142 83.7253952
53.2208099 7.5954638 83.6789703
53.0625114 8.5571909 83.6080627
52.7613068 9.6217833 83.5096207
95.2250137 10.1724634 89.7219849
95.6498489 10.8075256 89.7615051
96.0173874 11.5152149 89.7785416
96.3062973 12.2726288 89.7894974
96.5210114 13.0374641 89.7895813
96.5763931 13.9062843 89.8001251
-51.0980492 -15.5895805 68.4874878
-50.5779266 -14.8282795 68.5382080
-50.2027054 -14.0433512 68.5539398
-49.8784904 -13.2103748 68.5591812
-2.7775853 -13.8449497 75.5580368
-1.7608361 -13.3505554 75.6823959
-0.8868836 -12.8237877 75.7901611
-0.1391986 -12.2443657 75.8733292
0.5579438 -11.6246490 75.9444046
1.2163709 -10.9661283 76.0218353
1.7682517 -10.3025875 76.0698395
4.2101474 -4.8788214 76.1857758
46.3818359 -5.4539962 82.4500504
52.8579102 1.3837695 83.1033554
53.0976639 2.1592877 83.1023178
53.6655922 6.4456148 82.9953232
53.6060638 7.4048738 82.9437866
53.4644279 8.3545589 82.8764114
94.5473175 7.8664432 88.9779282
95.2124252 8.3965588 89.0474930
95.8008347 8.9745817 89.1160431
96.3082504 9.5912180 89.1669235
96.7473373 10.2331123 89.1921844
97.0952682 10.9523439 89.2212906
97.3840179 11.6801081 89.2331696
97.6234970 12.4493589 89.2199402
97.7589951 13.2589436 89.1972427
97.8291779 14.1219444 89.1751480
97.8162613 15.0126591 89.1642456
-51.4238396 -13.5303240 67.4614258
-51.1318169 -12.6804295 67.4502716
-3.0083935 -13.7449627 74.6775665
-1.9503984 -13.2585573 74.8147202
-1.0801141 -12.7452850 74.9159470
-0.3068159 -12.1675549 75.0058136
0.4164654 -11.5533571 75.0866394
1.0522218 -10.9101543 75.1484909
1.6146582 -10.2379847 75.2013931
3.6374156 -6.4666791 75.3290634
3.8811975 -5.6593986 75.3392410
4.0721664 -4.8177614 75.3242950
45.6535721 -6.0391088 81.5737076
46.6939735 -5.6025691 81.7058716
51.5675926 -1.6088871 82.2546463
52.0365334 -0.9320823 82.2926712
53.9034805 4.4904323 82.3212814
53.9469337 5.3785915 82.2957153
53.9713593 6.2950215 82.2514420
53.9215240 7.2430592 82.2022324
94.7935410 6.8503585 88.3018646
95.4965439 7.3658204 88.3905334
96.1420822 7.9073672 88.4565735
96.7178650 8.4928722 88.5176010
98.5386963 11.9494238 88.6338043
98.7072830 12.7458181 88.6161270
98.8056793 13.5937557 88.5932007
98.8250885 14.4568605 88.5516281
98.7281036 15.4012098 88.5168991
-3.3108256 -13.6295023 73.7789154
-2.2398579 -13.1300621 73.9282761
-1.3453246 -12.6140127 74.0354004
-0.5448947 -12.0571966 74.1281891
0.1947132 -11.4523153 74.2141190
0.8276186 -10.8129444 74.2714462
1.4292097 -10.1339111 74.3375168
3.4286320 -6.3878117 74.4634247
3.6661112 -5.5586858 74.4580383
3.8643701 -4.7128925 74.4517365
44.7379913 -6.5539236 80.6665421
45.9240799 -6.1501546 80.8202209
46.9361992 -5.7245188 80.9537430
51.7854538 -1.7075778 81.4960861
52.2694931 -1.0337827 81.5384750
54.1374779 4.3848433 81.5715027
54.2028465 5.2515736 81.5423584
54.2357864 6.1650901 81.5044479
54.1758041 7.1158781 81.4517136
93.9922791 5.4780798 87.4917374
94.8502655 5.9113374 87.5992279
95.6542435 6.4074240 87.6908875
96.3014603 6.9454856 87.7796783
96.8986282 7.5005851 87.8443527
97.4739685 8.1006269 87.8953705
99.2957458 11.5482588 88.0165939
99.4946747 12.3213968 88.0088959
99.6439590 13.1479292 87.9812851
99.6854630 14.0170107 87.9527817
99.6541977 14.9090128 87.8999939
99.5249100 15.8909693 87.8462677
-2.6131773 -12.9718809 73.0123367
-1.7095268 -12.4538050 73.1339493
-0.8583199 -11.9072905 73.2415543
-0.1026969 -11.3161011 73.3236160
1.6794790 -9.3114958 73.4911041
2.1419463 -8.5956640 73.5275269
3.1823647 -6.2778873 73.5857620
3.4220200 -5.4459257 73.5837479
46.1290169 -6.2458401 80.0580597
47.1441154 -5.8086362 80.1917648
51.9647522 -1.7969490 80.7360077
52.4522781 -1.1243759 80.7759857
53.5524750 1.0488389 80.8419724
53.8126984 1.8146359 80.8469925
54.3323326 4.2800865 80.8125763
54.4041481 5.1532488 80.7833405
54.4263039 6.0799103 80.7449265
94.7997971 5.0601339 86.8742676
95.5993729 5.5123739 86.9819717
100.3246307 12.7727690 87.3641739
100.3957443 13.6316423 87.3372879
100.4301758 14.4898796 87.2837982
100.3535843 15.4251003 87.2284851
100.1868744 16.4332809 87.1599960
-2.1371899 -12.2696781 72.2189789
-1.2781117 -11.7303524 72.3261566
-0.4698486 -11.1444645 72.4261932
1.3533109 -9.1585741 72.6089554
1.8402350 -8.4437809 72.6538315
2.8799798 -6.1249995 72.6977158
3.1110618 -5.3010383 72.6914825
46.2705612 -6.3176513 79.2865829
47.2848625 -5.8720703 79.4201279
52.1111488 -1.8715239 79.9670563
52.5931396 -1.1895167 80.0089493
53.6751556 0.9830437 80.0723190
53.9481773 1.7493912 80.0785065
54.4652138 4.2042661 80.0438461
54.5330696 5.0916448 80.0125046
95.4790192 4.6967235 86.2385941
96.2618561 5.1634870 86.3382034
100.9532700 12.4377651 86.7130280
101.0550919 13.2714243 86.6833191
101.0877533 14.1332159 86.6559753
101.0399704 15.0673847 86.6056824
100.9103317 16.0414677 86.5328217
-1.7784981 -11.5112572 71.4018326
-0.9641147 -10.9284706 71.5017853
-0.2461347 -10.3221083 71.5857239
0.3618640 -9.6687050 71.6407547
1.8209298 -7.5266261 71.7572174
2.1984298 -6.7534060 71.7976074
2.4845018 -5.9331703 71.7867050
2.7215898 -5.1238236 71.8026581
46.3681793 -6.3682456 78.5068665
47.3661613 -5.9137001 78.6384964
53.0779572 -0.5475734 79.2591934
53.4501190 0.1906995 79.2817612
54.5615425 4.1687479 79.2662506
95.2516403 3.9600809 85.4785385
96.0921631 4.3809104 85.5905762
96.8483963 4.8707242 85.6842270
97.5400085 5.4137654 85.7626266
98.1567154 5.9760656 85.8367233
101.4888916 12.1551390 86.0545959
101.5896454 12.9835815 86.0355301
101.6596298 13.8341637 86.0015106
101.6427765 14.7431364 85.9567337
101.5328827 15.7107620 85.8929062
101.3516693 16.6848373 85.8181992
101.0861664 17.7415714 85.7446518
-1.5425600 -10.6685104 70.5538940
-0.8246713 -10.0672741 70.6422729
-0.1848689 -9.4257689 70.7165527
1.3250324 -7.2946553 70.8371277
1.6997818 -6.5288634 70.8601685
1.9995106 -5.7299371 70.8690033
2.2216213 -4.8893499 70.8596039
47.3920937 -5.9295254 77.8472595
53.1417542 -0.5619285 78.4803848
53.5114746 0.1450672 78.5014267
54.6189003 4.1411228 78.4845123
93.8488617 2.9161873 84.5680008
94.8633041 3.2727611 84.7010803
95.7662659 3.6677499 84.8285141
96.6065292 4.1249356 84.9334259
97.3427658 4.6169124 85.0195541
98.0081635 5.1665463 85.0998840
98.6208496 5.7387347 85.1645050
101.9348984 11.9266138 85.3914566
102.0667953 12.7368927 85.3760757
102.1718063 13.5582371 85.3404007
102.1691589 14.4644957 85.2990646
102.0799713 15.4223223 85.2456589
101.9319077 16.3718262 85.1707230
101.6872330 17.3984604 85.0853653
-0.8598092 -9.1129074 69.7567215
-0.2513128 -8.4407272 69.8140030
0.2886524 -7.7306886 69.8703156
0.7090977 -7.0079951 69.8884735
1.0781915 -6.2373242 69.9084396
1.3723508 -5.4273577 69.9180908
1.5764956 -4.5991077 69.9088135
47.3718948 -5.9067135 77.0490112
53.8631439 0.8998983 77.7262039
54.1366653 1.6601216 77.7339478
54.3573761 2.4507034 77.7339630
54.5181427 3.2972138 77.7178345
54.6130600 4.1458187 77.6891403
94.3714294 2.6621585 83.9000854
95.3610153 3.0240545 84.0364227
96.2360077 3.4372909 84.1554642
97.0443878 3.8967719 84.2539063
97.7616425 4.4061623 84.3463593
99.5585480 6.1065359 84.5456924
100.0995255 6.7203541 84.5880356
100.5716934 7.3489594 84.6337204
100.9959717 8.0018482 84.6693649
102.5700912 15.1458769 84.5749207
102.4425812 16.0945301 84.5122223
102.2348938 17.0862350 84.4278259
101.9043427 18.1709023 84.3285065
-1.7061834 -8.7428913 68.7529373
-1.0663476 -8.0739546 68.8463287
-0.5291471 -7.3668756 68.8837967
-0.0495726 -6.6519427 68.9255295
0.3252639 -5.8874660 68.9486389
0.5862291 -5.0836334 68.9552536
0.7577888 -4.2264433 68.9300919
47.2640381 -5.8645878 76.2322998
53.8243523 0.9258435 76.9312515
54.0850182 1.6949167 76.9292984
54.2889023 2.4937568 76.9266815
54.4700089 3.3181608 76.9197311
54.5859795 4.1676588 76.8881836
94.8286972 2.4263778 83.2242050
95.7879181 2.8059382 83.3550491
96.6395340 3.2383895 83.4743958
97.4374237 3.7110448 83.5653305
98.1278458 4.2212701 83.6532440
99.9215240 5.9291911 83.8520584
100.4279327 6.5398908 83.9084549
100.8919144 7.1712437 83.9544449
101.3250122 7.8282104 83.9821930
102.9675980 14.9280796 83.8969727
102.8719788 15.8563938 83.8403320
102.6876297 16.8437595 83.7632980
102.3663025 17.9179459 83.6590424
143.6971588 20.1456375 89.9898071
143.9353027 20.9065723 90.0036926
-0.5198035 -4.5728745 67.9099197
47.0995636 -5.7906675 75.4025116
48.0689926 -5.3194847 75.5416565
48.8838768 -4.8467174 75.6405029
49.6587296 -4.3147554 75.7378998
50.3388863 -3.7416189 75.8132172
50.9640503 -3.1239731 75.8851700
51.5328293 -2.4997756 75.9399719
53.7373848 0.9817627 76.1201401
53.9728279 1.7543106 76.1261597
54.1687927 2.5503089 76.0985336
54.3951416 3.3590603 76.1162720
94.1165771 1.8850648 82.3922424
95.2144699 2.2344403 82.5402069
97.7234039 3.5383658 82.8767014
98.4140244 4.0577521 82.9637375
103.0669403 16.6448727 83.0813141
102.7812500 17.6858139 82.9829102
102.3926315 18.8446350 82.8769226
143.1825256 16.9766903 89.3324661
143.7680664 17.4984398 89.3854675
144.2525482 18.0788937 89.4407959
144.7030334 18.6961670 89.4817886
145.0792847 19.3353291 89.5047684
145.3461761 20.0575027 89.5212860
46.8720856 -5.6792936 74.5632935
47.8404007 -5.2157674 74.7025375
48.6800270 -4.7455645 74.8077774
49.4715652 -4.2200856 74.9127731
50.1589432 -3.6450801 74.9867172
50.7885780 -3.0403969 75.0532074
51.3801270 -2.4260380 75.1208954
53.5945473 1.0439100 75.3079605
53.8182182 1.8337291 75.2994461
54.0305061 2.6207621 75.2988815
54.2408829 3.4512055 75.3012009
94.4721222 1.7353339 81.6937714
95.5068817 2.0783422 81.8407669
98.0184402 3.4027500 82.1694946
98.7257080 3.9149513 82.2565918
103.3900604 16.4660568 82.3880386
143.6930695 15.8297834 88.7451935
144.3132935 16.3256893 88.8260956
144.8862152 16.8859177 88.8907471
145.3636627 17.4586067 88.9451752
145.8145294 18.0558491 88.9834290
146.1889801 18.6947765 88.9983978
146.4644928 19.4164085 89.0027161
146.6753387 20.1646442 88.9946594
146.8459167 20.9271183 88.9805145
146.9375305 21.7403336 88.9526215
146.8796234 22.6625977 88.9247360
47.5613098 -5.0853524 73.8568268
48.4210815 -4.6163573 73.9705429
49.2109947 -4.1071010 74.0647202
49.9483223 -3.5340648 74.1565094
53.4013748 1.1347102 74.4774475
53.6196861 1.9340236 74.4608459
53.8177910 2.7307079 74.4555206
53.9682007 3.5898650 74.4446259
94.7269592 1.6017505 80.9864960
95.7498398 1.9464356 81.1311722
102.5140839 8.0893860 81.9076920
102.8639450 8.8033981 81.9235840
103.1481781 9.5157108 81.9358597
103.3798752 10.2601471 81.9348907
103.5859604 11.0530157 81.9296875
103.7499542 11.8370333 81.9158478
103.8591995 14.4462833 81.8097839
103.8010864 15.3559475 81.7544403
103.6597137 16.3161793 81.6844406
143.9725952 14.8061676 88.1309433
144.6443481 15.2793207 88.2215652
145.2679138 15.7858152 88.2886276
145.8070984 16.3414612 88.3488464
147.5899200 19.6430016 88.4673462
147.7692413 20.3932190 88.4548340
147.8567963 21.2073727 88.4390564
147.8995514 22.0678387 88.3905869
147.8522339 22.9602070 88.3358612
48.0745163 -4.4518199 73.1085587
48.9091492 -3.9407856 73.2210693
49.6700478 -3.3956654 73.3105927
53.1637611 1.2566606 73.6421967
53.3894997 2.0399375 73.6352463
53.5511551 2.8663108 73.6210098
53.6703529 3.7451980 73.5928879
94.9529114 1.4998744 80.2728348
95.9574890 1.8487575 80.4156265
102.7264252 7.9866695 81.1913300
103.0727997 8.6982584 81.2123489
103.9525223 11.7299929 81.2051163
104.0639420 14.3589535 81.0965424
104.0057068 15.2690058 81.0422897
144.0743408 13.8845425 87.4800491
144.8118286 14.3284769 87.5727463
145.4672394 14.8153515 87.6599655
146.0477600 15.3437395 87.7227097
146.5383148 15.9075212 87.7784882
148.3421021 19.2102699 87.9067688
148.5088196 19.9489517 87.9063110
148.6736145 20.7269440 87.8721542
148.7664948 21.5670757 87.8472214
148.7772827 22.4205666 87.8026352
148.6850128 23.3381119 87.7461472
148.4989929 24.3399887 87.6913376
47.6396790 -4.2572861 72.2258987
48.4810028 -3.7517886 72.3470993
49.3069916 -3.2060165 72.4523544
49.9912949 -2.6444330 72.5300674
50.5984955 -2.0501151 72.5907898
52.1139145 -0.0510635 72.7370148
52.5190659 0.6677358 72.7783890
52.8489342 1.4162077 72.7902679
53.0914230 2.1966078 72.7958679
53.2427292 3.0296676 72.7709656
53.3754196 3.8959634 72.7435684
95.0883255 1.4149746 79.5451202
96.1137466 1.7743638 79.6908875
102.8826675 7.8925233 80.4733276
104.1187134 11.6503725 80.4863663
104.2308578 12.4721022 80.4637985
104.2691345 13.3539448 80.4261627
104.2466812 14.2624121 80.3784866
144.8111877 13.4622259 86.9061356
145.5341797 13.9182940 86.9966812
146.1827545 14.4211254 87.0678482
146.6936646 14.9724302 87.1344299
147.1496735 15.5524874 87.1925735
147.6669312 16.1567440 87.2295532
148.1225739 16.7530937 87.2671967
148.4744568 17.3966980 87.3008804
148.7897491 18.0838909 87.3147964
149.0482941 18.7957878 87.3152771
149.2400665 19.5386181 87.3101730
149.3748779 20.3208160 87.3085709
149.5075836 21.1267185 87.2812347
149.5711365 21.9495430 87.2415390
149.5124359 22.8491459 87.1914520
149.3672791 23.8079967 87.1202621
47.9952698 -3.5178270 71.4447403
48.8492088 -2.9789031 71.5740891
49.5807571 -2.4228866 71.6729126
50.2089729 -1.8409091 71.7381897
51.7011604 0.1513703 71.8706512
52.0909233 0.8684002 71.8912048
52.4344902 1.6113839 71.9169006
52.7061234 2.3816383 71.9242859
52.9072647 3.1925454 71.9148788
95.1977081 1.3620869 78.8106537
96.2301483 1.7219952 78.9586411
102.9823837 7.8391366 79.7420731
104.2468338 11.5851908 79.7608566
104.3605042 12.4039354 79.7387009
104.4019165 13.2864037 79.7020416
104.3542175 14.2195883 79.6474991
145.4439392 13.0957747 86.3216476
146.1496582 13.5668154 86.4045792
146.7597351 14.0958786 86.4812088
147.2748108 14.6496162 86.5282059
147.7357330 15.2328939 86.5896606
148.2461700 15.8171997 86.6266937
148.6907654 16.4270363 86.6671448
149.0546875 17.0645657 86.6990356
149.3806000 17.7609406 86.7185974
149.6499329 18.4619350 86.7251358
149.8498535 19.1967487 86.7229233
150.0049286 19.9654293 86.7148438
150.1394043 20.7529182 86.6983566
150.2248230 21.5742569 86.6624298
150.2161560 22.4270401 86.6157608
150.1272583 23.3596134 86.5475235
149.9453735 24.3552265 86.4830551
48.9907150 -2.1470945 70.7520447
49.6683731 -1.5905378 70.8364639
50.2673302 -0.9500010 70.8941498
50.7832146 -0.2847929 70.9428329
51.2248154 0.3933631 70.9868393
51.6313477 1.1050577 71.0307312
51.9574738 1.8619715 71.0174942
52.2460098 2.6215627 71.0500793
52.4551620 3.4313388 71.0410461
95.2171173 1.3290030 78.0599518
96.2554321 1.6971716 78.2111740
98.7841339 3.0257494 78.5567703
99.4623260 3.5428586 78.6359863
103.0526581 7.8162465 79.0061111
103.3977661 8.5202217 79.0265732
104.1496048 10.7534962 79.0370712
104.3222580 11.5405855 79.0262680
104.4338226 12.3730602 79.0027542
104.4610519 13.2522640 78.9649200
143.6181183 11.5584450 85.3842850
144.5178223 11.9282255 85.5028000
145.2967834 12.3295212 85.6167831
146.0292053 12.7752390 85.7133942
148.7453766 15.5090513 86.0243759
149.1685638 16.1316223 86.0586090
150.1762238 18.1601639 86.1105270
150.3972778 18.8918686 86.1127319
150.7914886 21.2458172 86.0692825
150.8148651 22.0792923 86.0320129
150.7756958 22.9978657 85.9670868
150.6366272 23.9393120 85.8913574
150.3628998 24.9806976 85.8049622
149.9303589 26.1274147 85.7001419
48.3313599 -1.8154486 69.8458099
49.0479279 -1.2679473 69.9329529
49.6948395 -0.6534737 70.0075226
50.2126694 -0.0104846 70.0466156
50.6649628 0.6637384 70.0908508
51.0740356 1.3796301 70.1215820
51.4082909 2.1292961 70.1421280
51.6529121 2.9066944 70.1359177
51.8566399 3.7234728 70.1345825
95.1959457 1.3349212 77.3000183
96.2299423 1.7087121 77.4532089
98.7501602 3.0158322 77.7929001
99.4700928 3.5363076 77.8871155
103.0879440 7.7982526 78.2664337
103.4210205 8.5069990 78.2835541
103.6930084 9.2329092 78.2871094
103.9508667 9.9659052 78.2947083
104.1907578 10.7428389 78.2956314
104.3535080 11.5476265 78.2812195
104.4477615 12.3706026 78.2556992
104.4702835 13.2572594 78.2154083
144.1663055 11.2460442 84.7718430
145.0385895 11.6232281 84.8938675
145.8180084 12.0400410 85.0032120
146.5377045 12.4903784 85.0886383
149.2094269 15.2621689 85.3939362
149.6181183 15.8873253 85.4295349
150.6389008 17.9020367 85.4938278
150.8719330 18.6202106 85.4985733
151.3254395 20.9283161 85.4510040
151.3579712 21.7565212 85.4187088
151.3136597 22.6875591 85.3735123
151.2084808 23.6120071 85.3051529
151.0093842 24.5857430 85.2121506
150.6606598 25.6685829 85.1055756
47.4795990 -1.4226315 68.8618240
48.2581253 -0.8857853 68.9784546
48.9552460 -0.2742144 69.0827713
49.5057449 0.3491339 69.1347351
49.9738274 1.0198239 69.1645508
50.3963318 1.7171887 69.2081375
50.6929779 2.4800742 69.2041931
50.9280853 3.2780087 69.1962280
51.1145706 4.0933638 69.1862411
96.1674271 1.7535915 76.6880188
102.2820435 6.4843512 77.4540024
102.6898804 7.1294022 77.4826965
103.0751724 7.8084192 77.5116196
103.4212875 8.5288143 77.5322342
103.7098694 9.2352800 77.5436783
103.9768600 9.9708652 77.5503540
104.1891022 10.7542496 77.5471725
104.3269043 11.5600319 77.5277100
104.4079590 12.3820524 77.4997406
143.7453461 10.6388092 84.0281372
144.6398315 10.9813557 84.1553192
145.4853516 11.3736143 84.2730637
148.7002411 13.8472891 84.6744614
149.1692657 14.4465923 84.7168655
149.5795898 15.0519114 84.7575531
150.0010834 15.6775932 84.7882767
150.3878326 16.3043938 84.8208923
150.7376404 16.9727592 84.8520203
151.7716980 20.6786022 84.8342209
151.8152618 21.5054169 84.7990723
151.8009491 22.3862228 84.7491074
151.7195129 23.3105717 84.6919098
151.5572205 24.2684326 84.6229477
151.3009644 25.2795200 84.5137253
48.5524254 0.8170909 68.1645355
49.0467148 1.4585428 68.2064667
49.4694557 2.1648943 68.2367096
49.8050117 2.9173379 68.2653732
50.0212975 3.7181473 68.2561722
50.1671638 4.5521765 68.2349319
96.0396271 1.8220232 75.9100342
102.2218933 6.5199938 76.6810837
102.6415558 7.1715670 76.7204971
103.0231857 7.8501611 76.7524185
103.3788528 8.5505686 76.7782440
103.6890564 9.2521029 76.7931061
103.9409714 9.9907618 76.7945633
104.1341324 10.7910309 76.7834320
104.2588806 11.5969810 76.7653732
104.3302383 12.4236059 76.7333908
144.1874237 10.3935156 83.3955231
145.0572205 10.7477140 83.5232849
145.8715210 11.1490936 83.6406631
149.0603485 13.6580095 84.0357742
149.4876251 14.2592430 84.0844193
149.9131470 14.8702917 84.1211014
150.3323822 15.4821482 84.1553497
150.7299500 16.0984879 84.1903610
151.1041260 16.7569485 84.2105331
152.1721649 20.4435196 84.1967545
152.2284698 21.2642670 84.1704712
152.2291107 22.1386757 84.1259003
152.1703033 23.0524330 84.0696030
152.0472412 23.9742661 83.9965363
151.8131866 24.9853153 83.9098587
151.4694519 26.0892677 83.8031845
48.5405235 3.5452826 67.1813583
95.8747635 1.9109849 75.1244125
96.8409348 2.2812173 75.2673264
97.7436066 2.6917295 75.3928680
98.5328369 3.1454897 75.4989624
99.2623215 3.6440287 75.5923233
99.9631882 4.1929526 75.6836243
100.5664978 4.7498379 75.7479477
102.1342773 6.5561147 75.9268112
102.5560760 7.2124839 75.9595413
104.2129898 12.4953451 75.9585419
144.5879059 10.1742458 82.7602997
148.3290558 12.3631430 83.2666092
148.9084167 12.9001131 83.3345947
149.3901367 13.4711885 83.3890991
149.8395996 14.0609226 83.4265976
152.4494476 23.7473297 83.3759155
152.2607269 24.7197666 83.2876892
151.9319611 25.7928181 83.1792984
96.6329880 2.3840461 74.4701767
97.5428238 2.7981176 74.6076813
98.3300323 3.2412484 74.7080994
99.0948868 3.7437360 74.8118515
99.7996140 4.2849975 74.9008865
100.4284744 4.8411250 74.9842758
101.9947815 6.6440339 75.1478195
102.4168396 7.2841163 75.1833267
104.0557251 12.6003885 75.1745911
143.9929199 9.6546230 81.9840088
144.9367371 9.9889574 82.1172256
148.5882568 12.1934481 82.6168518
149.1996002 12.7465277 82.6843033
149.6984711 13.2928991 82.7439194
150.1705475 13.8779993 82.7871246
152.8188629 23.5282631 82.7359314
152.6370239 24.5121059 82.6534195
152.3285980 25.5631447 82.5464935
151.8773956 26.7059193 82.4128647
151.1367035 28.0773125 82.2265320
98.1039734 3.3778031 73.9169235
98.8677292 3.8531687 74.0168915
99.5802917 4.3902736 74.1037979
100.2258301 4.9379029 74.1839142
103.2776642 9.4998798 74.4630127
103.5212326 10.2393026 74.4612274
103.7125702 11.0132389 74.4663696
103.8227158 11.8269796 74.4499512
103.8468781 12.7079201 74.3877335
144.2984772 9.4958191 81.3277435
145.2188873 9.8338499 81.4622269
152.6708069 25.3667660 81.9068298
152.2536774 26.4985275 81.7787857
97.7837296 3.5357592 73.1033783
98.6001511 4.0106893 73.2163544
99.3339767 4.5280967 73.3078079
99.9985275 5.0657611 73.3967667
103.0539017 9.6162996 73.6768951
103.2754211 10.3650723 73.6692429
103.4333191 11.1806736 73.6338272
103.5435638 11.9973631 73.6186218
144.5187378 9.3666515 80.6591492
145.4506226 9.7045641 80.7966766
152.9621582 25.1931801 81.2575455
152.5825195 26.3101864 81.1342087
151.9577179 27.6085205 80.9653778
97.3928528 3.7545156 72.2700348
98.2336807 4.2124767 72.3892517
98.9960785 4.7064776 72.4901581
99.6647873 5.2351742 72.5715027
102.1229858 8.3306074 72.8274918
102.4740753 9.0490875 72.8524246
102.7410355 9.7796621 72.8494568
102.9690247 10.5299339 72.8649673
103.1421890 11.3301668 72.8472290
103.2702942 12.1433220 72.8300476
144.7335510 9.2621117 79.9886169
145.6526489 9.5968628 80.1260223
149.2400055 11.8554115 80.6171417
149.8358154 12.3905191 80.6871185
150.3647919 12.9316931 80.7486725
150.8373718 13.4978466 80.7999344
152.2446289 27.4379616 80.3085403
96.9259644 4.0049605 71.4176102
97.7885132 4.4514685 71.5561371
98.5792770 4.9362144 71.6637497
99.2560196 5.4501681 71.7407227
101.7898026 8.5139256 72.0187988
102.1068726 9.2438459 72.0300674
102.3774948 9.9859200 72.0449753
102.6147995 10.7315865 72.0375061
102.7940369 11.5251350 72.0243683
102.9165421 12.3513594 71.9990616
144.8961487 9.1704988 79.3109894
145.8106995 9.5147581 79.4471283
149.3880310 11.7674160 79.9378204
149.9676819 12.3102121 80.0076141
150.5027466 12.8549843 80.0699158
150.9957581 13.4240456 80.1237030
152.4385986 27.3245983 79.6379318
97.2361832 4.7176208 70.6742096
98.0503311 5.2036486 70.8009415
98.7711334 5.7048116 70.9037476
99.3829117 6.2568316 70.9629745
99.9766312 6.8490438 71.0474014
100.4969025 7.4486923 71.0971680
100.9585800 8.0734510 71.1421127
101.3498154 8.7430143 71.1798248
101.6503677 9.4966049 71.1684799
101.9306641 10.2197304 71.1828384
102.1828613 10.9599581 71.2071381
102.3401718 11.7758560 71.1876068
102.4459000 12.6096087 71.1543274
144.9900055 9.1137323 78.6188660
145.9123077 9.4582672 78.7579651
149.4854584 11.7104902 79.2491455
150.0761414 12.2585478 79.3217926
153.5087738 24.8993969 79.2399445
153.1570129 25.9914894 79.1225281
152.6033173 27.2399178 78.9607544
97.4441528 5.5299778 69.9355621
98.1581192 6.0247536 70.0302277
98.8207703 6.5657883 70.1221008
99.3772430 7.1563883 70.1464462
99.9630051 7.7434902 70.2410736
100.4370499 8.3626738 70.2856903
100.8324890 9.0230227 70.3247147
101.1700821 9.7445021 70.3479309
101.4352493 10.4831314 70.3455276
101.6244049 11.2636423 70.3336716
101.7710342 12.0944967 70.3134766
145.0334320 9.0893707 77.9159164
145.9565582 9.4227009 78.0569534
149.5665741 11.6784830 78.5570526
150.1639709 12.2119112 78.6324692
153.6107635 24.8296471 78.5536041
153.2471466 25.9387817 78.4324188
152.7054749 27.1966381 78.2705994
97.4373245 6.4084830 69.1267624
99.3168488 8.0896988 69.3622818
99.7957916 8.7098188 69.4178848
100.1945496 9.3778458 69.4406052
100.5450211 10.0752134 69.4706650
100.7985229 10.8152428 69.4797668
100.9465637 11.6200285 69.4560623
145.0482788 9.0910120 77.2074585
145.9901276 9.4269533 77.3541031
153.6517029 24.8184071 77.8540878
153.2845612 25.9314499 77.7287827
98.4902954 8.5352535 68.4413834
98.9773865 9.1504631 68.4937820
99.3841248 9.8110170 68.5306168
145.0015564 9.1181974 76.4857635
145.9353485 9.4514847 76.6336517
153.6467590 24.8189869 77.1467361
98.3137131 10.3647680 67.5629425
144.9147491 9.1854639 75.7588806
145.8392181 9.5015297 75.9025116
146.7120514 9.8619356 76.0356903
147.5372620 10.2661018 76.1603165
148.2734375 10.7010756 76.2642975
148.9473114 11.1704350 76.3541794
153.5953827 17.9448853 76.7998886
153.7862091 18.6956863 76.7908936
153.9354095 19.4525318 76.7842941
154.0324402 20.2632809 76.7504654
153.9850159 22.8836288 76.5979080
153.8356323 23.8425713 76.5212173
153.6007538 24.8530483 76.4284134
146.5915680 9.9325085 75.3027191
147.3944855 10.3289614 75.4153900
148.1721649 10.7655716 75.5341415
148.8683777 11.2204285 75.6297684
153.5264435 17.9840050 76.0767670
153.7000580 18.7499847 76.0626678
153.8511200 19.5131969 76.0585861
153.9571075 20.3200321 76.0235901
153.9277344 22.9104252 75.8848648
153.7561951 23.8916702 75.7968445
153.4933472 24.9233055 75.6990509
145.5626068 9.6487465 74.4138947
146.4345245 10.0263710 74.5634918
