148.5339050 17.4511909 322.0825806
148.9324341 18.0774460 322.0387573
149.2774963 18.7054310 322.0112610
149.5808563 19.3798332 321.9914551
149.8257446 20.1082382 321.9759827
150.2420349 23.8705921 322.0412903
150.1255646 24.7283058 322.1107483
149.8777008 25.6402340 322.1683350
48.6287727 -3.5438581 335.7268372
49.5017509 -2.9539719 335.6104431
50.2193565 -2.3558686 335.5279541
50.8739395 -1.6988778 335.4486694
51.4696159 -1.0263734 335.3872681
98.6112976 4.1833291 328.4467163
99.3792191 4.7385869 328.3529968
103.5429993 10.6886406 327.9382935
103.7754745 11.4242439 327.9251099
146.7339935 16.5459805 321.6229553
147.3078308 17.1266327 321.5663452
147.7946014 17.7399845 321.5063477
148.2133179 18.3548336 321.4625854
148.5663300 18.9849739 321.4281006
148.8774261 19.6524639 321.4127808
149.0999146 20.3822670 321.3978577
149.4694061 24.1761703 321.4828491
149.2814789 25.0502625 321.5391235
148.9983826 25.9622536 321.6121826
48.0244637 -4.1869612 334.9946289
48.9440269 -3.6249447 334.8748169
51.1119652 -1.7705094 334.6176758
51.6993065 -1.0838815 334.5518494
52.2013397 -0.4000249 334.5102539
98.3388977 4.2797766 327.7425232
99.0992050 4.8298774 327.6472168
103.2627869 10.7965193 327.2332458
103.4994583 11.5336905 327.2265625
103.6762390 12.2934265 327.2215271
146.3952484 17.4669189 320.9938965
146.9145050 18.0760441 320.9481506
147.3553772 18.6863766 320.9029541
147.7135925 19.3066883 320.8652954
148.0329437 19.9839230 320.8464355
148.2602539 20.7139416 320.8332520
148.4280243 21.4486008 320.8297729
148.5701141 22.1849537 320.8424988
148.6328888 22.9666805 320.8590698
148.6100769 23.7366791 320.8859863
148.5097504 24.5407047 320.9406128
148.2527618 25.4460316 321.0004578
47.2132378 -4.8184581 334.3069763
48.2467155 -4.2582293 334.1604004
49.1433220 -3.6956742 334.0526428
51.2919464 -1.8186803 333.7934570
51.8595428 -1.1251111 333.7318420
52.3475075 -0.4289005 333.6895752
98.0024033 4.3926458 327.0448608
98.7882919 4.9463358 326.9542236
102.9603577 10.9014835 326.5349121
103.2089767 11.6432781 326.5330505
103.3806915 12.4093103 326.5276794
103.4992752 13.1633730 326.5344238
146.3242798 19.0624828 320.3586426
146.7071533 19.6912880 320.3298340
147.0185089 20.3599796 320.3091125
147.2537537 21.0834923 320.2922668
147.4406281 21.8213615 320.2952881
147.5315857 22.5947437 320.3047180
147.5530090 23.3810978 320.3230286
147.5129242 24.1681252 320.3558350
48.4106445 -4.3050752 333.3392334
49.2876701 -3.7347922 333.2316284
52.4311829 -0.4478728 332.8795166
98.4014435 5.0773602 326.2705078
99.1127014 5.6647024 326.1738892
99.7582397 6.2723703 326.0993958
103.0620575 12.5335188 325.8360901
103.1825638 13.2856703 325.8508301
103.2424088 14.0663605 325.8590088
146.2325745 22.2928829 319.7738342
146.2969208 23.0718079 319.7781372
47.5154305 -4.8784480 332.6561890
48.4982452 -4.3333802 332.5307922
49.3608475 -3.7589941 332.4259338
52.4663239 -0.4646272 332.0820618
52.9184418 0.2322536 332.0401306
97.1282959 4.6804109 325.6793823
97.9166870 5.2224212 325.5854492
98.6902924 5.8165541 325.4975891
99.3456955 6.4201512 325.4185181
102.6535416 12.6834354 325.1501770
102.7648697 13.4359121 325.1610718
102.8358078 14.1964931 325.1770630
102.8616791 15.0338306 325.2056274
102.8073044 15.9086637 325.2381592
-1.8503892 -9.9327545 338.9039001
47.5578270 -4.8858194 331.8528748
51.4444618 -1.8544427 331.3893433
51.9817848 -1.1517365 331.3366394
52.4594498 -0.4581003 331.2901001
52.8963661 0.2388382 331.2510071
97.4016495 5.4041853 324.9265442
98.1780930 5.9868536 324.8350220
98.8503036 6.5880222 324.7476196
100.4652405 8.5031910 324.5843201
100.8533554 9.1582556 324.5494690
101.2168808 9.8540163 324.5213623
101.5356064 10.5801277 324.4964600
102.3153763 16.0801296 324.5668640
102.1714325 16.9776478 324.6157227
101.9882050 17.8825645 324.6814270
-1.1063271 -10.1277437 337.9421387
47.5102692 -4.8872914 331.0638428
51.3754272 -1.8275552 330.6077576
51.9113960 -1.1328428 330.5546570
52.4117775 -0.4268966 330.5051575
52.8281174 0.2667273 330.4690552
53.2350883 1.0178825 330.4356995
96.7695007 5.6085510 324.2630310
97.5566483 6.1900101 324.1691589
98.2987900 6.7922730 324.0894470
99.9321976 8.6807270 323.9031067
100.3378448 9.3344126 323.8672485
100.6942215 10.0313320 323.8404846
101.0282364 10.7624922 323.8259277
101.7927017 16.2513065 323.9107361
101.6183395 17.1531391 323.9600830
101.3743210 18.0983543 324.0302124
101.0377960 19.0391445 324.1121521
100.5920029 20.0059490 324.2055359
-1.3596207 -10.8986292 337.0965576
-0.5347599 -10.2897739 337.0109558
0.1888425 -9.6199207 336.9453430
47.4110489 -4.8517332 330.2826233
52.2921104 -0.4001801 329.7307434
52.7015381 0.3206447 329.6968994
53.0949402 1.0686027 329.6674500
96.9351501 6.4243617 323.5202026
97.6607742 7.0103917 323.4436951
98.2873230 7.6206050 323.3616943
98.8775635 8.2579985 323.3015747
99.3792038 8.8913097 323.2560120
99.7906799 9.5290165 323.2238464
100.7777481 11.6820087 323.1505432
100.9891739 12.4428558 323.1436462
101.2943954 14.7558012 323.1755981
101.2769470 15.5968027 323.2161560
101.1598969 16.4816208 323.2592773
100.9759750 17.3760242 323.3168640
100.6754837 18.3376274 323.3959351
100.2650681 19.3202877 323.4805298
-1.8604857 -11.6712389 336.3217163
-0.8984869 -11.0517426 336.2027283
-0.1018052 -10.4069490 336.1051941
0.5819369 -9.7249002 336.0370789
47.2466774 -4.7940688 329.5112610
52.1220512 -0.3425344 328.9642639
52.5211830 0.3823443 328.9271545
52.9283943 1.1351300 328.9000549
53.2631035 1.8526040 328.8747864
96.9293060 7.2512355 322.8022461
97.6211624 7.8630400 322.7264404
98.2253189 8.4846687 322.6603699
98.7021103 9.1124640 322.6052551
99.1272583 9.7651482 322.5637512
100.1357727 11.9101801 322.4980164
100.3275223 12.6817751 322.5006409
100.5979233 14.9992523 322.5382385
100.5211945 15.8715010 322.5646667
100.4036331 16.7587929 322.6219482
100.1896667 17.6689186 322.6845398
99.8505554 18.6282711 322.7719421
-1.4320418 -11.7788486 335.4099426
-0.5418912 -11.1554546 335.3066101
0.2127783 -10.4948092 335.2191162
0.8743867 -9.8039551 335.1582642
46.9878578 -4.7212629 328.7510681
47.9802475 -4.1516285 328.6334534
48.8457260 -3.5732822 328.5295105
51.9216156 -0.2737085 328.2045288
52.3301468 0.4396844 328.1671753
52.7327194 1.1884863 328.1369324
53.0572243 1.9245682 328.1150208
53.3331108 2.6611280 328.1007996
96.0857162 7.5319252 322.1540222
96.7944870 8.1383915 322.0907898
97.4293671 8.7596493 322.0303040
97.9476852 9.3767166 321.9785156
98.4037323 10.0232773 321.9310303
98.8147736 10.7076750 321.8979797
99.1254196 11.4356871 321.8793335
99.3583603 12.1895666 321.8634033
99.5644684 12.9408960 321.8648376
99.7179184 13.7232733 321.8644104
99.7990646 14.5020018 321.8811646
99.7886353 15.2968664 321.9114380
99.7097855 16.1461487 321.9553528
99.5521851 17.0595512 322.0090637
99.2898483 18.0033970 322.0755310
-2.1463969 -12.4853935 334.6467285
-1.1461008 -11.8775206 334.5255432
-0.2766241 -11.2305603 334.4241028
0.4536956 -10.5658407 334.3422852
1.1073606 -9.8659286 334.2712097
1.7226243 -9.1289063 334.2109680
46.6722450 -4.6265197 328.0008545
47.6577034 -4.0631785 327.8818665
48.5565796 -3.4820004 327.7768555
51.6785851 -0.1977504 327.4454956
52.1007500 0.5156530 327.4093628
52.4822540 1.2553463 327.3794250
52.7989731 2.0020216 327.3631287
53.0665092 2.7467151 327.3458557
53.3209114 3.5286710 327.3414612
96.5387115 9.0689354 321.4026794
97.0656662 9.6856556 321.3500671
97.5393982 10.3280373 321.3184814
97.9328690 11.0068140 321.2861023
98.2148590 11.7489901 321.2473450
98.4881210 12.4925585 321.2389832
98.7461853 13.2435217 321.2489624
98.8869095 14.0243921 321.2463074
98.9161530 14.8040953 321.2630615
98.8666153 15.6197453 321.2989197
98.7464600 16.4928055 321.3470459
98.5598679 17.4122658 321.4123230
-3.0406845 -13.1384411 333.9127502
-1.9027849 -12.5415134 333.7647400
0.6089664 -10.6177826 333.4779053
1.2647070 -9.8935995 333.4094543
1.8582726 -9.1666937 333.3537903
47.3353958 -3.9575472 327.1383667
48.2204590 -3.3787565 327.0332031
52.7586288 2.8506384 326.6065063
53.0007820 3.6391444 326.5994873
53.1958618 4.4444227 326.5932007
96.4882584 10.6844568 320.7104187
96.9147720 11.3660097 320.6928101
97.2618790 12.0879936 320.6765442
97.5245209 12.8379593 320.6600037
97.7319336 13.5924129 320.6514587
97.8534927 14.3793402 320.6579895
97.8717194 15.1879425 320.6853333
97.7907562 15.9962845 320.7201538
-2.8546698 -13.1796961 333.0390625
-1.7584766 -12.5775747 332.9023132
0.7097206 -10.6413631 332.6249390
1.3594791 -9.9328966 332.5551453
1.9352213 -9.1787863 332.4988403
46.8862762 -3.8504357 326.3939819
47.8080177 -3.2455025 326.2980042
52.3844490 2.9601426 325.8612061
52.6318626 3.7571380 325.8580627
52.8268776 4.5651817 325.8574524
95.9933777 12.5241976 320.0820313
96.2445602 13.2787752 320.0870361
96.4742737 14.0346632 320.1169434
96.5382385 15.6506281 320.1177368
-2.7647762 -13.1979055 332.1807251
-1.6863292 -12.5838909 332.0497742
-0.7482979 -11.9747839 331.9409180
0.1048770 -11.3126936 331.8414917
0.7830726 -10.6519213 331.7707520
1.3918052 -9.9364901 331.7121582
1.9347883 -9.1854286 331.6620789
47.3186455 -3.0951192 325.5666809
48.1460915 -2.4959896 325.4811401
48.8702126 -1.8690408 325.4020691
49.4962311 -1.2256936 325.3285522
50.0935440 -0.5428521 325.2728882
50.5883789 0.1611215 325.2281799
50.9970474 0.8775228 325.1876526
51.3932114 1.6187475 325.1654663
51.7153053 2.3564608 325.1511230
51.9656982 3.1064529 325.1230164
52.2280273 3.8866735 325.1303711
52.4137344 4.7014523 325.1243591
-51.2411919 -18.5931625 337.8386230
-2.7484412 -13.1922836 331.3346863
-1.6934173 -12.5827770 331.2091370
-0.7524873 -11.9613276 331.1001892
0.0587456 -11.3172865 331.0100403
0.7309341 -10.6484842 330.9408875
1.3470968 -9.9277649 330.8776855
1.9178075 -9.1804409 330.8233643
2.4233389 -8.4378843 330.7781982
2.8651533 -7.6936460 330.7437134
47.5986481 -2.3297880 324.7580261
48.3181725 -1.7083688 324.6862183
48.9766922 -1.0648673 324.6170044
49.6031990 -0.3788500 324.5588379
50.0765038 0.3153436 324.5017090
50.5186539 1.0417296 324.4754028
50.9043427 1.7701204 324.4411621
51.2384720 2.5229249 324.4237061
51.5090294 3.2611392 324.4058228
51.7632332 4.0393810 324.4022522
51.9427757 4.8486032 324.4094238
52.0551643 5.6639538 324.4159851
52.1185150 6.5029578 324.4339905
52.1259308 7.3831968 324.4596252
-51.6910362 -19.3994102 336.9803467
-50.7149200 -18.7202473 336.8641968
-49.9186935 -18.0437107 336.7929993
-2.7917423 -13.1706800 330.4987488
-1.7766098 -12.5731125 330.3785400
-0.8346914 -11.9447289 330.2705688
-0.0094640 -11.2796822 330.1792603
0.6642238 -10.6073542 330.1087036
1.2697153 -9.9025927 330.0498657
2.7449520 -7.6562896 329.9218750
47.7064056 -1.5207766 323.9717102
48.3456154 -0.8885568 323.9032898
49.0132828 -0.1935022 323.8450012
49.5370827 0.4967683 323.7933655
49.9633484 1.2030449 323.7485962
51.3864059 5.0416455 323.6824646
51.5045433 5.8651729 323.6950073
51.5692711 6.6879039 323.7189331
51.5626640 7.5533118 323.7506409
-51.2294197 -19.5066509 336.0183411
-50.3210564 -18.8188744 335.9195862
-49.5549469 -18.1330853 335.8460083
-2.9567294 -13.1295891 329.6784668
-1.8788913 -12.5148830 329.5526428
-0.9414245 -11.8860245 329.4461060
-0.1629258 -11.2418394 329.3596191
0.5132759 -10.5699482 329.2904053
1.1317950 -9.8575840 329.2297363
2.6085124 -7.6059427 329.1029663
3.0107923 -6.8360934 329.0738525
47.6930847 -0.6658843 323.2156677
48.3525925 0.0203563 323.1445923
48.8970795 0.7062234 323.0901184
49.3520889 1.4062661 323.0531006
50.7836456 5.2478232 322.9895020
50.8807411 6.0532641 322.9989014
50.9168472 6.8969746 323.0185242
50.8909035 7.7804031 323.0509949
-51.9409943 -20.2778816 335.2125549
-50.9250336 -19.5819340 335.0945129
-50.0084267 -18.8825092 334.9891663
-49.2583847 -18.1971207 334.9131165
-3.1913059 -13.0557671 328.8676758
-2.1122878 -12.4471626 328.7441711
1.5362529 -9.0490360 328.3630066
1.9943187 -8.3086405 328.3213501
2.4146645 -7.5481811 328.2935181
2.7990448 -6.7773075 328.2664795
3.1325068 -5.9920163 328.2416382
46.9280510 -0.4240509 322.5193176
47.6143303 0.2574356 322.4632263
48.1560822 0.9394767 322.3966064
48.6282082 1.6240653 322.3544922
49.0667648 2.3613565 322.3337402
49.3952484 3.1116445 322.3095093
50.0702209 5.4777074 322.2926331
50.1294518 6.3103609 322.2972412
50.1594620 7.1586761 322.3300171
50.1306000 8.0310688 322.3729858
-50.6705551 -19.6414566 334.1666565
-49.7823639 -18.9335289 334.0689697
-49.0708046 -18.2528458 334.0018311
-2.3912864 -12.3603039 327.9424744
1.2729036 -8.9801102 327.5606079
1.7341702 -8.2342825 327.5208435
2.1513507 -7.4731393 327.4888000
2.5481033 -6.6791949 327.4647827
2.8813739 -5.9070344 327.4412231
46.7283859 0.5278677 321.7909546
47.3231697 1.1990107 321.7334595
47.8296967 1.8963046 321.6898804
48.2122459 2.6377523 321.6443176
48.5468750 3.3648896 321.6202087
49.2493095 5.7586803 321.6177063
49.3244858 6.5717864 321.6394653
49.2916374 7.4434705 321.6476746
49.2227707 8.3273382 321.7024841
-50.5090179 -19.6945038 333.2548218
-49.6810570 -18.9832497 333.1704102
-48.9625244 -18.2700920 333.0973206
-48.2974625 -17.5363998 333.0344543
-2.7510552 -12.2755642 327.1495056
-1.7906171 -11.6453924 327.0426331
-0.9942899 -10.9924364 326.9553833
-0.3164002 -10.3254929 326.8826294
0.3511052 -9.6243925 326.8200684
0.9569890 -8.8883553 326.7661438
1.4278181 -8.1407185 326.7235413
2.5697353 -5.8066664 326.6489563
2.8360255 -5.0237141 326.6377869
46.2979355 1.5229602 321.0666809
46.8319283 2.2193775 321.0568848
47.2380829 2.9567864 321.0074463
47.6176071 3.6843882 320.9791565
47.8987885 4.4288549 320.9577332
48.0921478 5.2389588 320.9446411
48.2490158 6.0851254 320.9618530
48.3200455 6.9112759 320.9843445
48.2956886 7.7733994 321.0143738
48.1461983 8.6859083 321.0680847
-101.9127884 -26.0968399 338.9483032
-51.3745575 -20.3894463 332.4581604
-50.4464111 -19.7063522 332.3594971
-49.6329155 -18.9991283 332.2756653
-48.9125977 -18.2683258 332.2019348
-48.2925987 -17.5340061 332.1458740
-2.2018864 -11.5141220 326.2665100
-1.4070221 -10.8680143 326.1715088
-0.7018681 -10.2095289 326.0991821
-0.0166674 -9.5123844 326.0325317
0.5853063 -8.7749567 325.9765625
1.0709230 -8.0280657 325.9358521
2.1870756 -5.6979470 325.8586426
2.4568920 -4.9069819 325.8527527
2.6903565 -4.0840483 325.8465881
2.8841729 -3.2319081 325.8460693
46.0973396 3.3334277 320.3775940
46.4702911 4.0474491 320.3329163
46.7428970 4.7937927 320.3276367
46.9304237 5.6143141 320.3210449
47.0263329 6.4644947 320.3349609
47.0703239 7.3117776 320.3595276
47.0270271 8.1791058 320.3898926
-101.1337280 -26.2797909 337.9078979
-51.4087639 -20.3960571 331.5764465
-48.9332962 -18.2648582 331.3198853
-48.3206367 -17.5205154 331.2631226
-47.7413940 -16.7504616 331.2127991
-2.7573562 -11.3643370 325.4933167
-1.9054343 -10.7218046 325.4007263
-1.1483119 -10.0648031 325.3202209
-0.4698608 -9.3690071 325.2524109
0.1339481 -8.6297598 325.2012329
0.6436067 -7.8969712 325.1589355
1.0688664 -7.1544251 325.1197815
1.4594276 -6.3756418 325.0949402
1.7902395 -5.5761199 325.0769043
2.0586021 -4.7875352 325.0700073
2.2710965 -3.9629488 325.0666199
2.4412429 -3.0980387 325.0792542
45.3079529 5.2518525 319.6981201
45.5482483 6.0493722 319.7228088
45.5468025 6.9511681 319.7156982
-101.4640274 -27.1447315 336.9838867
-100.5359955 -26.4180660 336.8780823
-51.4673538 -20.3635159 330.6964722
-49.0040398 -18.2443676 330.4431458
-48.3954086 -17.4988499 330.3872070
-47.8392105 -16.7163353 330.3392639
-2.4621804 -10.5529718 324.6393127
-1.6714962 -9.9030800 324.5677795
-1.0226250 -9.2148495 324.4853210
-0.4169710 -8.4859991 324.4217834
0.1339943 -7.7552075 324.3888550
0.5907126 -7.0050597 324.3557434
0.9993610 -6.2119026 324.3234253
1.3252369 -5.4352512 324.3078308
1.5668260 -4.6377125 324.2974854
1.7651706 -3.8034081 324.2948303
1.9321738 -2.9490564 324.3067932
2.0137494 -2.0856171 324.3208923
2.0238173 -1.1968709 324.3381042
-101.0053101 -27.2590542 335.9831543
-100.1117706 -26.5294361 335.8917542
-51.6106529 -20.3233433 329.8281250
-50.6726761 -19.6394253 329.7284851
-49.8500023 -18.9404240 329.6434021
-47.9902420 -16.6603050 329.4753418
-47.5100403 -15.8662834 329.4383545
-2.3642621 -9.7226582 323.8032532
-1.6199663 -9.0245218 323.7427673
-0.9859779 -8.3015461 323.6754456
-0.4923779 -7.5801406 323.6208496
-0.0290593 -6.8197565 323.5857544
0.3935754 -6.0456653 323.5563660
0.7251117 -5.2507887 323.5431213
0.9627221 -4.4548998 323.5336304
1.1888345 -3.6327105 323.5429993
1.3596442 -2.7794366 323.5442200
1.4439523 -1.9137100 323.5615845
1.4490610 -1.0255432 323.5999756
1.3436179 -0.0889869 323.6280823
1.1821502 0.8518871 323.6715088
0.9461073 1.8110094 323.7232971
-100.6437225 -27.3430519 334.9994812
-99.7890167 -26.5925274 334.9131165
-51.8593826 -20.2652149 328.9713745
-50.9033356 -19.5721836 328.8724060
-50.0510101 -18.8668842 328.7867126
-48.1919518 -16.6063690 328.6162415
-47.7242470 -15.8045530 328.5812988
-47.3216515 -15.0027390 328.5500183
-3.1646929 -9.4950581 323.0693359
-2.4077022 -8.8032675 323.0004272
-1.7194026 -8.0913773 322.9404602
-1.1997331 -7.3763928 322.8854980
-0.7172320 -6.6125736 322.8401794
-0.2416889 -5.8462868 322.8287964
0.0737117 -5.0584698 322.7977600
0.3027134 -4.2603951 322.7802124
0.5179422 -3.4286044 322.7798767
0.6856584 -2.5736129 322.7940674
0.7535698 -1.7115004 322.8107300
0.7219326 -0.7959093 322.8372192
0.6259399 0.1396805 322.8807983
0.4650447 1.0693761 322.9452820
0.1649920 2.0458789 323.0047607
-0.2900060 3.0895045 323.0993347
-101.3361893 -28.1169662 334.1250610
-100.4077911 -27.4008331 334.0413513
-99.5912552 -26.6425056 333.9560242
-98.8615952 -25.8618393 333.8866272
-52.1735535 -20.1798382 328.1241455
-51.2090492 -19.4849167 328.0276184
-50.3510971 -18.7839451 327.9378357
-49.6402588 -18.0577164 327.8716125
-49.0201569 -17.3198681 327.8136292
-48.4369469 -16.5280323 327.7697449
-47.9735718 -15.7276602 327.7316284
-47.5757370 -14.9265270 327.7026062
-4.0818434 -9.2438393 322.3274231
-3.2883101 -8.5517178 322.2703857
-2.5825262 -7.8378696 322.2121887
-2.0055180 -7.1298528 322.1635437
-1.5046340 -6.3742728 322.1034241
-1.0350255 -5.5981421 322.0782776
-0.6868314 -4.8146572 322.0658264
-0.4426562 -4.0420923 322.0531006
-0.0429153 -1.4702072 322.0819702
-0.0843670 -0.5518131 322.1113892
-0.2014346 0.3872578 322.1614685
-0.4548152 1.3604102 322.2129211
-0.8001612 2.3451462 322.3052979
-1.3574045 3.4293468 322.3936768
-102.3005829 -28.8851585 333.2930908
-101.1716080 -28.1610699 333.1730957
-100.2431564 -27.4228725 333.0764771
-99.4765091 -26.6877861 333.0054932
-98.7471313 -25.8814144 332.9377747
-51.6118584 -19.3816757 327.1897888
-50.7254715 -18.6634903 327.1015625
-50.0333061 -17.9739628 327.0302734
-49.3824043 -17.2224617 326.9757080
-48.7954407 -16.4386005 326.9261780
-48.3045959 -15.6344185 326.8890991
-47.8972893 -14.8458662 326.8634644
-47.5283966 -14.0080929 326.8386230
-3.5482919 -7.5562806 321.4781494
-2.9418445 -6.8502660 321.4403992
-2.4092789 -6.1135020 321.3982544
-1.9770232 -5.3278923 321.3579407
-1.6494513 -4.5347128 321.3286438
-1.3745928 -3.7653489 321.3275452
-0.9741000 -1.1859972 321.3622742
-1.0431358 -0.2619894 321.4020996
-1.2556700 0.7038270 321.4518738
-1.5222131 1.6668587 321.5324402
-1.9806254 2.7060089 321.6002502
-102.2205124 -28.9083366 332.3492737
-101.0882339 -28.1707859 332.2286072
-98.7148895 -25.8957119 332.0016174
-52.0726929 -19.2493744 326.3662720
-51.1906281 -18.5359726 326.2800293
-50.4450989 -17.8330803 326.2058105
-49.7988205 -17.1047535 326.1439209
-49.1987343 -16.3188419 326.0925598
-48.7042313 -15.5306892 326.0569153
-48.2939529 -14.7337456 326.0307007
-47.9399376 -13.8961678 326.0141907
-47.6469345 -13.0490379 325.9955444
-3.4777577 -5.7947698 320.6969299
-3.0419738 -5.0168767 320.6755676
-2.6988213 -4.2270751 320.6546326
-2.4623733 -3.4245119 320.6286011
-2.2485642 -2.5941498 320.6307678
-2.1364069 -1.7332020 320.6408081
-2.1174579 -0.8433241 320.6661377
-2.2388263 0.1056417 320.7188721
-2.4867711 1.0964136 320.7788391
-103.5551147 -29.6044807 331.5588989
-102.2245102 -28.8882198 331.4138794
-101.1113586 -28.1606102 331.2981567
-98.7502289 -25.8802547 331.0737610
-98.1267776 -25.0662422 331.0213318
-52.6505051 -19.0989513 325.5438538
-51.7512550 -18.3969440 325.4639893
-50.9772034 -17.6946487 325.3836670
-50.2927818 -16.9590912 325.3253479
-49.6976280 -16.1835041 325.2698975
-49.1983910 -15.3974810 325.2316895
-48.7751350 -14.6027985 325.2041626
-48.4119568 -13.7613029 325.1831665
-48.1128616 -12.9120007 325.1774292
-47.8799629 -12.0848351 325.1615601
-3.9797809 -3.8473382 319.9570313
-3.7272823 -3.0452473 319.9719543
-3.6018672 -2.1997187 319.9735413
-3.4754617 -1.3095136 319.9981079
-103.6578979 -29.5806084 330.6341858
-102.3209763 -28.8495560 330.4923401
-101.2002487 -28.1218090 330.3752441
-98.8553009 -25.8519688 330.1550903
-98.2481308 -25.0234394 330.1042786
-52.3699188 -18.2223854 324.6572876
-51.5869408 -17.5208836 324.5821228
-50.8997688 -16.7968655 324.5151367
-50.2777252 -16.0266762 324.4646912
-49.7491913 -15.2405119 324.4176636
-49.2990189 -14.4408197 324.3939514
-48.9310112 -13.6218615 324.3730774
-48.6383133 -12.7687054 324.3600159
-48.4233055 -11.9344244 324.3658447
-102.5291519 -28.8037910 329.5841064
-101.3868256 -28.0714149 329.4660950
-99.0230255 -25.7926750 329.2465210
-98.4490814 -24.9786739 329.1981201
-52.3183937 -17.3385296 323.7860107
-51.6091805 -16.6120415 323.7254028
-50.9601021 -15.8433952 323.6628418
-50.3995285 -15.0586882 323.6204224
-49.9733467 -14.2730293 323.5755005
-49.5576820 -13.4468613 323.5670166
-49.2715988 -12.5934010 323.5476379
-49.0564423 -11.7469482 323.5558472
-48.9142952 -10.8711891 323.5602417
-48.8268509 -9.9463291 323.5862122
-48.8502007 -9.0060453 323.5970459
-48.9123993 -8.0752144 323.6384583
-102.8117599 -28.7226048 328.6881409
-101.6805573 -28.0135975 328.5662231
-100.7260437 -27.2821178 328.4750366
-99.9736786 -26.5291252 328.4034424
-99.2969666 -25.7325687 328.3451843
-98.6905060 -24.9084129 328.2974854
-98.1745758 -24.0885143 328.2595520
-97.7058182 -23.2506638 328.2245178
-52.4475517 -16.3799362 322.9345398
-51.7558136 -15.6189060 322.8866577
-51.1796951 -14.8399630 322.8400574
-50.7250137 -14.0577707 322.8012390
-50.3133278 -13.2403364 322.7793274
-50.0313606 -12.3760986 322.7544861
-49.8162193 -11.5396481 322.7614441
-49.6539955 -10.6556902 322.7687683
-49.5659599 -9.7382555 322.7980042
-49.6011543 -8.8005819 322.8217163
-49.7003288 -7.8569384 322.8668518
-49.9178581 -6.8522239 322.9231873
-50.2571831 -5.8296986 322.9973755
-103.2243729 -28.6466675 327.7996826
-102.0166016 -27.9072227 327.6779785
-101.0594559 -27.1826534 327.5861206
-100.3168182 -26.4431381 327.5108948
-99.5876465 -25.6317978 327.4566650
-98.9725418 -24.8120365 327.4046631
-98.4769821 -24.0082340 327.3639832
-98.0380325 -23.1611118 327.3370972
-97.6490936 -22.2962055 327.3113098
-52.6914101 -15.3701496 322.0956116
-52.1077080 -14.5904417 322.0528259
-51.6253510 -13.8086767 322.0314331
-51.2269783 -12.9855881 322.0072327
-50.9218788 -12.1344118 321.9983215
-50.7097778 -11.2882833 321.9906311
-50.5442886 -10.4131250 321.9999084
-50.4982491 -9.4697380 322.0100708
-50.5325890 -8.5330868 322.0490723
-50.6938744 -7.5759430 322.0855408
-50.9503517 -6.5532746 322.1649780
-51.3218269 -5.5181785 322.2422791
-103.7321701 -28.5233707 326.9262085
-102.4885941 -27.7828789 326.8081970
-101.5355988 -27.0702724 326.7066345
-100.7406464 -26.3360615 326.6346741
-98.8502197 -23.9056454 326.4825439
-98.4069519 -23.0651512 326.4527893
-98.0071182 -22.1970921 326.4334106
-97.6569824 -21.3424282 326.4070129
-52.7518463 -13.5114546 321.2808228
-52.3555756 -12.6746788 321.2696228
-52.0323296 -11.8302546 321.2405396
-51.8123856 -10.9738178 321.2235413
-51.6134415 -10.0976706 321.2503967
-51.5646324 -9.1756277 321.2713623
-51.6334229 -8.2342310 321.3061829
-51.8394127 -7.2709637 321.3623047
-52.2064400 -6.2047501 321.4218445
-104.3551941 -28.3835831 326.0538635
-103.1034775 -27.6435165 325.9465637
-102.0804672 -26.9355640 325.8421021
-101.2500458 -26.2041016 325.7623291
-99.3211746 -23.7863369 325.6113892
-98.8436737 -22.9410934 325.5798950
-98.4604187 -22.0831947 325.5527344
-98.1406708 -21.2257023 325.5462341
-97.8902588 -20.3317127 325.5256958
-53.7017517 -12.3247585 320.5000305
-53.2336998 -11.4806128 320.5214233
-53.0488434 -10.6241388 320.5129395
-52.9003029 -9.7282953 320.5416565
-52.9131470 -8.7888355 320.5556030
-53.0108643 -7.8447690 320.5741272
-103.7830429 -27.4854317 325.0783691
-102.6897430 -26.7542191 324.9982300
-101.8716583 -26.0489216 324.9082031
-101.1072693 -25.2603760 324.8418884
-100.4543076 -24.4556217 324.7852173
-99.9050827 -23.6465759 324.7345276
-99.3965454 -22.8029804 324.7127686
-98.4607620 -20.1892357 324.6750183
-98.2593231 -19.2443008 324.6720276
-103.5316620 -26.5839596 324.1306763
-102.6272278 -25.8470249 324.0744019
-101.8363800 -25.0774212 323.9901123
-101.0907593 -24.2731934 323.9406738
-100.5122223 -23.4773712 323.8904114
-100.0309525 -22.6461124 323.8548279
-99.0892029 -20.0187225 323.8249512
-98.9176178 -19.0740204 323.8302002
-98.8326416 -18.1188030 323.8460999
-103.5080185 -25.6180954 323.2627258
-102.6782837 -24.8569946 323.1744080
-101.9177551 -24.0711021 323.1060486
-101.3012466 -23.2846985 323.0525818
-100.8026962 -22.4476776 323.0138550
-99.8296661 -19.8241863 322.9753113
-99.6548615 -18.8765965 322.9912720
-99.6007309 -17.9205608 323.0100403
-99.6276550 -16.9654121 323.0443115
-99.9414215 -14.9563570 323.1256409
-100.7558670 -12.8515062 323.2856750
-103.7036896 -24.6144409 322.3376160
-102.9404221 -23.8237591 322.2877197
-102.2654724 -23.0375519 322.2392883
-101.7127686 -22.2096806 322.1938477
-100.6949081 -19.5997429 322.1592407
-100.5306778 -18.6642628 322.1656494
-100.4762344 -17.7015724 322.1788635
-100.5045547 -16.7357864 322.2152100
-100.6715622 -15.7124243 322.2501831
-100.9045944 -14.7197161 322.3314819
-101.3717880 -13.6433334 322.4016113
-101.9686432 -12.5342312 322.5039978
-104.1104660 -23.5395679 321.4764404
-103.4231796 -22.7559929 321.4418640
-102.8123779 -21.9323463 321.4052734
-102.3675079 -21.0662937 321.3683167
-102.0450287 -20.2101555 321.3464050
-101.8254700 -19.3160133 321.3329163
-101.6463394 -18.3752289 321.3504639
-101.5559082 -17.4106159 321.3787842
-101.6301041 -16.4413738 321.4129028
-101.8230896 -15.4153128 321.4724426
-102.2071075 -14.3546104 321.5353699
-104.1845551 -21.5905819 320.6140137
-103.7070389 -20.7261848 320.5977173
-103.3158417 -19.8761559 320.5946960
-103.1060410 -18.9848518 320.5819397
-102.9719162 -18.0319633 320.5872498
-102.9245224 -17.0658035 320.6213074
-103.0361633 -16.0852222 320.6454773
-105.1158524 -19.4379883 319.8224792
-104.8574600 -18.5353489 319.8120117
148.6124573 19.1133175 291.8500366
148.9610748 19.7755432 291.8158569
149.2422180 20.4731941 291.7940674
149.4234772 21.1949940 291.8088379
149.5296936 21.9591484 291.8209534
149.2381439 18.1149254 291.0377808
149.6526642 18.7200356 291.0025940
150.4431152 20.7948303 290.9736328
150.5565643 21.5507889 290.9797974
150.6024780 22.3274670 290.9968872
150.5687561 23.1342506 291.0408325
148.4200439 16.0128288 290.3858032
149.0532074 16.5728416 290.3067017
149.5872498 17.1814156 290.2717285
150.0842896 17.7846317 290.2254944
150.4969330 18.3993416 290.2005005
151.2803802 20.4642429 290.1728210
151.4217987 21.2095356 290.1757507
151.4927979 21.9813576 290.1836548
151.4607086 22.7816143 290.2204590
151.4139099 23.5643406 290.2380676
151.2519836 24.4573364 290.3078308
148.6022949 15.1878767 289.6087341
149.2093811 15.7274351 289.5643005
149.7673492 16.3066425 289.5257874
150.2960968 16.9188118 289.4904785
152.2183533 21.7007141 289.3937378
152.2181396 22.4831886 289.4257507
152.1629181 23.2725964 289.4486084
152.0165863 24.1467609 289.4926453
151.8197174 25.0273895 289.5475769
148.5639343 14.4106026 288.8961487
149.2411652 14.9309406 288.8435059
149.8715363 15.4935627 288.7825928
150.4047546 16.0766735 288.7429810
150.9053040 16.6848297 288.7123413
152.7751465 21.4925308 288.6384277
152.8076782 22.2587242 288.6592407
152.7845917 23.0309486 288.6779785
152.6893005 23.8653927 288.7027283
152.5058746 24.7483864 288.7571106
148.3680267 13.6757431 288.1986694
149.1435852 14.1894569 288.1227417
149.8344116 14.7263689 288.0592651
150.4077911 15.2923632 288.0156250
150.9085083 15.8805428 287.9877625
151.4100647 16.4966850 287.9488831
151.8454132 17.1119308 287.9172058
152.1898804 17.7412663 287.9015198
153.0737152 24.5198059 287.9842529
152.8688660 25.3728371 288.0263977
152.5375671 26.3452644 288.1152039
148.8968048 13.4758196 287.4335938
149.6184235 13.9876909 287.3693542
150.2693939 14.5474300 287.3211975
150.8252563 15.1203279 287.2807922
151.3479156 15.7096682 287.2369080
151.8455200 16.3248501 287.1884155
152.2433929 16.9436913 287.1707153
152.5825348 17.5808334 287.1512756
153.5601501 24.3250923 287.2294617
153.3661499 25.1774330 287.2711182
153.0803833 26.0920486 287.3227844
152.7004089 27.0820541 287.4086609
148.6061249 12.8127050 286.7412415
149.3508453 13.3074656 286.6727295
150.0307770 13.8295069 286.6187744
151.7208557 15.5584116 286.4901733
152.1815948 16.1865253 286.4616089
153.9673157 24.1658592 286.4790039
153.7984619 25.0135345 286.5233154
153.5380554 25.9126301 286.5711670
153.1829834 26.8647232 286.6372986
148.9947510 12.6648893 285.9950867
149.7147522 13.1661777 285.9343262
150.3963623 13.7072411 285.8729553
152.0271759 15.4435940 285.7541199
152.4735718 16.0789070 285.7246094
154.2951965 24.0437088 285.7481384
154.1608429 24.8699207 285.7793579
153.9239655 25.7569637 285.8229980
153.5789642 26.7053928 285.8908691
149.3321991 12.5521564 285.2494507
152.2919006 15.3549604 285.0219421
152.7091217 15.9928474 284.9934692
153.7120361 17.9461594 284.9434204
153.9821625 18.6423168 284.9330139
154.1878052 19.3317184 284.9390564
154.3835144 20.0551567 284.9355774
154.2134552 25.6505642 285.0949707
153.9149933 26.5732956 285.1473083
153.5368042 27.5262699 285.2205505
148.7855682 11.9614716 284.5909729
149.5796051 12.4544573 284.5224304
152.4795685 15.2964115 284.3007813
152.8861084 15.9268522 284.2855530
153.9063110 17.8682404 284.2210083
154.1655273 18.5726833 284.2185364
154.3837280 19.2606335 284.2135315
154.5704956 19.9864635 284.2108765
154.4381409 25.5717010 284.3743896
154.1826172 26.4653721 284.4147034
153.8206329 27.3888435 284.4759827
153.3338470 28.3816967 284.5576172
148.1586914 11.4108829 283.9385681
149.0119324 11.8866549 283.8615112
149.7688904 12.3801126 283.7998047
152.6379242 15.2343493 283.5835571
153.0696411 15.8627758 283.5533752
154.0617676 17.7998009 283.5086975
154.3231812 18.5144539 283.5054016
154.9128723 23.8025856 283.5773926
154.7951050 24.6331463 283.6140137
154.0368500 27.3000584 283.7545166
153.5748444 28.2883987 283.8269348
148.3314514 11.3544273 283.2138367
149.1783905 11.8343534 283.1403809
149.9191284 12.3366871 283.0805054
152.7665405 15.1852322 282.8689575
153.1843872 15.8197508 282.8466492
154.1780548 17.7628212 282.7954407
154.4243469 18.4643898 282.7900085
155.0229797 23.7637577 282.8692017
154.9293213 24.5691528 282.8937073
154.1937561 27.2439213 283.0387573
153.7628021 28.1992455 283.1016541
148.4316711 11.3092670 282.5003967
154.2969208 27.2085514 282.3275452
153.8721161 28.1580887 282.3919373
153.2760010 29.2354565 282.4790955
148.5048065 11.2888174 281.7889709
154.3470764 27.1836472 281.6204529
153.9325562 28.1301460 281.6843567
153.3390045 29.2214241 281.7703857
148.5339661 11.2852507 281.0827942
155.0337982 20.6144333 280.6904297
155.1268005 21.3410931 280.6987305
153.3624725 29.2219830 281.0668030
148.4957123 11.2971144 280.3844910
155.0002289 20.6230965 279.9947205
155.0759583 21.3603611 280.0057068
153.3300629 29.2214622 280.3681946
148.4081573 11.3272629 279.6911011
154.1971893 27.2439632 279.5361938
153.7972412 28.1837673 279.5969543
153.2015991 29.2854481 279.6802979
148.2830963 11.3887968 279.0006104
154.0509033 27.3068333 278.8501587
153.6450348 28.2452660 278.9125977
153.0383301 29.3353996 278.9953918
147.2164917 10.9730263 278.3827209
148.0920105 11.4485950 278.3163147
153.8595581 27.3740215 278.1701965
153.4258423 28.3363895 278.2334595
147.8805389 11.5303202 277.6369019
153.5900726 27.4918232 277.4945679
153.1513214 28.4435310 277.5604553
147.6125183 11.6270761 276.9569092
148.4590454 12.1117210 276.8952637
149.2161102 12.6136675 276.8366699
149.8632507 13.1249685 276.7855225
150.5010223 13.6918869 276.7453308
154.1761475 20.9372654 276.5816650
154.2597504 21.6707020 276.5921936
153.8865509 25.8104610 276.7291870
153.6380005 26.6941872 276.7711487
153.2898407 27.5999718 276.8251038
152.8261566 28.5848961 276.8874512
148.1390533 12.2269440 276.2225952
148.9049988 12.7310181 276.1657410
149.5724487 13.2377787 276.1147766
150.2148743 13.7857475 276.0728149
153.9271851 21.0460911 275.9107361
154.0046692 21.7656116 275.9237366
153.5769348 25.9273071 276.0603943
153.3076935 26.8287010 276.1029663
152.9380188 27.7416420 276.1589966
147.7607117 12.3594923 275.5494385
148.5429535 12.8647223 275.4996033
150.4756622 14.4964085 275.3667908
150.9997406 15.0898714 275.3321533
153.2080383 26.0812283 275.3948975
152.9148102 26.9849033 275.4436340
152.5186768 27.9118958 275.4967957
148.1222687 13.0167322 274.8367310
150.0610809 14.6466494 274.6944275
150.6135864 15.2314520 274.6639709
152.7720795 26.2552147 274.7326355
152.4388275 27.1805344 274.7837524
152.0110016 28.1159306 274.8437195
147.6405029 13.1847591 274.1663513
148.3492279 13.6965160 274.1313477
148.9963074 14.2311707 274.0823059
152.7126617 24.6692524 273.9996948
152.5339050 25.5370979 274.0344849
152.2757416 26.4355507 274.0840149
151.8933258 27.3805923 274.1374207
147.8265686 13.8944082 273.4742432
148.4896851 14.4224920 273.4317322
152.1967773 24.8733063 273.3494263
151.9798279 25.7610798 273.3850098
151.6697998 26.6727695 273.4392395
147.1881409 14.1107149 272.8134155
147.8930664 14.6472902 272.7842407
151.5380554 20.3971901 272.5893250
151.6896210 21.1383648 272.6050415
151.8242950 23.4087009 272.6419678
151.7348328 24.2449379 272.6766968
151.5773315 25.1251678 272.7113342
151.3345032 26.0127602 272.7496338
-102.1346359 -19.9544258 292.3373413
-101.8345871 -18.1064110 292.3562317
147.2000580 14.8938742 272.1233826
150.9381409 20.6297665 271.9641418
151.0298309 21.3946877 271.9497986
151.1468353 23.6717243 272.0029907
150.9981842 24.5340633 272.0186157
150.8361969 25.4043064 272.0719604
-100.5579224 -20.3439465 291.2279053
-100.3595505 -19.4590530 291.2322388
-100.2686691 -18.5037556 291.2564087
-100.2829208 -17.5396767 291.2705383
-100.3872604 -16.5601082 291.2716064
147.1090546 15.7453070 271.4453125
147.7323151 16.3160973 271.4261780
148.2888794 16.9070587 271.3919067
148.7609711 17.5211868 271.3649597
150.2211456 20.8928604 271.3210754
150.2850647 21.6776237 271.3044128
150.4140015 22.4161148 271.3403931
150.4530792 23.1739445 271.3520203
150.3986664 23.9556561 271.3805542
150.2360840 24.8251534 271.4132996
-101.4821777 -23.9592743 290.3032837
-100.7901993 -23.1987476 290.2633972
-100.2379379 -22.3666134 290.2481384
-99.7824554 -21.4928341 290.2206116
-99.4713898 -20.6154251 290.2148438
-99.2588501 -19.7407532 290.2243958
-99.1081390 -18.8056126 290.2158813
-99.0913010 -17.8403244 290.2373962
-99.1735611 -16.8721428 290.2623291
-99.3713913 -15.8496370 290.2866821
-99.7044144 -14.7819633 290.3230591
146.8516846 16.6529083 270.7913513
147.4317932 17.2391548 270.7695313
147.9374084 17.8391094 270.7421265
149.4295807 21.2152958 270.6906433
149.5126953 21.9840927 270.6913757
149.5925446 22.7435970 270.7085266
149.5881805 23.5086002 270.7236328
149.4858856 24.3026791 270.7534485
-102.1217728 -25.7386265 289.3710327
-101.2131882 -24.9969139 289.3206482
-100.4592972 -24.2233467 289.2907104
-99.8164368 -23.4347191 289.2493896
-99.2901154 -22.5796356 289.2145691
-98.3613434 -19.9621944 289.2022095
-98.2388000 -19.0216846 289.2244568
-98.1715240 -18.0746040 289.2311401
-98.1902008 -17.1081562 289.2536926
-98.3276291 -16.1073112 289.2814636
-98.6258850 -15.0586615 289.3239746
-99.0410004 -13.9819775 289.3739014
146.4440002 17.6093731 270.1379395
146.9637146 18.2006035 270.1263123
147.4230194 18.8004723 270.1087952
147.7774658 19.4237137 270.0822449
148.1036835 20.1047115 270.0736694
148.3445587 20.8295269 270.0709229
148.4914856 21.5766258 270.0768127
148.5846710 22.3298988 270.0917969
148.6165161 23.1149559 270.1041565
148.5585175 23.9035892 270.1181335
-102.1874619 -26.6676502 288.4295654
-101.2100525 -25.9539757 288.3656006
-100.3667221 -25.2106037 288.3120728
-99.6274261 -24.4175701 288.2656555
-99.0494461 -23.6202641 288.2419434
-98.5783386 -22.7767010 288.2279358
-97.6706390 -20.1396236 288.2068787
-97.5550766 -19.1891422 288.2472534
-97.4383545 -18.2561893 288.2263184
-97.4467163 -17.2963505 288.2657776
-97.5264664 -16.3043594 288.2758484
-97.7720108 -15.2737484 288.3239441
-98.1381454 -14.2179899 288.3708801
-98.5905457 -13.1360168 288.4407959
146.1979675 19.2566433 269.5008545
146.5988464 19.8695545 269.4888306
146.9241791 20.5524178 269.4787598
-101.4257736 -26.8478775 287.4299927
-100.5155945 -26.1305275 287.3830872
-99.7295380 -25.3754539 287.3428345
-99.0392990 -24.5746365 287.3008423
-98.4757614 -23.7660885 287.2642517
-97.9993668 -22.9149971 287.2474060
-97.1165619 -20.2794533 287.2369995
-96.9598618 -19.3507710 287.2410583
-96.8729858 -18.3992233 287.2573853
-96.8587112 -17.4473400 287.2763367
-96.9427490 -16.4473991 287.3169250
-97.1047058 -15.4437027 287.3334961
-97.4217072 -14.4111242 287.3796082
-97.8793411 -13.3403931 287.4461670
-100.7756958 -26.9927006 286.4378662
-99.8955154 -26.2785892 286.3830261
-99.1505508 -25.5041790 286.3443298
-98.5424423 -24.6871986 286.3254395
-98.0228653 -23.8774052 286.3042908
-97.5313950 -23.0279007 286.2658691
-96.6330261 -20.3942757 286.2510986
-96.4789658 -19.4748058 286.2619019
-96.4108276 -18.5184307 286.2998962
-96.3711700 -17.5917034 286.2981567
-96.4134827 -16.5979500 286.3179016
-96.5695267 -15.5732288 286.3616638
-96.8542633 -14.5529118 286.4085083
-97.2478027 -13.5112896 286.4501648
-97.8129654 -12.3706245 286.5281067
-101.2532043 -27.8149700 285.5155334
-100.2585831 -27.1161385 285.4661865
-99.4419098 -26.3974743 285.4195557
-98.7119751 -25.6017628 285.3712463
-98.1381531 -24.7850380 285.3492737
-97.6448059 -23.9654274 285.3386841
-97.1668701 -23.1103287 285.3121033
-96.0177612 -16.6966534 285.3645630
-96.1623611 -15.6782389 285.3921814
-96.4074478 -14.6644306 285.4332275
-96.7475052 -13.6293411 285.4736938
-97.2778015 -12.5154161 285.5447083
-101.9830627 -28.6364613 284.6347656
-100.8441925 -27.9259739 284.5603638
-99.8903198 -27.1993847 284.5029602
-99.1127319 -26.4657211 284.4645386
-98.4249191 -25.6805859 284.4290771
-97.8341980 -24.8538971 284.3966064
-97.3385239 -24.0353756 284.3760681
-96.8768845 -23.1755867 284.3562927
-95.7254333 -16.7609005 284.4067688
-95.8677063 -15.7563610 284.4396667
-96.0915604 -14.7400351 284.4826965
-96.3940964 -13.7214413 284.5203857
-96.8633118 -12.6196108 284.5780029
-97.4729462 -11.5187006 284.6398010
-98.2977753 -10.2471018 284.7445679
-102.9842834 -29.4173203 283.7673950
-101.6411514 -28.7031441 283.6666260
-100.5757751 -28.0155010 283.6086121
-99.6239395 -27.2641659 283.5465088
-98.8820038 -26.5267658 283.5119324
-98.1842041 -25.7148762 283.4679260
-97.6077118 -24.8970547 283.4445190
-95.7717896 -20.6015034 283.3911438
-95.5899124 -19.6816978 283.4006348
-95.5032120 -16.8292580 283.4555054
-95.6343307 -15.8253078 283.4861450
-96.5866623 -12.6951361 283.6231995
-97.1846390 -11.5690727 283.6933289
-98.0002823 -10.3527813 283.7799988
-101.4568405 -28.7641354 282.7202454
-100.3628464 -28.0468540 282.6548767
-99.4619827 -27.3151169 282.6045227
-98.7062912 -26.5473518 282.5603027
-98.0550613 -25.7528515 282.5336914
-97.4829178 -24.9266987 282.5056152
-95.6437988 -20.6353264 282.4613953
-95.4712906 -19.7074471 282.4610596
-95.3726425 -16.8571434 282.5165710
-95.4855804 -15.8558569 282.5446777
-96.4337616 -12.7300425 282.6807251
-96.9908218 -11.6079082 282.7454834
-97.7809906 -10.4030313 282.8274536
-99.0519562 -9.0318413 282.9458313
-102.6367798 -29.4803505 281.8597717
-101.3374100 -28.7806492 281.7767639
-100.2503891 -28.0603428 281.7125244
-99.3655701 -27.3223953 281.6622314
-98.6415787 -26.5688705 281.6255493
-97.9770889 -25.7555943 281.5914917
-97.4118347 -24.9451694 281.5700378
-96.9217911 -24.1248608 281.5505371
-96.5003891 -23.2780037 281.5367126
-96.1305161 -22.3962135 281.5290527
-95.8171082 -21.5293388 281.5194092
-95.5938187 -20.6404018 281.5216980
-95.4419708 -19.7062855 281.5347290
-95.3253860 -18.7841225 281.5424805
-95.2684631 -17.8511143 281.5563965
-95.2994995 -16.8710537 281.5784607
-95.4160919 -15.8748722 281.6076355
-95.6298599 -14.8739357 281.6433105
-95.9341507 -13.8402090 281.6882019
-97.6517944 -10.4302549 281.8850403
-98.8618011 -9.0521927 282.0017090
-101.3169632 -28.7839642 280.8419800
-100.2344818 -28.0508652 280.7783203
-99.3806381 -27.3201122 280.7315063
-98.6344223 -26.5633850 280.6928101
-97.9545975 -25.7603741 280.6587219
-97.3795776 -24.9441166 280.6336670
-96.8974533 -24.1185837 280.6148987
-96.4893036 -23.2679691 280.6039429
-96.1144409 -22.3882675 280.5931396
-95.8169327 -21.5261745 280.5907593
-95.6054459 -20.6381836 280.5943604
-95.4321442 -19.7024460 280.5972900
-95.3061142 -18.7740116 280.6097412
-95.2603149 -17.8581238 280.6253662
-95.3058014 -16.8736286 280.6487122
-95.4402695 -15.8623505 280.6791687
-95.6453476 -14.8561544 280.7149048
-95.9222565 -13.8483047 280.7547913
-97.6314087 -10.4322548 280.9497986
-98.8085403 -9.0488825 281.0629272
-101.3899078 -28.7662849 279.9140320
-100.3515167 -28.0470734 279.8530273
-98.0231476 -25.7400551 279.7337646
-97.4431839 -24.9254532 279.7080078
-96.9669113 -24.1021004 279.6896667
-96.5583115 -23.2511196 279.6784363
-96.1822662 -22.3773136 279.6701050
-95.8818588 -21.5075531 279.6653442
-95.6604996 -20.6244068 279.6672363
-95.4892731 -19.6864166 279.6733398
-95.3995972 -16.8443775 279.7263489
-95.5175934 -15.8454456 279.7533569
-95.7085876 -14.8395519 279.7873230
-96.0046310 -13.8092737 279.8296204
-97.7168350 -10.3975296 280.0212708
-98.8680649 -9.0383425 280.1313171
-101.5596924 -28.7206841 278.9944458
-100.4880447 -27.9904003 278.9322815
-98.1817322 -25.6915722 278.8143921
-97.5890350 -24.8898754 278.7878723
-97.1166153 -24.0690746 278.7732239
-96.7228241 -23.2087097 278.7580566
-96.3499298 -22.3257542 278.7539368
-96.0111923 -21.4513226 278.7476501
-95.7916794 -20.5784492 278.7473755
-95.6442413 -19.6541290 278.7562866
-95.5519714 -16.7894077 278.8015137
-95.6435623 -15.8133297 278.8320618
-95.8442154 -14.8140392 278.8678589
-96.1794205 -13.7642603 278.9106140
-97.8843307 -10.3711729 279.0992432
-103.1983948 -29.3684292 278.1533813
-101.8615036 -28.6473942 278.0830383
-100.7638321 -27.9242153 278.0156860
-99.8593140 -27.1817322 277.9685974
-99.1209335 -26.4438744 277.9294128
-98.4235229 -25.6428757 277.8981934
-97.8020782 -24.8169918 277.8784180
-97.3459320 -24.0011635 277.8587646
-96.9673233 -23.1292934 277.8410034
-96.2212067 -21.4084358 277.8316956
-95.7617722 -16.7391319 277.8905945
-95.8756027 -15.7483845 277.9191895
-96.8859482 -12.5879288 278.0494385
-97.4192200 -11.4713116 278.1144714
-98.1822433 -10.2684059 278.1857300
-102.2466278 -28.5494900 277.1773376
-101.1076889 -27.8305302 277.1112976
-100.1967697 -27.1026917 277.0599670
-99.4258957 -26.3513203 277.0222778
-98.7352905 -25.5529003 276.9896240
-98.1579285 -24.7479954 276.9621582
-97.6561050 -23.9267635 276.9516907
-97.2357635 -23.0623875 276.9342346
-96.8294983 -22.1920719 276.9251404
-96.5013657 -21.3241367 276.9248962
-96.0704498 -16.6640301 276.9852905
-96.2083130 -15.6514568 277.0114441
-97.2350159 -12.4813347 277.1427917
-97.8142090 -11.3473587 277.2023315
-102.7364960 -28.4251862 276.2781067
-101.5375519 -27.7060261 276.2144470
-100.6293716 -27.0020447 276.1546021
-99.8334198 -26.2450619 276.1225891
-99.1505737 -25.4498272 276.0864258
-98.5435715 -24.6336899 276.0601807
-96.4514694 -16.5552711 276.0758362
-96.5972443 -15.5482683 276.1109619
-96.8327866 -14.5490599 276.1456604
-97.1702194 -13.5027313 276.1893616
-97.6585236 -12.3827600 276.2459412
-98.3139267 -11.2194490 276.3061829
-103.3840866 -28.2870274 275.3697815
-102.1461182 -27.5645580 275.3241577
-101.1442108 -26.8649235 275.2680664
-100.3507538 -26.1317673 275.2225342
-99.6152420 -25.3358154 275.1919250
-98.9834442 -24.5296326 275.1595154
-96.9157944 -16.4304390 275.1811523
-97.0881577 -15.4001818 275.2072754
-97.3144608 -14.4194975 275.2468872
-97.6951904 -13.3518200 275.2893677
-98.2207108 -12.2350798 275.3541870
-98.9496002 -11.0630951 275.4207764
-101.8158188 -26.6825600 274.3864441
-100.9859238 -25.9655495 274.3338013
-100.1996307 -25.1908760 274.3023682
-99.5447922 -24.3874264 274.2714233
-99.0267029 -23.5629692 274.2417603
-98.5685959 -22.7168236 274.2356567
-98.1818619 -21.8504581 274.2214661
-97.8516769 -20.9731865 274.2294006
-97.6487656 -20.0995293 274.2188416
-97.4934616 -19.1601563 274.2254639
-97.3899231 -18.2289143 274.2459106
-97.3867188 -17.2702274 274.2612000
-97.4769211 -16.2821674 274.2898254
-97.6661682 -15.2478485 274.3108521
-97.9141998 -14.2573853 274.3617249
-98.3551636 -13.1708403 274.3987427
-98.9358902 -12.0339117 274.4667664
-99.7286682 -10.8418369 274.5333252
-102.6025238 -26.4969082 273.4865112
-101.7284088 -25.7745991 273.4568481
-100.9180527 -25.0131073 273.4170837
-100.2443390 -24.2189255 273.3879089
-99.7020111 -23.4073277 273.3645630
-99.1912231 -22.5609493 273.3557129
-98.7646255 -21.6884136 273.3405457
-98.4659348 -20.8236561 273.3240967
-98.2415466 -19.9402580 273.3416748
-98.0984802 -19.0007706 273.3472900
-98.0456619 -18.0540161 273.3462830
-98.0359344 -17.1049576 273.3774109
-98.1413193 -16.0976429 273.4077759
-98.3531265 -15.0772724 273.4331360
-98.6681442 -14.0530472 273.4767151
-99.1491470 -12.9696732 273.5234985
-99.7817154 -11.8213434 273.5944824
-102.6420059 -25.5797539 272.5578613
-101.7775955 -24.7910976 272.5528564
-101.0916824 -24.0069656 272.5103149
-100.4935608 -23.2008400 272.4867249
-99.9831772 -22.3734283 272.4565430
-99.5095978 -21.4946327 272.4567871
-99.1988831 -20.6417923 272.4634094
-99.0241852 -19.7337418 272.4408875
-98.8625565 -18.8076324 272.4632568
-98.7910004 -17.8531418 272.4725647
-98.8116989 -16.8856297 272.4927979
-98.9662781 -15.8777590 272.5144043
-99.2093124 -14.8475161 272.5594788
-99.5809021 -13.8128033 272.6012268
-100.1068878 -12.7221107 272.6584778
-102.8559494 -24.5397663 271.6622925
-102.0812683 -23.7300339 271.6510010
-101.4569855 -22.9535675 271.6163025
-100.8689270 -22.1200638 271.6076660
-100.4610367 -21.2544823 271.5840454
-100.1691360 -20.4074974 271.5775452
-99.9067764 -19.5149269 271.5896606
-99.7316284 -18.5672970 271.5992432
-99.6828918 -17.6201191 271.6081848
-99.7487640 -16.6417904 271.6330872
-99.9481506 -15.6259089 271.6622620
-100.2516327 -14.5872431 271.7079163
-100.7203979 -13.4995251 271.7402954
-103.2903976 -23.4694424 270.7735291
-102.6068649 -22.6755409 270.7645569
-102.0071945 -21.8317795 270.7575684
-101.6134109 -20.9687710 270.7223816
-101.2848053 -20.1032887 270.7145081
-101.0177994 -19.2101822 270.7262268
-100.8725586 -18.2664986 270.7317505
-100.8676834 -17.3225269 270.7392273
-100.9647598 -16.3473148 270.7831726
-101.2487564 -15.2772799 270.8037415
-102.9446640 -20.6346836 269.8778381
-102.5928421 -19.7667542 269.9089355
-102.4308395 -18.8682327 269.8804626
-102.2861481 -17.9152966 269.9078674
147.8685913 18.8081627 241.1513824
148.2198334 19.4440899 241.1525574
148.5204315 20.1295452 241.1348419
148.7076111 20.8619118 241.1574707
147.3762207 16.6255054 240.4425049
147.9843750 17.1787052 240.4193878
148.5069580 17.7759094 240.4063263
148.9397736 18.3945980 240.3953857
149.2773132 19.0332069 240.3995361
149.5978546 19.7224503 240.3839874
149.8174591 20.4253483 240.3880463
149.9683990 21.1491451 240.4004364
150.0436096 21.9246063 240.4040833
150.0509338 22.7260303 240.4079590
149.9799042 23.5389977 240.4319916
148.3605804 16.2529736 239.6929779
148.9208832 16.8232803 239.6775665
149.3952179 17.4389687 239.6695251
149.7892609 18.0689907 239.6661072
150.1266327 18.7197609 239.6668854
150.4177094 19.4021053 239.6676483
150.6681213 20.1099167 239.6552124
150.8365173 20.8270721 239.6566467
150.9371185 21.5806293 239.6681213
150.9816437 22.3572769 239.6707611
150.9330444 23.1595840 239.6805115
150.8240204 23.9807968 239.6950989
