38.7291222 -0.6191292 88.5328293
39.2224007 -0.8974158 88.5220566
39.7419662 -1.1622131 88.5300140
136.5316315 9.5227079 76.9512405
137.2394104 9.3060522 76.8877487
137.9997101 9.1306162 76.8285294
40.2925682 -1.8817431 88.1149979
81.9915390 6.9175329 82.7611389
82.2795258 6.5601411 82.7368240
82.5792999 6.2169261 82.7317963
86.1333923 3.2884367 82.5689240
86.5868912 3.0037615 82.5278320
138.9322815 8.9957256 76.2560272
140.0073547 8.8013649 76.1274567
33.9250145 8.8018379 87.4759216
33.8075409 8.2749825 87.5387878
39.6331673 -2.1730042 87.7135239
40.2179527 -2.4150112 87.7235718
82.3974991 6.1223617 82.3066254
85.9808350 3.2093310 82.1379700
86.3916855 2.9173386 82.0882645
89.5309372 1.7457596 81.8414536
139.1008301 9.0333633 75.7414093
33.6358414 9.1363106 87.0420074
40.1947365 -2.8804591 87.3159943
84.9656525 3.7345605 81.7477264
85.4244614 3.4351268 81.7330170
91.2081985 1.4712020 81.2196960
139.2487946 9.0942030 75.2383194
39.7075157 -3.1110771 86.9219971
40.2615623 -3.3322964 86.9084396
84.8041916 3.6861517 81.2954712
85.2314072 3.3758008 81.2795410
91.0552826 1.3914570 80.7832108
93.9720612 1.5374070 80.4274216
139.3574982 9.1792068 74.7482758
32.6961708 8.7054977 86.3124847
40.3910675 -3.7799113 86.4910126
90.9274979 1.3067482 80.3495560
92.0759201 1.3327267 80.2122726
93.7115021 1.4281212 80.0318527
32.4217758 9.0911732 85.8759384
32.2616653 8.5264378 85.9590988
90.7439651 1.2355931 79.9138336
91.8756561 1.2562249 79.7827301
93.4261932 1.3112894 79.6093597
31.7257004 6.7851210 85.7468796
31.7360573 6.2940154 85.7754135
31.7700558 5.8120408 85.8037109
31.8344021 5.3425431 85.8377762
39.5005798 -4.1957622 85.7337875
82.1981201 5.5349469 80.0908432
82.5625610 5.1887317 80.0789719
90.5903091 1.1721078 79.4785843
91.7730713 1.1887394 79.3441620
93.2263489 1.2303305 79.1758957
138.2253113 9.7815533 73.3821945
139.1195679 9.6302328 73.2906342
31.5357075 5.2016950 85.4518738
39.1861420 -4.3477888 85.3337860
39.8444061 -4.5536022 85.2963104
82.4752045 5.1745496 79.6298828
90.4912491 1.1287209 79.0390549
91.7336349 1.1467577 78.8953400
93.2309952 1.1975327 78.7182083
138.4831696 9.8919048 72.8600388
31.4807987 3.6639516 85.1576004
31.5941525 3.2088594 85.1576157
31.7349586 2.7967086 85.1779633
31.9026394 2.3891134 85.1937256
32.0869942 1.9578433 85.1858063
32.2685280 1.5697309 85.1933517
82.4217148 5.1330872 79.1826324
90.4724426 1.1047574 78.5869293
91.6446457 1.1256790 78.4508209
93.3014374 1.1935105 78.2490768
-11.6342793 -2.4696715 90.1880417
-11.4861717 -2.8651364 90.2086639
-11.3596287 -3.2832646 90.2082748
-11.1283598 -3.6567338 90.2341766
-10.9329967 -4.0269251 90.2305222
-10.6897478 -4.3643680 90.2275772
-10.3681698 -4.6827755 90.2279739
31.3283329 3.0860846 84.8233566
31.6712532 2.2397759 84.8386002
31.8483620 1.8588158 84.8327713
32.0311661 1.4736654 84.8262253
39.7476311 -5.0919437 84.4730148
90.5007553 1.1006422 78.1256256
91.6948318 1.1296183 77.9874191
93.3876114 1.2223972 77.7748260
31.7949657 1.3528491 84.4275436
39.4452629 -5.2387190 84.0733337
93.2115402 1.2371649 77.3436890
-13.3881502 -2.3946493 89.4938507
-11.6967611 -5.8375068 89.6257782
-11.4062014 -6.1608276 89.6154938
-11.1099548 -6.4674377 89.5880356
-10.6887674 -6.7260509 89.5873566
-10.2896605 -6.9994888 89.5527115
-9.7886515 -7.2338333 89.5435944
31.5618649 1.2288269 84.0180359
39.1549072 -5.3688564 83.6703415
39.8320580 -5.5975442 83.6312561
82.9991837 4.4024196 77.3549271
90.6262589 1.1469188 76.7291870
-14.7551746 -0.7263889 88.7337341
-14.7949438 -1.2410337 88.7492599
-14.7967863 -1.7321447 88.7780380
-14.7378902 -2.1654229 88.8171082
-10.8158722 -8.2081470 88.8736496
-10.3353901 -8.4702263 88.8706055
83.0230026 4.3960905 76.9009628
90.6765823 1.1992886 76.2660904
-15.3126945 -0.5507898 88.3477783
-10.4847174 -9.0406389 88.5201035
31.4244976 0.1919785 82.8221741
38.4920158 -5.6957297 82.4769135
39.0835419 -5.9245791 82.4375305
83.0541306 4.3952117 76.4340973
90.8982010 1.2961768 75.7742920
-15.8358793 -0.8249174 88.0180435
-11.0932808 -9.3005362 88.1495438
-10.5510626 -9.5384092 88.1508865
-10.0679445 -9.7694855 88.1148682
38.2605667 -5.7960682 82.0653305
38.8376961 -6.0388007 82.0420761
83.0836258 4.4018121 75.9689026
91.0662231 1.3968666 75.2915802
31.5994949 -0.6874323 82.0003204
38.0788231 -5.9030323 81.6656799
38.5861015 -6.1637735 81.6267014
83.1467590 4.3817282 75.5210800
83.5697021 4.1014977 75.4775314
84.0421600 3.8078785 75.4467545
89.2634125 1.5832696 75.0207443
90.1923370 1.5025233 74.9213104
-16.6953640 -0.3218754 87.2405472
-10.0783176 -10.7213840 87.3459091
31.4587669 -0.7515860 81.5863724
37.9085083 -6.0036654 81.2645645
83.7017593 4.1400709 75.0124283
84.1819382 3.8774021 74.9605408
89.4650345 1.6641129 74.5295258
90.4026642 1.6047176 74.4108047
-10.5164099 -10.9402637 86.9997330
-9.9913435 -11.1490374 86.9711456
37.7951469 -6.0679374 80.8481598
38.3009300 -6.3272347 80.8081665
83.8800583 4.2559872 74.5037231
84.2879181 3.9840076 74.5151520
-10.9893036 -11.1653643 86.6379395
37.6614494 -6.0856767 80.4204865
38.2770653 -6.3546133 80.3657761
84.4930954 4.0570984 73.9953232
-17.7776394 0.0641395 86.0967407
-11.4062424 -11.3931208 86.2885818
31.9545937 -1.9928337 80.3303757
32.2747040 -2.3441634 80.3231277
84.1818085 4.4421067 73.5711899
84.6682892 4.1327810 73.5095901
88.5556488 2.3328056 73.2132492
-18.0645103 0.4145714 85.7138367
-18.1297646 -0.0998987 85.7549133
-11.7909203 -11.5773335 85.9237518
-11.3007545 -11.8046417 85.9004059
-10.8040009 -12.0101719 85.8580093
-10.2505093 -12.2119017 85.8194351
32.1848221 -2.3831017 79.9026413
84.8319321 4.2048674 73.0493927
88.8713989 2.4599910 72.6914597
-18.5508995 -1.7962316 85.5278778
-18.5175533 -2.2504971 85.5532532
-18.4603977 -2.6977808 85.5877151
-18.3942108 -3.1446347 85.6089020
-9.9409075 -12.5490198 85.4147873
85.0452118 4.2871776 72.5513535
87.7656708 3.0031598 72.3500214
88.4423676 2.7997432 72.2735062
-18.6803398 -3.2776740 85.2574234
-10.3645306 -12.7196989 85.0375443
-9.7721891 -12.9211378 85.0057449
85.2914352 4.3986073 72.0627518
-18.6289501 -4.6604242 84.9595108
-18.4971237 -5.0699072 84.9779816
85.5985718 4.5365853 71.5497208
87.2656021 3.7894902 71.4176483
87.9174805 3.5475998 71.3353424
-61.5234184 -10.3366508 90.2717056
-61.4201012 -10.7413445 90.2773743
-61.2926407 -11.1530018 90.2825775
-61.0785789 -11.5239449 90.3056259
-60.8322105 -11.8555040 90.3239059
-60.6347160 -12.2017241 90.3135757
-60.3726921 -12.5169477 90.3215408
-60.1172600 -12.8302078 90.3208771
-59.8982811 -13.1636810 90.2920074
-59.5246773 -13.4317989 90.2980957
-18.7343960 -5.1948395 84.6045990
-9.7544775 -13.4152355 84.2058029
85.9473953 4.7025604 71.0223312
87.6394348 3.9710605 70.9206848
-62.3248520 -10.7940187 89.9487152
-59.6006966 -14.3704805 89.9907227
-18.9773960 -5.3376575 84.2129059
-18.8396950 -5.7370105 84.2315750
-18.6937294 -6.1267352 84.2463760
-63.1961708 -9.9158869 89.5995636
-63.1522675 -10.3257570 89.6346893
-63.0885887 -10.7405338 89.6550293
-62.9944649 -11.1434116 89.6667557
-60.4066505 -14.7965126 89.6728134
-60.0418205 -15.0569859 89.6730576
-59.6210098 -15.3027773 89.6781311
-18.8965359 -6.2329340 83.8846588
88.7741699 4.4563184 69.7952347
-59.5091629 -16.1230679 89.3100433
-58.9788971 -16.3189602 89.2704163
-58.3945732 -16.4835110 89.2315445
-19.0959511 -6.3370595 83.5033569
-18.9256725 -6.7225480 83.5069427
-18.7442894 -7.1029825 83.5146561
-9.1456804 -14.0709438 82.9308701
-8.2537069 -14.1702566 82.8491440
37.5302162 -6.1592774 76.5293350
38.1371956 -6.3896646 76.4697037
87.3127289 5.3386259 69.4453278
87.9953308 5.1281557 69.3716888
88.6293182 4.9239726 69.3161316
-64.4726334 -10.1520815 88.9746933
-60.2213936 -16.4672413 88.9557724
-59.6561432 -16.6570778 88.9417648
-59.1114616 -16.8531952 88.9271774
-9.3964338 -14.1827745 82.5523605
-8.5458374 -14.3203220 82.4750671
37.5873718 -6.1316891 76.0850830
-58.7019615 -17.5448895 88.5715256
-18.8891811 -7.6638417 82.7632217
-18.6830578 -8.0249863 82.7630005
33.9164963 -4.0047469 75.9273911
34.3188477 -4.2950649 75.9167023
37.7040558 -6.1006761 75.6312714
-65.4632645 -8.4092131 88.1897049
-65.5041428 -8.9048405 88.2320786
-59.3809052 -17.8796959 88.2391968
34.4239845 -4.2652836 75.4432144
37.8375511 -6.0387287 75.1750717
38.4233665 -6.2507839 75.1218948
-65.8873901 -8.1534090 87.8267365
-59.8781242 -18.1701794 87.9494247
-18.5298977 -8.8771572 82.0059204
-10.0214720 -14.5146370 81.4210968
-9.2747517 -14.6698761 81.3462601
34.1363869 -3.9466269 74.9986954
34.5401840 -4.2254734 74.9998550
39.3085060 -6.3567686 74.5637894
-60.4309540 -18.4199200 87.6256485
-59.8833427 -18.6365299 87.5970688
-59.3737602 -18.8318596 87.5665588
-10.1953831 -14.6075792 81.0394669
34.6677208 -4.1621828 74.5311890
39.5060806 -6.2490363 74.1017609
-66.7435150 -8.6298485 87.1861572
-59.8631935 -19.0364838 87.2325668
-18.5236034 -9.3514786 81.2218628
-18.2613602 -9.6765299 81.2111282
-17.9876976 -9.9919930 81.2033310
-17.6946354 -10.3172436 81.1949387
-10.3224831 -14.6947021 80.6533203
34.8329315 -4.0926685 74.0623932
-67.1082077 -8.8422832 86.8595047
-60.2566643 -19.2628059 86.9004593
-59.7221832 -19.4563274 86.8599548
-59.1059685 -19.6303825 86.8329468
-18.0740299 -10.0742350 80.8494415
-17.8075542 -10.3887720 80.8124161
-10.4656277 -14.7515211 80.2582703
35.0051041 -4.0124664 73.6028976
-10.5503750 -14.7980299 79.8629913
35.1756096 -3.9186208 73.1504517
-67.6922989 -8.1995592 86.0923004
-58.7886124 -20.3432102 86.0623245
-10.6126184 -14.8316011 79.4610901
-9.8918304 -15.0052891 79.3842010
35.3755646 -3.8157575 72.6807709
35.6111832 -3.7036645 72.2073746
39.6245575 -5.1811604 71.8109665
-59.5851593 -20.7300968 85.3921432
-58.9684830 -20.8811302 85.3493958
35.8727455 -3.5612149 71.7401123
-68.6425934 -9.1847258 85.1325836
-68.6271820 -9.6442356 85.1790771
-17.8250294 -10.8643761 78.7897263
-17.5151672 -11.1567202 78.7788849
-10.7773571 -14.8969297 78.2490616
-10.0244474 -15.0782251 78.1658173
36.2317162 -3.4036777 71.2228928
39.0222130 -4.4677587 70.9637680
-68.8778992 -9.7780819 84.8324051
-17.5320034 -11.1715288 78.3700104
-10.8071079 -14.9132996 77.8402176
-68.9063034 -11.6678820 84.6251373
-68.8514252 -12.0911417 84.6409607
-68.7928238 -12.5006170 84.6572342
-59.3075905 -21.5314980 84.2663803
-17.5506134 -11.1775198 77.9613724
-10.7918158 -14.9210510 77.4239883
-111.1429367 -19.1304779 90.3632202
-110.9923096 -19.4833889 90.3679352
-110.8158112 -19.8370819 90.3729172
-110.6180801 -20.1671257 90.3740692
-110.3728485 -20.4660740 90.3767853
-110.0963821 -20.7644730 90.3771439
-109.8438721 -21.0748596 90.3633118
-109.5287628 -21.3284225 90.3673935
-69.0139847 -12.6082802 84.3102646
-59.5918236 -21.6721401 83.9204407
-10.7713366 -14.9039259 77.0077362
-110.4109497 -21.8015862 90.0893784
-69.0076752 -13.4865446 84.0015106
-10.7203875 -14.8735838 76.5887375
-112.8940735 -19.2345982 89.8179855
-111.0901260 -22.1915245 89.8480530
-110.8401794 -22.4682789 89.8361359
-110.4577942 -22.6993427 89.8406219
-110.0469513 -22.9209442 89.8127060
-109.5771408 -23.1139603 89.7749329
-10.6128807 -14.8418980 76.1518097
-113.6667709 -18.8014832 89.5272675
-109.6006317 -23.9577389 89.4938889
-69.0506744 -14.4161558 83.3203583
-68.8935699 -14.7895041 83.3270950
-68.7305908 -15.1680326 83.3330841
-17.1173496 -11.4537020 76.2778625
-16.7628746 -11.7549829 76.2658844
-10.5268764 -14.7948990 75.7260742
-114.2828445 -18.7188339 89.2124634
-114.2099838 -19.1175232 89.2307510
-110.3079910 -24.3274441 89.1843262
-109.8808212 -24.5288944 89.1740570
-109.3865738 -24.7189007 89.1594849
-68.8980560 -15.2561665 82.9691772
-59.2748566 -22.4823647 82.3854065
-16.7122478 -11.7282639 75.8434830
-10.4167109 -14.7398195 75.2905197
-108.9718933 -25.3872070 88.7927246
-59.4921761 -22.5635166 82.0208282
-16.6507416 -11.6977568 75.4269714
-10.3035336 -14.6661253 74.8622360
-115.4170151 -17.6278286 88.5155716
-115.3901749 -18.0558605 88.5514755
-109.6209641 -25.7105522 88.4996490
-69.1604996 -15.3946524 82.2504196
-59.6634941 -22.6471539 81.6578751
-16.5717678 -11.6512899 74.9981003
-10.1241388 -14.5739031 74.4233246
-9.2589607 -14.6949883 74.2895813
-110.1219482 -25.9977741 88.2293320
-69.2848816 -15.4626493 81.8790207
-16.4624329 -11.5983162 74.5578537
-9.8953485 -14.4751053 73.9600830
-116.2611465 -17.1925716 87.8522263
-116.2628479 -17.6344090 87.8937836
-110.6257858 -26.2657490 87.9284286
-110.1025620 -26.4530849 87.9281921
-16.3236389 -11.5528927 74.1149750
-9.6551409 -14.3732901 73.4912796
-116.6385269 -16.9637051 87.5086823
-110.1253281 -26.8867416 87.5975266
-68.9203949 -16.5698032 81.1300507
-68.6812592 -16.9366131 81.1533661
-60.1269684 -22.8470936 80.5597992
-10.9760494 -13.9944592 73.2554016
-10.2251549 -14.1330681 73.1519775
-116.9937515 -16.7260780 87.1632538
-117.0253906 -17.1871166 87.2001877
-110.5824127 -27.1103592 87.2642212
-110.0702591 -27.3010483 87.2566910
-68.7975616 -16.9655609 80.7590790
-60.2596474 -22.9090919 80.1921005
-10.6995764 -13.8758678 72.7812881
-110.9469376 -27.3067570 86.9701538
-110.4683304 -27.5018482 86.9481354
-68.8705673 -17.0722733 80.4390335
-60.3266411 -22.9665108 79.8188171
-15.1042299 -11.8691006 72.7638931
-10.3976383 -13.7395439 72.3015137
-117.6350632 -16.6505547 86.5155945
-111.3266602 -27.5092392 86.6600189
-60.4167671 -22.9944344 79.4430847
-14.9098787 -11.7606964 72.3138809
-68.0340729 -18.3900719 79.6475372
-14.6764021 -11.6522226 71.8615417
-11.1630144 -13.1277056 71.5472107
-10.4775200 -13.2745733 71.4432755
-68.0787659 -18.4280128 79.2681122
-14.4194851 -11.5270491 71.3970261
-10.7898960 -12.9566145 71.0372772
-118.4409485 -16.2742996 85.4757919
-68.1248703 -18.4516697 78.8887024
-14.1539221 -11.3893204 70.9467850
-11.7333336 -12.4742460 70.7513428
-118.6496735 -15.9842625 85.1043549
-118.7055969 -16.4262905 85.1535873
-111.6772842 -28.5837402 85.3386536
-111.1645050 -28.7677326 85.3011398
-110.7126160 -28.9231548 85.2280655
-110.1678085 -29.0564308 85.1760025
-109.5716858 -29.1852131 85.1203079
-108.9782333 -29.3069630 85.0660553
-108.3890533 -29.4253044 85.0059586
-13.8135529 -11.2245502 70.4585419
-118.8326645 -15.6564941 84.7431488
-67.8803253 -18.7859421 78.1027069
-67.6053696 -19.0660686 78.0990601
-60.5284615 -23.0544376 77.5131989
-59.8162842 -23.2171803 77.4254074
-13.4658689 -11.0382166 69.9917984
-11.9345560 -11.6728868 69.8455582
-108.9995651 -29.7428703 84.3710022
-67.5934830 -19.0714188 77.7088623
-60.5089035 -23.0507355 77.1158752
-11.4268131 -11.4254522 69.3175659
-109.2952805 -29.8840714 84.0451813
-67.5775223 -19.0641460 77.3146744
-60.4876595 -23.0285950 76.7254486
-11.4173803 -10.9734554 68.8362732
-109.5499039 -30.0216465 83.7238541
-108.9494400 -30.1449051 83.6604691
-67.5545044 -19.0528889 76.9115067
-60.3592529 -23.0103264 76.3070526
-119.5120468 -15.1850319 83.3129196
-60.2928276 -22.9628410 75.9052582
-119.6962967 -15.2950573 82.9766998
-60.2282677 -22.8925228 75.5087662
-59.4262619 -23.0097294 75.3880234
-108.9827194 -30.6446762 82.6055679
-67.0740662 -19.2673683 75.6968460
-66.7696075 -19.5516891 75.7009506
-109.2011490 -30.7407093 82.2695236
-66.6999969 -19.5111446 75.2930374
-119.9046021 -14.4823790 81.8269730
-109.3928986 -30.8386974 81.9314346
-66.6198120 -19.4635773 74.8842850
-59.7144470 -22.6344109 74.2396240
-120.0261078 -14.5287323 81.4806137
-66.5303497 -19.4147167 74.4918518
-59.4736633 -22.5284328 73.7913132
-120.1462708 -14.6267385 81.1353226
-66.4271088 -19.3548088 74.0921478
-120.2334900 -14.6787262 80.7830429
-109.8606644 -31.1077843 80.9201355
-66.2775345 -19.2815533 73.6491318
-119.1388474 -24.9225216 81.2556458
-118.9249573 -25.2495022 81.2550507
-110.0063171 -31.1600246 80.5749588
-66.1254883 -19.2011852 73.2270126
-60.2203484 -21.9592648 72.6780167
-120.0069580 -13.4977827 79.9047089
-119.0028305 -25.2975235 80.9041061
-110.1160507 -31.2141533 80.2255325
-59.9110374 -21.8225918 72.2138596
-119.0680313 -25.3377266 80.5512314
-110.2077866 -31.2613297 79.8751907
-65.0930328 -19.5798359 72.3677368
-60.9690094 -21.4481888 71.9471512
-119.1224976 -25.3718967 80.1973419
-110.2864380 -31.3020821 79.5225067
-64.8944626 -19.4727154 71.9336472
-60.6390686 -21.2904530 71.4911804
-120.1684570 -13.6023083 78.8276596
-118.5375977 -26.3490353 79.8432465
-117.3169327 -27.7783508 79.8101959
-110.3382111 -31.3415661 79.1657791
-64.6499557 -19.3540154 71.4715118
-61.5329819 -20.8324394 71.2016907
-60.9352074 -20.9815922 71.1227036
-60.2849503 -21.1209660 71.0185394
-120.1907806 -13.6053410 78.4623413
-118.5858765 -26.3887119 79.4879303
-117.3585281 -27.7976456 79.4556351
-110.3747787 -31.3757057 78.8055344
-64.4031830 -19.2263660 71.0267029
-61.1573639 -20.6648178 70.7153931
-120.2042465 -13.6154175 78.0965576
-117.3663559 -27.8252468 79.0868073
-110.4429855 -31.3868389 78.4475479
-64.1496277 -19.0975723 70.6019135
-61.9095039 -20.1559277 70.3759384
-61.3506660 -20.3417187 70.3044510
-120.1964264 -13.5935612 77.7208328
-118.6923752 -26.3564243 78.7650986
-117.3952484 -27.8265686 78.7274017
-110.4662476 -31.3856106 78.0854874
-64.3590164 -18.7706928 70.2759323
-63.8499298 -18.9180336 70.1584702
-61.6097870 -20.0476246 69.9940338
-120.1898804 -13.5866928 77.3490601
-118.6875381 -26.4013252 78.3472824
-118.4340591 -26.7206154 78.3357315
-118.1857681 -26.9943218 78.3700333
-117.9281845 -27.2852859 78.3868103
-110.4357681 -31.3845711 77.7108002
-63.4491081 -18.6933155 69.6816711
-62.1085701 -19.3335571 69.5779877
-61.5697784 -19.5318737 69.4705353
-120.1862717 -13.5837240 76.9785004
-118.6738281 -26.4287434 78.0430756
-118.4380798 -26.7180061 78.0422363
-118.1862411 -27.0124474 78.0291672
-117.9329987 -27.3022461 78.0206757
-110.4321976 -31.3720627 77.3439789
-63.0247383 -18.4540329 69.2118988
-61.6063614 -19.0664787 69.0645065
-120.6033173 -14.8789034 76.8063965
-110.3947144 -31.3633747 76.9680786
-62.5262756 -18.2013130 68.7106171
-62.0972137 -18.4237995 68.7073517
-61.5933189 -18.6082001 68.6328659
-61.0124550 -18.7766666 68.5171127
-110.3590622 -31.3473701 76.5926743
-61.4887047 -18.1301308 68.1335678
-120.6911392 -15.3817539 76.1305923
-120.8021393 -15.9339371 76.2060089
-110.2995300 -31.3229256 76.2105789
-120.7651749 -15.8848181 75.8249893
-110.2304916 -31.2872696 75.8289108
-120.7268753 -15.8710423 75.4515457
-120.8082047 -16.3622074 75.5123596
-120.8801270 -16.8507938 75.5764008
-120.8081894 -16.8137245 75.1960602
-120.7045288 -16.7455139 74.8019333
-111.1550980 -30.8580780 74.8303909
-110.5754395 -30.9895916 74.7528458
-120.5399399 -16.2081547 74.3450623
-120.5967484 -16.6872063 74.4113235
-111.0003967 -30.7901707 74.4194260
-120.5209503 -17.0365086 74.0641785
-120.5704880 -17.4784412 74.1210632
-110.8900299 -30.7041702 74.0407867
-120.4384384 -17.4642563 73.7516022
-110.6967010 -30.6115990 73.6279907
-120.2145386 -17.3114338 73.2978821
-110.2188721 -30.3772831 72.7880325
-120.0624008 -17.6003838 72.5820084
-120.0972061 -18.0689507 72.6595306
-119.8811874 -17.8773975 72.2097244
-119.6059418 -17.2828827 71.7189560
-119.6859207 -17.8013458 71.8181686
-111.7982712 -29.5161991 71.8552475
-119.4534225 -17.6290207 71.3671265
-111.4647598 -29.3454800 71.3975372
-110.8602982 -29.4779949 71.2988739
-119.2803192 -17.9760132 71.0178223
-119.3171997 -18.4190083 71.0739059
-111.1426849 -29.1797619 70.9748154
-119.0703125 -18.2520351 70.6352234
-118.8317108 -18.5722389 70.2673111
-118.8363800 -19.0451565 70.3410950
-112.5941849 -28.2279682 70.3707504
-118.5402679 -18.8939457 69.9095459
-112.1961365 -28.0236244 69.8941269
-118.1076736 -19.0814114 69.4556046
-118.1197815 -19.5626965 69.5275192
-112.7746887 -27.4217720 69.5760880
-112.2996368 -27.6245708 69.5192642
-112.3624039 -27.1869068 69.1129684
-117.3719559 -19.5886040 68.6765518
-117.3493195 -20.0419064 68.7593994
-117.2976532 -20.4490509 68.8142929
-117.2235947 -20.8135223 68.8315964
-117.1462326 -21.1832333 68.8541107
-117.0587845 -21.5548477 68.8883667
-112.7905579 -26.5418606 68.7319794
-112.3620377 -26.7380581 68.6819153
-116.6485214 -21.3364143 68.4434204
-116.1693573 -21.0828915 67.9645462
-115.0433884 -23.4963360 68.0463867
-114.8086395 -23.8020306 68.0365677
-114.5829163 -24.0930061 68.0562286
-114.2726822 -24.4163990 68.0583344
-113.9865265 -24.6963406 68.0188828
-113.6835556 -24.9090977 67.9510269
-113.3907242 -25.1513596 67.9282761
-115.6464310 -20.7630444 67.4211960
-114.5654831 -23.2170238 67.5815964
-114.3736191 -23.4681072 67.5531845
-114.5567245 -21.8488731 66.9837875
-114.3595657 -22.2062130 66.9990311
-114.1685867 -22.5550423 67.0214920
-113.9493484 -22.8670864 67.0120239
-113.7181931 -23.1320744 66.9969864
-115.1144104 -22.0281773 342.4973145
-114.6500015 -22.6515503 342.4821472
-114.0508804 -23.1910210 342.5482788
-116.8535156 -21.2699318 341.5329895
-116.5597763 -21.9854755 341.5152893
-116.1889725 -22.6495495 341.5084534
-115.7531357 -23.2782059 341.5028076
-115.1842804 -23.8147831 341.5448914
-114.5191116 -24.3128567 341.6250610
-113.9074020 -24.8287945 341.6591797
-113.1557693 -25.3072319 341.7609253
-118.0727463 -20.2149963 340.7184448
-117.8935776 -20.9875221 340.6730957
-117.6548309 -21.7198601 340.6490173
-117.3414841 -22.4164257 340.6365967
-116.9639130 -23.0790100 340.6325073
-116.5117798 -23.6987362 340.6490479
-116.0188065 -24.2699165 340.6702576
-115.4881821 -24.8486557 340.6708984
-114.8865967 -25.3783588 340.7097168
-114.1588058 -25.8381119 340.7867737
-113.3166656 -26.2450504 340.8866882
-118.9424896 -18.9761066 339.9660339
-118.8611450 -19.8030777 339.9107361
-118.7221985 -20.5912819 339.8646240
-118.5403595 -21.3448830 339.8186951
-118.2811508 -22.0609703 339.8024597
-116.1455383 -25.2032280 339.8258362
-115.5747757 -25.7651310 339.8492432
-114.8849030 -26.2439175 339.9088440
-114.1037216 -26.6754017 339.9794312
-113.2374344 -27.0671902 340.0723572
-112.2441483 -27.4280968 340.2248230
-119.5101242 -19.2948360 339.1229248
-119.4124222 -20.1128883 339.0645142
-119.2656555 -20.9038773 339.0200500
-119.0822983 -21.6657658 338.9671021
-118.8247299 -22.3691044 338.9438477
-116.7037506 -25.5073795 338.9764099
-116.1259155 -26.0576744 339.0112000
-115.4720917 -26.5753174 339.0549316
-114.7586060 -27.0429688 339.1200256
-113.9506989 -27.4683762 339.1935425
-113.0337601 -27.8319836 339.3026733
-120.0405884 -18.7213249 338.3565674
-119.9672318 -19.5590553 338.3088989
-119.8578644 -20.3554020 338.2554932
-119.7209396 -21.1634140 338.1855469
-117.1339645 -25.7476406 338.1564331
-116.5268326 -26.2810440 338.2142029
-115.9039383 -26.8015175 338.2471008
-115.2500610 -27.3172417 338.2865601
-114.4715195 -27.7746277 338.3689270
-113.6450577 -28.1610813 338.4432983
-112.7022400 -28.4951572 338.5499878
-120.4540939 -18.0792713 337.6211548
-120.4511414 -18.9521351 337.5500488
-120.3684235 -19.7959595 337.4870300
-120.2540283 -20.5911808 337.4285278
-120.0827408 -21.3588619 337.3858643
-117.4839630 -25.9629707 337.3529968
-116.8818359 -26.4729614 337.4075012
-116.2561874 -26.9813213 337.4566650
-115.6323471 -27.5326347 337.4737244
-114.9064026 -28.0140381 337.5485535
-114.0985641 -28.4329376 337.6221313
-113.2159424 -28.7819290 337.7171326
-112.2151794 -29.0896149 337.8294067
-120.8237305 -18.2899208 336.8201904
-117.8046799 -26.1429100 336.5488281
-117.1838608 -26.6541672 336.5973511
-116.5545425 -27.1521416 336.6687317
-115.9598846 -27.7007828 336.6755371
-115.2697906 -28.2098026 336.7370605
-114.4670639 -28.6396790 336.8255615
-113.6024017 -29.0133076 336.9125366
-112.6493301 -29.3341503 337.0167847
-111.5289383 -29.6015282 337.1652527
-120.9792938 -16.6842422 336.1962891
-121.0912247 -17.5924587 336.1101990
-121.1192322 -18.4567909 336.0286865
-118.0287399 -26.2869854 335.7806396
-117.4207001 -26.7893219 335.8242493
-116.7987671 -27.2869186 335.8779907
-116.1807556 -27.8288326 335.9122925
-115.5232773 -28.3563843 335.9573975
-114.7801590 -28.8093090 336.0247803
-113.9587708 -29.1996212 336.1080627
-113.0370102 -29.5429478 336.2059326
-111.9683914 -29.8193054 336.3346252
-121.2554855 -16.8305759 335.4170837
-119.1774979 -25.2090683 334.9785767
-118.7267838 -25.8134804 334.9931335
-118.2091217 -26.3862247 335.0128784
-117.6111069 -26.8805981 335.0524292
-116.9895859 -27.3861389 335.1072693
-116.3885956 -27.9391651 335.1453247
-114.2219315 -29.3463078 335.3259888
-113.3303680 -29.7041550 335.4172058
-112.2903290 -29.9983387 335.5386963
-111.0805893 -30.2240887 335.6958008
-121.3039398 -15.9936953 334.7496033
-121.4496765 -16.9370956 334.6464233
-119.3077850 -25.2863960 334.2250977
-118.8645401 -25.8982792 334.2335510
-118.3408585 -26.4520512 334.2582397
-117.7381516 -26.9559441 334.3048096
-117.1624908 -27.5016899 334.3392029
-116.5999146 -28.0654697 334.3582764
-114.3982391 -29.4509659 334.5601196
-113.5275421 -29.8228073 334.6480408
-112.5318146 -30.1379948 334.7590332
-111.3737564 -30.3700294 334.9000549
-121.4552231 -16.0908070 333.9803162
-121.5880280 -17.0304241 333.8823547
-119.4057159 -25.3502274 333.4710999
-118.9699707 -25.9512939 333.4758911
-118.4346771 -26.4938221 333.5071716
-117.8731461 -27.0276356 333.5488586
-117.3412399 -27.6078281 333.5625916
-116.7556000 -28.1458549 333.6016235
-112.7073288 -30.2378845 333.9910583
-111.5764771 -30.4846439 334.1266479
-110.2310257 -30.6845551 334.3070679
-121.3585129 -15.1405497 333.3429871
-121.5573959 -16.1504345 333.2305298
-121.6791382 -17.0945950 333.1302795
-119.4721298 -25.3745689 332.7272644
-119.0202179 -25.9820538 332.7387695
-118.5167999 -26.5336742 332.7644043
-117.9913254 -27.1056423 332.7877197
-117.4382553 -27.6726456 332.8132019
-116.8181763 -28.1899776 332.8607788
-112.8083191 -30.2997913 333.2382813
-111.7124863 -30.5615025 333.3672485
-110.4046326 -30.7806721 333.5365295
-62.2790337 -17.9214821 341.3935547
-121.4377975 -15.1992369 332.5906982
-110.5220566 -30.8328323 332.7767334
-63.2986031 -18.4459476 340.3985291
-121.4515381 -15.2003498 331.8541870
-110.5326385 -30.8512878 332.0380859
-64.0497742 -18.8342037 339.4737854
-63.1561394 -19.2622147 339.5616760
-62.0946007 -19.6173630 339.6925964
-121.1353149 -14.1005297 331.2546082
-121.4147491 -15.1970024 331.1223450
-110.5064240 -30.8332386 331.3057251
-65.3695145 -18.6344471 338.5503235
-64.6075211 -19.1434422 338.6033936
-63.7626419 -19.5926151 338.6841125
-62.7990952 -19.9746113 338.7712708
-61.6060181 -20.3046932 338.9304199
-121.0258560 -14.0401411 330.5375977
-121.3252487 -15.1447773 330.4035339
-110.4051285 -30.7767639 330.5869751
-65.7902679 -18.8763332 337.7005005
-65.0776825 -19.3979416 337.7345886
-64.2706223 -19.8682976 337.8085938
-63.3437843 -20.2721024 337.8993225
-62.2700005 -20.6193752 338.0143738
-119.1126022 -10.2531624 330.3754272
-119.7453842 -11.4628544 330.1893921
-120.3846970 -12.7289820 329.9973755
-120.8783569 -13.9682579 329.8260498
-121.1896286 -15.0660086 329.6927185
-118.2603455 -26.4196682 329.1467590
-117.7286148 -26.9841022 329.1724243
-112.5489502 -30.1800079 329.6082458
-111.5006943 -30.4583702 329.7293091
-110.2168121 -30.6773319 329.8839111
-66.1650238 -19.0749226 336.8505554
-65.4447632 -19.5991592 336.8926392
-64.6577911 -20.0803356 336.9651184
-63.7819366 -20.5203819 337.0484619
-62.7867279 -20.8887157 337.1412354
-61.6522636 -21.1837883 337.2720032
-118.9267349 -10.1468744 329.6673584
-119.5288696 -11.3293505 329.4899902
-120.1799774 -12.6149130 329.2973633
-120.6946945 -13.8611946 329.1244507
-121.0010071 -14.9637718 328.9925232
-118.0608749 -26.3176689 328.4469299
-117.5326614 -26.8781052 328.4707336
-112.3679199 -30.0672703 328.9078369
-111.2901993 -30.3346901 329.0329895
-109.9604568 -30.5398006 329.1925659
-66.4755554 -19.2217159 336.0083923
-65.7272186 -19.7559299 336.0713501
-64.9788742 -20.2455063 336.1232910
-64.1346283 -20.7038383 336.1999817
-63.1507912 -21.0976372 336.3045349
-62.1044731 -21.4171009 336.4060669
-60.8562088 -21.7147255 336.5704956
-120.7440720 -14.8283043 328.3020630
-120.9364319 -15.8496161 328.1893616
-121.0682144 -16.7613945 328.0963745
-117.8562775 -26.1996078 327.7536011
-117.3350220 -26.7667198 327.7793579
-115.4514008 -28.3202190 327.9017334
-114.7171631 -28.7966290 327.9612732
-112.1346130 -29.9304123 328.2179871
-111.0171432 -30.1842861 328.3447571
-66.6834183 -19.3396664 335.1940002
-65.9662781 -19.8908272 335.2436218
-63.4702721 -21.2575569 335.4624939
-62.4217072 -21.6007729 335.5767517
-61.2190056 -21.8911114 335.7161255
-120.6732635 -15.6896887 327.5066528
-120.8249741 -16.6353569 327.4077148
-117.6176605 -26.0824833 327.0625610
-117.0892868 -26.6346951 327.0876465
-115.1996384 -28.1758118 327.2174072
-114.4355545 -28.6462708 327.2783508
-111.8105621 -29.7612724 327.5390625
-110.7150269 -30.0134315 327.6634216
-67.4643555 -18.8473568 334.3592224
-66.8598480 -19.4267006 334.3775635
-66.1714096 -19.9878979 334.4263000
-63.7003708 -21.3813801 334.6434021
-62.6973534 -21.7460670 334.7465210
-61.5529785 -22.0391216 334.8696289
-120.3677368 -15.5032902 326.8253174
-120.5145035 -16.4449863 326.7272949
-120.5711899 -17.3259201 326.6483154
-120.5502090 -18.1455879 326.5775146
-117.3406143 -25.9317665 326.3789063
-116.7988815 -26.4721432 326.4107971
-116.2122955 -26.9862499 326.4404907
-115.6116333 -27.5037289 326.4858398
-114.8830948 -28.0117359 326.5319519
-114.1135254 -28.4675732 326.5951843
-113.3069839 -28.8883629 326.6748657
-112.4085922 -29.2512646 326.7621155
-111.4179230 -29.5512848 326.8700256
-110.3142776 -29.8125076 326.9927979
-67.5957565 -18.9078827 333.5457764
-63.8555069 -21.4630833 333.8399353
-62.8830872 -21.8478622 333.9368896
-61.7541466 -22.1569405 334.0602112
-119.7640839 -14.2628946 326.2657471
-119.9969406 -15.2793207 326.1549683
-120.1390991 -16.2195148 326.0571594
-120.2123337 -17.1142216 325.9785461
-120.2055740 -17.9564915 325.9111023
-117.0013962 -25.7410545 325.7036133
-116.4350815 -26.2707710 325.7284546
-115.8652496 -26.7984467 325.7637024
-115.2673416 -27.3201141 325.8083801
-114.5510025 -27.8110046 325.8667603
-113.7497330 -28.2655525 325.9292603
-112.9171906 -28.6734104 326.0122070
-111.9936905 -29.0220623 326.1003113
-110.9993057 -29.3156357 326.2123718
-109.8672791 -29.5573311 326.3384094
-67.6605911 -18.9499626 332.7603760
-63.9550552 -21.5221424 333.0398865
-63.0244408 -21.9043655 333.1296692
-61.9035988 -22.2302284 333.2530212
-119.5660019 -15.0475559 325.4897156
-119.7237320 -16.0064354 325.3985901
-119.8069534 -16.8763123 325.3113098
-119.8211975 -17.7381668 325.2436829
-115.5139313 -26.5938358 325.1038818
-114.8610992 -27.1031818 325.1385498
-112.4594193 -28.4258900 325.3472900
-111.5378113 -28.7671089 325.4458008
-110.4867477 -29.0442963 325.5603027
-68.2404022 -18.3511734 331.9537354
-67.6783905 -18.9553642 331.9797974
-61.9727592 -22.2652493 332.4595947
-13.1725740 -10.7479410 339.7600403
-119.2280960 -15.6979399 324.7409363
-119.3439636 -16.6299305 324.6615295
-119.3733139 -17.4708252 324.5866089
-115.0773849 -26.3559971 324.4375000
-114.4248657 -26.8489361 324.4893799
-111.9603424 -28.1459522 324.7046509
-68.2014542 -18.3509388 331.1831665
-67.6579666 -18.9527283 331.2035522
-61.9717979 -22.2661400 331.6796875
-60.6497955 -22.5712223 331.8300476
-13.9060802 -11.1408072 338.8179321
-12.9590607 -11.5848417 338.9036865
-118.8449020 -17.1681366 323.9449158
-118.8323746 -18.0567894 323.8757324
-118.7419052 -18.9242573 323.8205566
-118.5726929 -19.7090302 323.7655945
-118.3847733 -20.4788132 323.7427673
-114.5721054 -26.0830574 323.7871094
-113.9114075 -26.5705948 323.8427734
-113.1367188 -27.0300083 323.9024963
-112.2751770 -27.4561768 323.9763794
-111.3595352 -27.8288078 324.0664673
-68.6437836 -17.6977921 330.3977966
-68.1426926 -18.3234787 330.4129639
-67.5938034 -18.9019852 330.4387817
-66.9412231 -19.4752655 330.4780579
-66.2521286 -20.0343590 330.5230103
-61.9080658 -22.2365837 330.9114380
-60.6195374 -22.5448723 331.0531006
-15.3375053 -10.9140196 337.8419800
-14.5063381 -11.4430532 337.8924866
-13.5883970 -11.9073181 337.9768066
-12.5374975 -12.3119535 338.0793457
-118.2346954 -16.8217010 323.3151855
-118.2467422 -17.7177029 323.2405090
-118.1717072 -18.5817680 323.1818237
-118.0260773 -19.4073811 323.1355591
-117.8474121 -20.1638546 323.0951233
-114.0049591 -25.7568073 323.1539917
-113.3197479 -26.2325478 323.2070618
-112.5290298 -26.6854591 323.2757568
-69.0180588 -16.9892864 329.6280518
-68.5337830 -17.6465454 329.6382141
-68.0256042 -18.2598000 329.6565247
-67.4516678 -18.8354816 329.6839905
-66.8110504 -19.3888912 329.7225342
-66.1243057 -19.9645920 329.7668457
-61.7711754 -22.1702652 330.1541748
-15.7717438 -11.1424284 336.9466248
-14.9726238 -11.6819925 336.9935608
-14.1032019 -12.1750488 337.0646667
-13.1181889 -12.5973988 337.1544189
-11.9587078 -12.9674673 337.2802429
-117.5376282 -16.4206486 322.6918945
-117.5836105 -17.3407936 322.6299438
-117.5319824 -18.2236938 322.5577393
-117.4050980 -19.0564671 322.5010071
-117.2238541 -19.8260574 322.4657898
-117.0030289 -20.5457802 322.4453430
-116.7575378 -21.2339420 322.4271545
-113.3406982 -25.3924828 322.5277405
-112.6399155 -25.8502178 322.5823669
-111.8212433 -26.2951355 322.6579895
-68.8691864 -16.9167023 328.8757324
-68.3863754 -17.5586891 328.8858337
-67.8538513 -18.1740685 328.9060669
-67.2891312 -18.7351112 328.9384766
-66.6322098 -19.2992134 328.9743042
-65.9555435 -19.8826981 329.0189209
-63.5764236 -21.3464069 329.2042236
-62.6675034 -21.7275524 329.2928772
-61.5864868 -22.0636730 329.4049683
-16.1242294 -11.3169394 336.0590820
-15.3512554 -11.8767319 336.1049194
-14.5114374 -12.3838139 336.1748657
-13.5745583 -12.8242455 336.2563782
-12.4540749 -13.2059145 336.3688965
-11.1773472 -13.5505152 336.5220947
-116.8061371 -16.8725815 322.0067444
-116.7987595 -17.8066845 321.9514771
-116.7016068 -18.6672421 321.9059753
-116.4853821 -19.4041443 321.8625183
-116.2257004 -20.0920620 321.8150635
-116.0240555 -20.8071136 321.8020630
-112.6170120 -24.9910564 321.9220276
-111.8767014 -25.4317112 321.9828491
-69.0876694 -16.1420708 328.1306152
-68.6663513 -16.8169365 328.1304016
-68.1853409 -17.4572048 328.1432190
-67.6563492 -18.0567093 328.1613464
-67.0783844 -18.6184311 328.1916809
-66.4209900 -19.1903553 328.2289124
-65.7385788 -19.7692871 328.2745972
-63.3679008 -21.2290497 328.4617004
-62.4305801 -21.6018944 328.5542908
-61.3334007 -21.9349632 328.6666260
-16.4266338 -11.4581852 335.1743164
-15.6453009 -12.0268869 335.2339783
-14.8179808 -12.5412083 335.3018494
-13.9127684 -13.0053453 335.3788147
-12.8498383 -13.4145460 335.4765930
-11.6088247 -13.7638168 335.6147461
-115.8432312 -18.1492271 321.3044739
-115.6503830 -18.9173985 321.2645874
-115.4405899 -19.6610851 321.2246399
-115.2549057 -20.3924332 321.2033081
-114.9908905 -21.0901794 321.1924744
-114.5711212 -21.7372532 321.1775513
-114.1160812 -22.3882446 321.1972351
-113.5981674 -22.9868011 321.2052917
-113.0683060 -23.5593872 321.2436523
-112.4499435 -24.0528698 321.2812805
-111.7473450 -24.4915333 321.3327637
-69.2321701 -15.3028545 327.3953247
-68.8507309 -16.0111046 327.3899841
-67.4208679 -17.9368591 327.4254761
-66.8472977 -18.4916515 327.4536133
-66.1883545 -19.0690174 327.4903259
-65.4888153 -19.6403084 327.5384521
-63.0841599 -21.0729332 327.7285767
-62.1104851 -21.4450092 327.8232117
-60.9970284 -21.7791195 327.9363708
-16.6331577 -11.5704012 334.3198853
-15.8551245 -12.1439133 334.3775635
-13.1596928 -13.5587683 334.6019287
-11.9543209 -13.9143906 334.7232056
-114.7547226 -18.4216042 320.6929626
-114.5610352 -19.1612301 320.6525269
-114.3280411 -19.8641224 320.6171265
-114.0570984 -20.5607586 320.6058960
-113.6582947 -21.2305355 320.6008911
-113.1792831 -21.8697090 320.6056519
-112.6932526 -22.4913349 320.6281433
-112.1079865 -23.0187073 320.6469116
-111.4332428 -23.4889145 320.6914063
-69.3040543 -14.4235830 326.6776733
-68.9637527 -15.1661968 326.6687927
-68.5743790 -15.8626451 326.6605225
-67.1424255 -17.7858829 326.6920776
-66.5569992 -18.3565750 326.7231750
-65.8933105 -18.9222488 326.7607117
-65.1725082 -19.4870014 326.8032837
-62.7547073 -20.8933258 327.0059509
-61.7572327 -21.2545471 327.1010742
-17.4684467 -11.0351143 333.4326782
-16.7705536 -11.6469593 333.4734192
-16.0213261 -12.2174616 333.5212708
-13.3346262 -13.6617393 333.7518311
-12.1747208 -14.0262613 333.8665771
-10.8072414 -14.3520288 334.0158691
-113.4633636 -18.5313148 320.0699463
-113.2465897 -19.2512436 320.0651855
-112.9693146 -19.9375782 320.0528564
-112.5958939 -20.6209545 320.0381470
-69.2817612 -13.4933548 325.9697876
-68.9794617 -14.2358599 325.9468689
-66.7862396 -17.5989933 325.9755859
-66.2008286 -18.1678047 326.0052795
-65.5444641 -18.7280083 326.0366211
-64.8267288 -19.2961731 326.0923157
-64.0638580 -19.8061657 326.1424561
-63.2426376 -20.2735023 326.2107239
-62.3372192 -20.6882973 326.2926941
-61.3546600 -21.0268116 326.3913269
-17.5239525 -11.0819016 332.6002197
-16.8427219 -11.6757660 332.6413879
-16.0921841 -12.2603302 332.6950989
-13.4607649 -13.7251120 332.9046021
-12.3170433 -14.1068039 333.0180969
-10.9928865 -14.4360847 333.1611023
37.6934052 -2.6069858 340.0942688
-69.3586884 -11.7930841 325.3190613
-69.1512146 -12.5541439 325.2804871
-68.9029694 -13.3009167 325.2546997
-68.5992432 -14.0354195 325.2366028
-66.3582535 -17.3700619 325.2580566
-65.7827682 -17.9381504 325.2858582
-65.1410522 -18.5066376 325.3307495
-64.3966751 -19.0675030 325.3750000
-63.6226196 -19.5764008 325.4364319
-62.7647171 -20.0337219 325.5050354
-61.8482399 -20.4223175 325.5945740
-60.7928696 -20.7497044 325.6945496
-18.1941090 -10.4785671 331.7423096
-17.5405560 -11.0860395 331.7755432
-16.8729038 -11.6914759 331.8085938
-16.1402721 -12.2845898 331.8582458
-13.5131245 -13.7513170 332.0726929
-12.3953848 -14.1399002 332.1798096
-11.0567131 -14.4808140 332.3242493
36.7986183 -3.0415959 339.0899658
37.9245338 -3.4568589 339.2005615
-69.1008148 -9.7936373 324.7032166
-69.0288544 -10.6970062 324.6593933
-68.8841782 -11.5199003 324.6052551
-68.7057648 -12.3032846 324.5751953
-67.7951813 -14.5380754 324.5113525
-67.3937531 -15.2452097 324.5147400
-64.6651382 -18.2604084 324.6282349
-63.9112968 -18.8137074 324.6753235
-63.1066246 -19.3067169 324.7344360
-62.2116661 -19.7368393 324.8102722
-61.2551613 -20.1087456 324.9108582
-60.1472816 -20.4169731 325.0108643
-17.5277233 -11.0775070 330.9552612
-13.4838028 -13.7552900 331.2524719
-12.4122982 -14.1453304 331.3527222
-11.0976801 -14.4968901 331.4897156
36.0806961 -3.3958230 338.1078491
37.0929413 -3.8324499 338.1929626
38.3487701 -4.2053752 338.3281555
-68.4513321 -7.5891447 324.1789551
-68.5570068 -8.5848589 324.0969849
-68.5672989 -9.5143108 324.0139465
-68.4995651 -10.4002113 323.9567871
-68.3727722 -11.2421427 323.9125671
-68.1984787 -12.0213232 323.8755493
-67.3031464 -14.2804480 323.8251343
-66.8776474 -14.9756956 323.8139648
-64.1133652 -17.9763260 323.9282837
-63.3640518 -18.5185070 323.9936829
-62.4987106 -18.9906406 324.0534058
-61.5944862 -19.3976498 324.1456299
-60.5637779 -19.7461758 324.2390442
-18.0654640 -10.4169531 330.1153870
-17.4720821 -11.0415697 330.1409912
-13.4414721 -13.7186356 330.4348450
-12.3502645 -14.1258850 330.5374146
-11.0516462 -14.4750891 330.6698914
34.7133942 -3.1024373 337.1113892
35.5777245 -3.6284959 337.1606750
36.5411606 -4.1138320 337.2551575
37.6383553 -4.5187287 337.3338318
-67.9285583 -8.2353582 323.4055481
-67.9732895 -9.2039108 323.3427429
-67.9137421 -10.0823927 323.2727661
-64.8252182 -16.5333633 323.1771851
-64.2164612 -17.0907288 323.2098389
-63.4911652 -17.6464977 323.2437134
-62.6852989 -18.1793118 323.3123169
-61.7702255 -18.6197777 323.3803406
-60.7983589 -19.0035725 323.4761047
-17.9580135 -10.3680782 329.3085938
-17.3462830 -10.9917774 329.3365784
-15.1379128 -12.7160807 329.4779968
-14.2495518 -13.2006836 329.5498352
-13.2813683 -13.6510773 329.6357727
-12.2127972 -14.0526152 329.7363892
-10.9055376 -14.4059353 329.8646240
34.3714333 -3.2569208 336.1909180
35.2136917 -3.8155370 336.2466736
36.0806999 -4.3345680 336.3008118
37.1857109 -4.7768230 336.4067383
-67.2492599 -8.7889357 322.6645508
-67.2252045 -9.7187939 322.6071777
-64.1396027 -16.1813507 322.4872131
-63.5201263 -16.7298927 322.5278625
-62.8008118 -17.2714615 322.5863647
-61.9376335 -17.7661819 322.6532593
-60.9863853 -18.1937618 322.7283936
-18.8445663 -8.9443569 328.4828491
-18.3462276 -9.6314745 328.4923706
-17.7930050 -10.2895174 328.5128174
-17.1872253 -10.9090586 328.5394287
-14.9577236 -12.6279860 328.6833191
-14.0491514 -13.1025648 328.7555847
-13.0434237 -13.5514240 328.8408508
-11.9923306 -13.9425755 328.9451599
34.0591049 -3.3963437 335.2624817
34.8652153 -3.9670954 335.3150330
35.7220192 -4.5047636 335.3742981
36.7914848 -4.9739347 335.4728699
37.9946213 -5.3765702 335.5788574
-66.4140701 -8.3146677 322.0005798
-66.3930206 -9.2514448 321.9566345
-66.3205795 -10.1553040 321.8948364
-66.1948090 -10.9486904 321.8482361
-65.9870605 -11.6944904 321.8211670
-65.7133255 -12.4694548 321.7981567
-64.4666977 -14.6032743 321.7925110
-63.9517517 -15.2142143 321.8115540
-63.4115334 -15.7789946 321.8460693
-62.7600594 -16.3022003 321.8817139
-61.9446869 -16.8132381 321.9265747
-19.0761604 -8.1341486 327.6926270
-18.6193867 -8.8391676 327.6956482
-18.1261482 -9.5269957 327.7059021
-16.2807999 -11.3992252 327.7870483
-15.5313530 -11.9654541 327.8374939
-14.7151880 -12.5025654 327.8988342
-13.8341236 -12.9812431 327.9691162
-12.8342571 -13.4254379 328.0549927
-11.7219820 -13.8118048 328.1605225
35.4874496 -4.6164389 334.4739990
36.5227509 -5.1100125 334.5666504
37.6988373 -5.5360055 334.6729126
-65.2975845 -10.4730663 321.2129517
-65.1003799 -11.2016439 321.1782227
-64.8537445 -11.9904947 321.1533508
-63.5827408 -14.1236677 321.1515503
-63.0483704 -14.7190714 321.1670837
-62.4532661 -15.2693577 321.1946106
-61.8144951 -15.7925739 321.2463379
-19.2267818 -7.2687826 326.9105225
-18.8197041 -7.9997458 326.9068909
-18.3692818 -8.7087936 326.9113770
-17.8625507 -9.3876123 326.9243164
-16.0083370 -11.2470446 327.0097961
-15.2243767 -11.8211508 327.0570068
-14.4125710 -12.3529806 327.1174622
-13.5329266 -12.8449745 327.1911926
-12.5314722 -13.2758064 327.2753296
-11.3855209 -13.6437349 327.3857727
35.3136139 -4.6997142 333.5790710
36.3023682 -5.2004590 333.6568909
37.4471207 -5.6471071 333.7588806
-64.0818939 -10.6379509 320.5701904
-63.8180199 -11.4244833 320.5443420
-63.4778633 -12.2035160 320.5248413
-63.0633316 -12.9171896 320.5155640
-62.5609665 -13.5587969 320.5169067
-62.0163498 -14.1656504 320.5417480
-19.2827015 -6.3345313 326.1481628
-18.9196529 -7.1004848 326.1405334
-18.5170574 -7.8425016 326.1371155
-14.0494480 -12.1734457 326.3452454
-13.1408157 -12.6607304 326.4198303
-12.1431255 -13.0815830 326.5149536
-10.9484854 -13.4351206 326.6237183
35.1913414 -4.7527833 332.6887512
36.1811371 -5.2539649 332.7728271
37.3225098 -5.7065177 332.8719177
-62.4756927 -10.6860991 319.9316406
-19.2325153 -5.3681717 325.4091492
-18.9002190 -6.1197977 325.3826904
-18.5359707 -6.9123225 325.3755493
-18.1372719 -7.6514449 325.3633423
-13.6344719 -11.9582167 325.5905457
-12.7057638 -12.4258080 325.6691589
-11.6491451 -12.8346548 325.7627258
32.7946968 -3.0235097 331.6679688
35.1577110 -4.7694049 331.8162537
36.1729202 -5.2744336 331.9004517
37.2933235 -5.7232313 331.9978943
86.3704300 4.9397755 338.5029907
-19.3985386 -2.6434274 324.7493286
-19.2421379 -3.5010207 324.7014771
-19.0344906 -4.3379164 324.6702271
-18.7702770 -5.1269221 324.6438293
-18.4640713 -5.8886480 324.6235962
-18.1088142 -6.6898274 324.6096191
-17.7153969 -7.4407763 324.6102905
-16.1532173 -9.4509287 324.6479187
-15.5330067 -10.0620804 324.6804504
-14.8203907 -10.6403217 324.7223816
-14.0158014 -11.1927948 324.7781067
-13.1112146 -11.7002611 324.8359375
-11.0443439 -12.5569820 325.0093079
32.8397675 -2.9989617 330.8031921
33.5702438 -3.6356831 330.8430176
34.3298416 -4.2068801 330.8899536
35.2037659 -4.7424765 330.9549561
36.2046585 -5.2476845 331.0359802
37.3362885 -5.7135682 331.1346741
85.7523117 4.6538892 337.4934387
86.7560806 4.1042223 337.5654602
88.0002518 3.6304164 337.6875916
-18.6899338 0.6552585 324.2414551
-18.8352852 -0.4146365 324.1416931
-18.9004669 -1.4309741 324.0639648
-18.8635139 -2.3663783 324.0035706
-18.7342663 -3.2432323 323.9617004
-18.5291367 -4.0750504 323.9230347
-18.2865009 -4.8679185 323.9018860
-17.9976177 -5.6578012 323.8817749
-17.6444454 -6.4351978 323.8635864
-17.2206326 -7.1787190 323.8593750
-15.6559200 -9.2035875 323.8991394
-15.0121746 -9.7963371 323.9306335
-14.2754469 -10.3571959 323.9689636
-13.4444103 -10.9003849 324.0320435
32.2767334 -2.2753737 329.9200439
32.9478722 -2.9484525 329.9504395
33.6715927 -3.5860898 329.9900208
34.4515190 -4.1617718 330.0397034
35.3106117 -4.6920319 330.1016846
36.2891769 -5.2032065 330.1792603
37.3951569 -5.6641941 330.2742004
85.2933197 4.4358344 336.5127563
86.2643356 3.8694918 336.5828552
87.3892136 3.3814793 336.6629333
-18.0662155 0.9906985 323.4964905
-18.2282333 -0.1120872 323.4193420
-18.3004189 -1.1205217 323.3375549
-18.2686520 -2.0572042 323.2686462
-18.1541824 -2.9459796 323.2175293
-17.9634628 -3.7667558 323.1768494
-16.1735630 -7.6066103 323.1201172
-15.6509838 -8.2727566 323.1369629
-15.0564070 -8.8880711 323.1605835
-14.4185610 -9.4733477 323.2042542
-13.6567917 -10.0281725 323.2435608
-12.7825489 -10.5677567 323.3104858
32.4352493 -2.2047684 329.0747986
33.1040154 -2.8781970 329.1059570
35.4732857 -4.6148505 329.2576904
36.4540176 -5.1272335 329.3323059
37.5910187 -5.5831652 329.4336853
84.9493790 4.2727079 335.5439758
85.9143143 3.7015052 335.6204224
87.0228424 3.1883719 335.7104187
88.2648315 2.7473974 335.8081970
-17.4568806 0.3347982 322.6759644
-17.5575867 -0.7296377 322.6222839
-17.5628262 -1.6816126 322.5507507
-17.4882145 -2.6024060 322.4976196
-17.3283386 -3.4423609 322.4553833
-15.5352373 -7.2647243 322.3931274
-14.9685192 -7.9167185 322.4157410
-14.3281088 -8.5141106 322.4380188
-13.6840544 -9.0985603 322.4911194
-12.8940258 -9.6425285 322.5320435
-11.9837208 -10.1619577 322.6035767
32.0146904 -1.4142014 328.2143860
32.6320267 -2.1045563 328.2340088
33.3061943 -2.7744272 328.2672729
35.7019424 -4.5049191 328.4202881
36.7055016 -5.0011015 328.5014343
37.8789673 -5.4524889 328.6021423
84.7009811 4.1487398 334.5961609
85.6599579 3.5708740 334.6712646
86.7288742 3.0435395 334.7578430
89.5145950 2.2492864 335.0147400
-16.6990547 -0.2607805 321.9129333
-16.7293720 -1.2318491 321.8494873
-16.6884232 -2.1763582 321.7923584
-16.5533657 -3.0514235 321.7351379
-16.3681755 -3.8765042 321.7102661
-16.0777855 -4.6561403 321.6823730
-15.7011404 -5.4360404 321.6720276
-15.2610140 -6.1712713 321.6697083
-14.7794743 -6.8693333 321.6947021
-14.1641407 -7.4997001 321.7087402
-13.4620543 -8.0910454 321.7221985
-12.8018141 -8.6523962 321.7807922
-11.9854851 -9.1853695 321.8375854
31.7287598 -0.5685960 327.3679504
32.2806358 -1.2930537 327.3839722
32.8897934 -1.9780015 327.4058838
33.5874519 -2.6406085 327.4435425
34.3517609 -3.2614779 327.4854126
35.1282120 -3.8294826 327.5337830
36.0056305 -4.3601203 327.5944214
37.0353279 -4.8376555 327.6802673
38.2033424 -5.2902656 327.7773438
84.5402222 4.0631895 333.6594238
85.4408646 3.4776721 333.7155762
86.4981842 2.9471266 333.8046570
87.7184296 2.4667370 333.9104309
89.2104416 2.1143479 334.0486145
-15.7524052 -0.7190882 321.1423645
-15.7415648 -1.6940466 321.1097412
-15.6414165 -2.5838261 321.0580139
-15.4588814 -3.3987973 321.0103455
-15.2116814 -4.1981416 320.9932251
-14.8151836 -4.9588647 320.9772034
-14.3492603 -5.6937089 320.9734497
-13.8540878 -6.3945904 320.9922485
-13.2569008 -7.0256310 321.0220947
-12.5779819 -7.5992532 321.0631714
-11.7972221 -8.1375580 321.1002808
31.5447731 0.3428874 326.5470276
32.0453949 -0.4060126 326.5486755
32.5955238 -1.1324527 326.5646667
33.2355080 -1.8200831 326.5824890
33.9591179 -2.4703326 326.6173401
34.7057343 -3.0862048 326.6606445
35.4666710 -3.6606927 326.7125244
36.3674660 -4.1817026 326.7789001
37.4196243 -4.6537452 326.8638000
83.6064835 4.6753554 332.6816101
84.4525299 4.0201235 332.7344971
85.3552246 3.4223928 332.7946777
86.3811722 2.8889143 332.8738403
87.5701828 2.4003580 332.9736328
89.0267181 2.0141113 333.1104736
-14.5185328 -2.0038848 320.4254456
-14.3803463 -2.8309548 320.3645630
-14.1202679 -3.6354027 320.3354492
-13.7485819 -4.4132977 320.3174133
31.4988041 1.2566069 325.7279663
31.9363842 0.5309325 325.7286072
32.4321861 -0.2139482 325.7372437
32.9986534 -0.9527589 325.7470703
33.6168022 -1.6246128 325.7806702
34.3484039 -2.2760897 325.8061829
