-120.3354950 -18.6380596 184.1056061
-120.2684555 -19.5448742 184.1280212
-117.5412903 -26.1293278 184.2332306
-117.0454483 -26.6860409 184.2385101
-116.5015717 -27.2122250 184.2420349
-115.9299011 -27.7181396 184.2383575
-110.4672928 -30.1993580 184.1847382
-109.4312286 -30.3361835 184.1579590
-108.1543884 -30.3973217 184.1440582
129.7509766 24.9151459 177.5899811
129.5205231 23.6069221 177.6252594
129.4270020 22.3993988 177.6566467
129.7883911 19.2226124 177.7320862
130.0787964 18.2952023 177.7457428
130.4339752 17.3866005 177.7615356
130.8306580 16.5017242 177.7695618
132.3255157 14.0571899 177.8043365
132.9827423 13.3272524 177.8060608
133.7125397 12.6629057 177.8051910
134.5032196 12.0469170 177.8074493
135.3896942 11.4527340 177.8037415
136.3258667 10.8936625 177.7951660
137.3627625 10.4065304 177.7849274
138.5467682 9.9948177 177.7692413
139.9050903 9.6693420 177.7529755
-120.6123199 -18.8489971 183.3749390
-120.5382614 -19.7654362 183.3953094
-120.3851089 -20.6379566 183.4129028
-120.1684341 -21.4221725 183.4322968
-118.6389160 -25.0376606 183.4912109
-118.2042236 -25.6843967 183.4997559
-110.7597656 -30.4128895 183.4532318
-109.7087708 -30.5691471 183.4327545
-108.4875641 -30.6429501 183.4065552
129.9906921 25.0963192 176.6165924
129.7520905 23.7663879 176.6627045
129.6320801 22.5401459 176.6945343
129.6136780 21.3758144 176.7317963
129.7425385 20.3437805 176.7481842
129.9736481 19.3402710 176.7721252
130.2475128 18.4038124 176.7866364
133.8958893 12.7741003 176.8487091
134.6932831 12.1562243 176.8499756
135.5659485 11.5474138 176.8475342
136.4798279 10.9923992 176.8449554
137.5266571 10.5252934 176.8317413
138.7644196 10.1184254 176.8097229
140.1658173 9.8087978 176.7897491
141.8113556 9.6206951 176.7523499
-120.8634033 -18.0999146 182.6190796
-120.8414459 -19.0493984 182.6432648
-120.7533493 -19.9332428 182.6651459
-120.5812683 -20.7845898 182.6842804
-120.3512115 -21.5732365 182.7016296
-118.8132553 -25.1755104 182.7604523
-118.3786697 -25.8187733 182.7686768
-110.9821243 -30.5830593 182.7212830
-109.9474182 -30.7521992 182.7021027
-108.7479935 -30.8418541 182.6770782
130.2514954 25.2336063 175.6559296
130.0228424 23.9095592 175.7070770
129.8936615 22.6840973 175.7320404
129.8914337 21.5515518 175.7630768
130.0162811 20.5122280 175.7936707
130.2204895 19.5169353 175.8058624
130.4673615 18.5151901 175.8377380
134.1176453 12.9093695 175.9067078
134.9275513 12.2844820 175.8894196
135.7833252 11.6782913 175.8866272
136.7149048 11.1429729 175.8844299
137.8233948 10.6758280 175.8633728
138.9975281 10.2841778 175.8558655
140.4546509 10.0035696 175.8325043
-121.0170975 -17.2304878 181.8605194
-121.0446930 -18.2446671 181.8871918
-121.0072403 -19.1826649 181.9122009
-120.8990097 -20.0530472 181.9317932
-114.4649353 -29.4794235 182.0352783
-113.6966019 -29.8595524 182.0283051
-111.1211929 -30.7079296 181.9876556
-110.1354523 -30.8959351 181.9680176
-108.9987717 -31.0092545 181.9400940
130.4125824 24.1733360 174.7324371
130.2411194 22.8895626 174.7820587
130.2519684 21.8021221 174.7968903
130.3539886 20.7339973 174.8168030
130.5175476 19.6893082 174.8491364
130.7712708 18.7342739 174.8533173
131.0939178 17.8036346 174.8786469
131.4602661 16.8783684 174.9081268
131.8935089 16.0254135 174.9070435
132.4151154 15.2168837 174.9281311
133.0210114 14.4726028 174.9223633
133.6841278 13.7574921 174.9331970
134.4212646 13.0974712 174.9309998
135.2050171 12.4649630 174.9404297
136.0763092 11.8541994 174.9293823
137.0485535 11.3292770 174.9186401
138.1338501 10.8724051 174.9120483
139.4180756 10.5151377 174.8867645
140.9219208 10.2840023 174.8615875
-121.1588440 -17.3604145 181.1220245
-121.1822510 -18.3628502 181.1500244
-121.1175232 -19.2678204 181.1753845
-120.9947357 -20.1377335 181.1958466
-114.5812454 -29.5731049 181.2997894
-113.8390274 -29.9524822 181.2916565
-111.2645111 -30.7975693 181.2529755
-110.2585144 -31.0043678 181.2343445
-109.1392899 -31.1237297 181.2082977
-107.7989349 -31.1705379 181.1799011
130.6836243 23.1970005 173.7916565
130.6760864 22.0613346 173.8321686
130.7297821 20.9623451 173.8616333
130.8823547 19.9007530 173.8951416
131.1371613 18.9364910 173.9105835
131.4614868 18.0346889 173.9060516
131.8147583 17.0942440 173.9433899
132.2348328 16.2255802 173.9594727
132.7685394 15.4417973 173.9618988
133.3691254 14.6936178 173.9599915
134.0148621 13.9701424 173.9879608
134.8063507 13.3029289 173.9502716
135.5888519 12.6814756 173.9638214
136.4421387 12.0950146 173.9769287
137.4564362 11.5821695 173.9562378
138.6285553 11.1673164 173.9277954
139.9783173 10.8601665 173.9052277
-121.2447968 -17.4439850 180.3851166
-121.2634583 -18.4233570 180.4132233
-109.2319794 -31.1977673 180.4710236
-107.9021759 -31.2350426 180.4391937
131.2138214 21.2666168 172.8971710
131.3528748 20.2083454 172.9128571
131.5828705 19.2227554 172.9300385
131.8844604 18.2666435 172.9547424
132.2428131 17.3570957 172.9639587
132.6779785 16.5069199 172.9789581
133.2105255 15.7260771 172.9840393
133.7883759 14.9432621 173.0085754
134.4479218 14.2147789 173.0028229
135.1860199 13.5729885 173.0063171
136.0679474 12.9689550 172.9837494
137.0222321 12.4174719 172.9803772
138.0374908 11.9398136 172.9780579
139.2165527 11.5517654 172.9628601
-121.2742615 -17.4708672 179.6452179
-121.3066635 -18.4725418 179.6749420
-109.2703094 -31.2291946 179.7317200
-107.9584198 -31.2643776 179.6977081
131.9024353 22.8450813 171.8723145
131.8860779 21.7058105 171.9089508
131.9773560 20.6205730 171.9260254
132.1388855 19.5847950 171.9666443
132.4209137 18.6013336 171.9812927
132.7885742 17.6916294 172.0112457
133.2442322 16.8621979 172.0119476
133.7634125 16.0655174 172.0191803
134.3551178 15.2947149 172.0208893
135.0175629 14.5625048 172.0327301
135.7647247 13.9159203 172.0432739
136.6693878 13.3542519 172.0241394
137.6789093 12.8372536 172.0074310
138.7468414 12.3821659 172.0036316
139.9970856 12.0155268 171.9735260
-121.2600708 -17.4637585 178.9040985
-121.2994385 -18.4552879 178.9335175
-121.2620468 -19.3815632 178.9599915
-121.1508484 -20.2596703 178.9837646
-120.9817429 -21.1091290 179.0025940
-120.7681580 -21.9381924 179.0210724
-109.2712097 -31.2180977 178.9899139
-107.9289932 -31.2494946 178.9529266
132.6859741 22.2105446 170.9283905
132.7481689 21.1090279 170.9597778
132.8623199 20.0371323 170.9814758
133.1284485 19.0637875 170.9918671
133.5203247 18.1688633 170.9874115
133.9458466 17.2839375 171.0220795
134.4440308 16.4920597 171.0350189
135.0473633 15.7255659 171.0365906
135.7388000 15.0208063 171.0387268
136.5420227 14.3932180 171.0343628
137.4616699 13.8412104 171.0260773
138.5080872 13.3484621 171.0151520
-121.1884384 -17.4128799 178.1561279
-121.2377319 -18.4079571 178.1891479
-121.2155380 -19.3349648 178.2158966
-121.1222000 -20.2157764 178.2379608
-120.9676361 -21.1024437 178.2644501
-120.7515488 -21.9067783 178.2818451
-109.1971436 -31.1739292 178.2441711
133.7020569 21.6837006 169.9739380
133.7638855 20.5987644 170.0005188
133.9960327 19.6025581 170.0111847
134.3301849 18.6715755 170.0310974
134.7607269 17.8027649 170.0368500
135.2710571 16.9943142 170.0455475
135.8619385 16.2261887 170.0672760
136.5976563 15.5636759 170.0532684
137.4167938 14.9674978 170.0572052
138.3894653 14.4275208 170.0641785
139.5545349 13.9969845 170.0281067
-121.0846710 -17.3172970 177.4100189
-121.1345596 -18.3333282 177.4431458
-109.0909576 -31.0813904 177.4959259
134.9483643 21.3654861 168.9366150
135.1089783 20.3139687 169.0209961
135.4179840 19.3592510 169.0397186
135.8115234 18.4555569 169.0608368
136.9396515 16.9058399 169.0910797
137.7249756 16.2615185 169.0840302
138.6817932 15.7457285 169.0332947
-120.9312744 -17.1724110 176.6556854
-120.9753952 -18.2162704 176.6965790
-108.9062042 -30.9392338 176.7438049
-120.7659149 -18.0498734 175.9466400
-120.7834930 -18.9899578 175.9732056
-120.7245178 -19.9040623 175.9977112
-120.5985565 -20.8100471 176.0243225
-120.4089737 -21.6448059 176.0453186
-117.9041443 -26.4389706 176.1233368
-117.4008331 -26.9915676 176.1255493
-116.8667068 -27.5205269 176.1270905
-116.3151245 -28.0128212 176.1271515
-112.6825714 -30.0529137 176.0858612
-111.8284225 -30.3251247 176.0673828
-110.9118500 -30.5401287 176.0470734
-109.9088898 -30.6955872 176.0267639
-108.6780243 -30.7644672 175.9868164
-120.5504913 -17.8357277 175.1806488
-120.5483551 -18.7952461 175.2179718
-120.4933472 -19.7166767 175.2447357
-120.3750458 -20.6294136 175.2692719
-120.1992035 -21.4793739 175.2911224
-117.7098083 -26.2805424 175.3756866
-117.1832199 -26.8300323 175.3780975
-116.6639023 -27.3566265 175.3857422
-116.1136856 -27.8578358 175.3770752
-112.4626389 -29.8819523 175.3384552
-111.5874100 -30.1373215 175.3137817
-110.6771851 -30.3408833 175.2945862
-109.6427383 -30.4769363 175.2699127
-120.2550430 -18.5372925 174.4552765
-120.2103806 -19.4903755 174.4916534
-119.7137375 -22.0717449 174.5531464
-119.4497299 -22.8265781 174.5738983
-118.3886032 -24.8254337 174.6059570
-117.9471207 -25.4902821 174.6237030
-117.4358139 -26.0801315 174.6290436
-116.8848343 -26.6203556 174.6031952
-116.4120331 -27.1719666 174.6303406
-115.8785400 -27.6711063 174.6296844
-112.1706390 -29.6614170 174.5728149
-111.2988434 -29.9050560 174.5562897
-110.3679352 -30.0945835 174.5386353
-109.2797165 -30.2045631 174.5012970
-119.9017944 -18.2235413 173.6768799
-119.8737030 -19.2061462 173.7269745
-119.4075470 -21.8311100 173.7980804
-119.1615524 -22.6025867 173.8233185
-118.1154099 -24.6106949 173.8499603
-117.6598892 -25.2589931 173.8547668
-117.1379089 -25.8349552 173.8472900
-116.6393661 -26.4201927 173.8670959
-116.1344376 -26.9606705 173.8667145
-115.5873489 -27.4421177 173.8639679
-111.8323669 -29.3999500 173.8145294
-110.9245758 -29.6260929 173.7920685
-109.9792862 -29.7914639 173.7747192
-119.4948349 -18.8913822 172.9493561
-119.4088364 -19.8487091 172.9953003
-119.2460785 -20.7333469 173.0146179
-117.8155289 -24.3749104 173.1029205
-117.3556290 -25.0196629 173.1086426
-116.8597946 -25.6229839 173.1101379
-116.3479614 -26.1949806 173.1138611
-113.1658936 -28.4724808 173.0910645
-112.3093033 -28.8151073 173.0697784
-111.4202271 -29.0859146 173.0552063
-110.4841385 -29.2822399 173.0247345
-109.4772644 -29.4229832 172.9957275
-118.9696579 -19.4881172 172.2136688
-118.8236771 -20.3905392 172.2523956
-117.4315567 -24.0636234 172.3325806
-116.9864502 -24.7164536 172.3448792
-116.4848480 -25.3304577 172.3387146
-115.9563828 -25.8950996 172.3518372
-112.7192001 -28.1269360 172.3200531
-111.8360596 -28.4445324 172.2965851
-110.9069519 -28.6952934 172.2775879
-109.9501572 -28.8681870 172.2570343
-108.9216919 -28.9742374 172.2209015
-118.3269424 -19.9981880 171.4838867
-118.1624603 -20.8565655 171.5063477
-117.9446640 -21.6420307 171.5270081
-117.6811523 -22.3479214 171.5406494
-117.3606186 -23.0162830 171.5469208
-114.9533005 -26.0476570 171.5838776
-114.3859634 -26.5162334 171.5818481
-113.7541046 -26.9209976 171.5598145
-113.0269012 -27.3417511 171.5621948
-112.1641998 -27.7096233 171.5337982
-111.2725983 -28.0160885 171.5252075
-110.2750015 -28.2217884 171.4942780
-109.2920380 -28.3599815 171.4725037
-117.5935364 -20.4005032 170.7224121
-117.3742142 -21.1877136 170.7459259
-117.1342545 -21.9141464 170.7622375
-116.8369980 -22.5951614 170.7830963
-114.4297104 -25.6393871 170.8073883
-113.8526154 -26.0811901 170.8027496
-113.1964722 -26.4865208 170.7862549
-112.4228058 -26.8814392 170.7756195
-111.5512695 -27.2292023 170.7635956
-110.6034393 -27.4923649 170.7447968
-109.5364304 -27.6548767 170.6957855
-116.1744385 -22.0650043 169.9903107
-115.8192291 -22.7746296 170.0099487
-115.3690338 -23.4346066 170.0054321
-114.8812866 -24.0736046 170.0256958
-114.3298874 -24.6248856 170.0223846
-113.7689133 -25.1064625 170.0210724
-113.1940536 -25.5629158 170.0251465
-112.5330429 -25.9667206 170.0126038
-111.7355957 -26.3331928 170.0013428
-110.7939911 -26.6321411 169.9711761
-115.4052200 -21.4425259 169.2153168
-115.0660934 -22.1636448 169.2295074
-114.6268158 -22.8422318 169.2312164
-114.1189651 -23.4658413 169.2356720
-113.5464554 -23.9923687 169.2264099
-112.9702606 -24.4691963 169.2218170
-112.3871231 -24.9092770 169.2223969
-111.6966324 -25.3024082 169.2101746
-114.0522995 -21.3337708 168.3780365
-113.6657867 -22.0644169 168.3949585
137.3441162 20.4128494 140.2646027
137.7704315 19.5315437 140.2837524
138.3546295 18.7546635 140.3008881
139.0784302 18.0353947 140.2967072
135.3504028 21.4347820 139.3366547
135.6000366 20.4686337 139.3721924
135.9635315 19.5446739 139.4035950
136.4485168 18.7085819 139.4388428
136.9763489 17.9050064 139.4305725
139.3415833 15.9637861 139.4130402
134.1381073 22.9463177 138.3911591
134.1069183 21.7729130 138.4281311
134.2601776 20.7635593 138.4829254
134.5321655 19.8024864 138.5127106
134.9035034 18.8719387 138.5348663
135.3506012 18.0238323 138.5544586
135.9098206 17.2415981 138.5816345
136.5515747 16.5029583 138.5768738
137.3351135 15.8330956 138.5879974
139.0485077 14.6839218 138.5249939
140.2243652 14.2490396 138.5078430
133.1524506 23.4594994 137.4454346
133.0993500 22.2730217 137.5032043
133.1910248 21.2063255 137.5685120
133.3886108 20.1877003 137.6104279
133.6921844 19.2761040 137.6537018
134.0665588 18.3585987 137.6729279
134.5206146 17.4975567 137.6903229
135.0532074 16.7027988 137.6907654
135.7003937 15.9700584 137.7079468
136.4116211 15.2678404 137.7002563
137.1996002 14.6278639 137.7014008
139.1598511 13.6109867 137.6387787
132.3667145 24.0745640 136.4917908
132.2634125 22.9010258 136.5695801
132.2961578 21.7758389 136.6224976
132.4169617 20.6948128 136.6651001
132.6376190 19.7165298 136.7097473
132.9481201 18.7929058 136.7462006
133.3578796 17.9006748 136.7790375
133.8264008 17.0537090 136.7939758
134.3744659 16.2800903 136.8132935
134.9906158 15.5177107 136.8111115
135.6817780 14.8187485 136.8126831
136.4547729 14.1716509 136.8088684
137.3209076 13.5937681 136.7916718
138.2889709 13.0661764 136.7523651
139.3518677 12.5961132 136.7212982
140.6224823 12.2235107 136.6980743
131.6220245 23.6034756 135.6089325
131.5771790 22.4498730 135.6726685
131.6691132 21.3917561 135.7470856
131.8034668 20.3179893 135.7789001
132.0419769 19.3482037 135.8160400
132.3559570 18.4179974 135.8405762
132.7590790 17.5348854 135.8769531
133.2111969 16.6744423 135.8821564
133.7707672 15.9007874 135.9141083
134.3766479 15.1527243 135.9165192
135.0652771 14.4355707 135.9180298
135.7853546 13.7654028 135.8948669
136.6411133 13.1664972 135.9003906
137.5727844 12.6166544 135.8714447
138.6476135 12.1516495 135.8510132
139.8194427 11.7619982 135.7890625
141.2752991 11.4767122 135.7299500
131.1874847 24.4712219 134.6319122
131.0294189 23.2281857 134.7120514
130.9989166 22.0749340 134.7705536
131.0793304 20.9888077 134.8182373
133.8583069 14.8192692 135.0110931
134.5453644 14.1090088 135.0205383
135.2760010 13.4407358 135.0197906
136.0657654 12.8219385 134.9975433
136.9818573 12.2514954 134.9747162
137.9917755 11.7564306 134.9419556
139.1590271 11.3396606 134.9051361
140.5374603 11.0369797 134.8390198
142.1873627 10.8231859 134.7808990
130.9462585 25.4896259 133.6396027
130.6685791 24.1334610 133.7258911
130.5538483 22.9336777 133.8019257
130.5471344 21.7957783 133.8625336
130.6468048 20.7261524 133.9163055
133.4217224 14.5466967 134.0989532
134.0839844 13.8232002 134.0935669
134.8084564 13.1680126 134.0959167
135.6284790 12.5503197 134.0872192
136.5273590 11.9627237 134.0709076
137.4880219 11.4392376 134.0400391
138.6065979 11.0036316 134.0049286
139.9236450 10.6612587 133.9447479
141.4976501 10.4326706 133.8713684
130.4970551 25.1953793 132.7249298
130.2550507 23.8826275 132.8141174
130.1672516 22.6624470 132.8850098
134.4663239 12.9541836 133.1776733
135.2806702 12.3283844 133.1740417
136.1530304 11.7269754 133.1546631
137.1059875 11.2084513 133.1278076
138.2004700 10.7459412 133.0935669
140.9387360 10.0907354 132.9660034
130.1343689 24.9679146 131.8049316
129.9207153 23.6368084 131.8863525
129.8575897 22.4706879 131.9617920
134.1836853 12.7676764 132.2572784
134.9769897 12.1362133 132.2451935
135.8565369 11.5517511 132.2270355
136.8402557 11.0205708 132.2049408
137.8762054 10.5313959 132.1738434
139.0790253 10.1191521 132.1255341
140.5439911 9.8446436 132.0551605
142.3044128 9.6891985 131.9679108
130.2978363 26.2654057 130.7675629
129.9045715 24.8492622 130.8734894
129.6714325 21.2300873 131.0881805
129.7995453 20.2120571 131.1454773
130.6291046 17.3131332 131.2561188
131.0246582 16.4229736 131.2862701
132.6055603 14.0340071 131.3289642
133.2471008 13.2984142 131.3296967
133.9539032 12.6246023 131.3288879
134.7657623 11.9992085 131.3206482
135.6701965 11.4194393 131.3015442
136.5983124 10.8819323 131.2755890
137.6196136 10.3682966 131.2457275
138.8232727 9.9541941 131.2012177
140.2253723 9.6543560 131.1343231
141.9586182 9.4830961 131.0443726
129.7403259 24.7196522 129.9345551
129.5101624 21.1114922 130.1540985
129.6495819 20.0780678 130.2039642
130.4804688 17.2155819 130.3223114
130.8911743 16.3262787 130.3489075
132.4587402 13.9353371 130.3934479
133.0972443 13.2017279 130.3993378
133.8005066 12.5213041 130.3957520
134.6118927 11.9110441 130.3825378
135.5226898 11.3330507 130.3644257
136.4464264 10.7814760 130.3410339
137.4710236 10.2734699 130.3110199
138.6372223 9.8463707 130.2670135
140.0149841 9.5214825 130.2044067
129.6639404 24.6615982 128.9903412
129.4702759 23.3630028 129.0765991
129.3967133 22.1707344 129.1504364
129.4271088 21.0701694 129.2125854
129.5766144 20.0390530 129.2629089
129.7784882 19.0322266 129.3088074
130.0528870 18.0591640 129.3495483
130.4105530 17.1665802 129.3794861
130.8166962 16.2767925 129.4079590
131.2713013 15.4440002 129.4284668
131.7852936 14.6491632 129.4442291
133.7231140 12.4810944 129.4561768
134.5441895 11.8678932 129.4415283
135.4342194 11.2808294 129.4236450
136.3524323 10.7174644 129.4015198
139.9162598 9.4582281 129.2641754
141.5839233 9.2450333 129.1763763
129.6755981 24.6579285 128.0382843
129.4694214 23.3791981 128.1234283
129.3911896 22.1568680 128.2005463
129.4412231 21.0591526 128.2608337
129.5713196 20.0292416 128.3136902
129.7688599 19.0085487 128.3630524
130.0462494 18.0706120 128.4025879
130.4012451 17.1656208 128.4302368
130.8047638 16.2664680 128.4624634
131.2710266 15.4278040 128.4840393
131.7789001 14.6249294 128.5002289
133.7198486 12.4657555 128.5078888
134.5182343 11.8492546 128.4970245
135.3961182 11.2390270 128.4788055
136.3061218 10.6861649 128.4578552
139.9019165 9.4474497 128.3147736
130.1733856 26.1824932 126.9635086
129.7691345 24.7270126 127.0764389
129.5330353 23.3932915 127.1689224
129.4553680 22.2023487 127.2431030
129.4965515 21.1170921 127.3022461
129.6176453 20.0598583 127.3591080
129.8234863 19.0569897 127.4060898
130.1009369 18.1007557 127.4429703
130.4415588 17.1838436 127.4777679
130.8496246 16.3018036 127.5096207
131.3261414 15.4713564 127.5258179
131.8264618 14.6684361 127.5436401
132.4059753 13.8980999 127.5544739
133.0540924 13.1623049 127.5591812
133.7700348 12.4797306 127.5555344
134.5462189 11.8663406 127.5486221
135.4211731 11.2616987 127.5289001
136.3443451 10.7135592 127.5088882
137.3849792 10.2217398 127.4694672
138.5650482 9.8047800 127.4226837
139.9432373 9.4886522 127.3613205
141.6684723 9.3188105 127.2651749
129.9274597 24.8222542 126.1086884
129.6775513 23.4637260 126.2078400
129.5889587 22.2804947 126.2782440
129.6149292 21.1653328 126.3486786
129.7432098 20.1112328 126.4101257
129.9480896 19.1271515 126.4447098
130.2005157 18.1630173 126.4878998
130.5317841 17.2350731 126.5236664
130.9558105 16.3519783 126.5506210
131.4152985 15.5217819 126.5762482
131.9130707 14.7254515 126.5887604
132.4962311 13.9518576 126.5989380
133.1312408 13.2268505 126.6049500
133.8407440 12.5500107 126.6052399
134.6594696 11.9277582 126.5850525
135.5544739 11.3292542 126.5606155
136.4913788 10.7744608 126.5387421
137.4934845 10.2905188 126.5127182
138.7032471 9.8776159 126.4607239
140.1205444 9.5756474 126.3924561
129.9399872 23.6420097 125.2283630
129.8205109 22.4128990 125.3108673
129.8394165 21.3137913 125.3618240
129.9615631 20.2655067 125.4107666
130.1340027 19.2373238 125.4770660
130.3676758 18.2547264 125.5258026
130.7145996 17.3393726 125.5596161
131.1392670 16.4669762 125.5739517
131.5736389 15.6106129 125.6086731
132.0748749 14.8131170 125.6306534
132.6795807 14.0507545 125.6284332
133.3205109 13.3281183 125.6369781
134.0518799 12.6623363 125.6280212
134.8582153 12.0349970 125.6173401
135.7255402 11.4367962 125.6025162
136.6670380 10.8898754 125.5772476
137.7294769 10.4127321 125.5361099
138.9271545 10.0159302 125.4906540
140.3455658 9.7450180 125.4249115
130.2886200 23.8672333 124.2373581
130.1334534 22.6167965 124.3268509
130.1139069 21.4800320 124.3972244
130.2071381 20.4168911 124.4516296
130.3698273 19.3847275 124.5021896
130.6225433 18.4260368 124.5488205
130.9714813 17.5153713 124.5835571
131.3696442 16.6172581 124.6055527
131.8094177 15.7593012 124.6353760
132.3454590 14.9739685 124.6429443
132.9278412 14.2049303 124.6611176
133.5828705 13.4921780 124.6570053
134.3143768 12.8323011 124.6559296
135.1246185 12.1819420 124.6473770
135.9993744 11.5896473 124.6246338
136.9463348 11.0611324 124.6023636
138.0531464 10.6044111 124.5480957
139.2926483 10.2295885 124.5052109
140.8093872 10.0051079 124.4211349
130.5468445 22.8621273 123.3404770
130.5045013 21.7384205 123.3990479
130.5539551 20.6281929 123.4695206
130.7101593 19.6019268 123.5164642
130.9844971 18.6595402 123.5487289
131.3108521 17.7297478 123.5933075
131.6772308 16.8020725 123.6367950
133.2328033 14.4009533 123.6840286
133.8999786 13.6890326 123.6894913
134.6495667 13.0215120 123.6751862
135.4588013 12.3908405 123.6645660
136.3656464 11.8065071 123.6386032
137.3315125 11.2953453 123.6210632
138.4512177 10.8673344 123.5706558
139.7582397 10.5356884 123.5094604
-112.9741135 -20.7258625 140.7472229
-112.5180130 -21.3487797 140.7404938
-111.9924393 -21.9243660 140.7200775
-111.4103928 -22.4291325 140.6969452
131.0936432 23.2242584 122.3265839
131.0108795 22.0486507 122.4021683
131.0205383 20.9291477 122.4759598
131.1483002 19.8701515 122.5347748
131.4083557 18.9110775 122.5632477
131.7175751 17.9825439 122.6007385
132.0789642 17.0454254 122.6445694
133.6359863 14.6412678 122.6939926
134.3110352 13.9386520 122.6838455
135.0594635 13.2808132 122.6821594
135.9055023 12.6684217 122.6575851
136.8143158 12.1084356 122.6485596
137.8735809 11.6136913 122.5983658
139.0329437 11.2091646 122.5570602
140.4050598 10.9213705 122.4889297
-114.7213898 -20.1525402 140.0689392
-114.4215851 -20.8802891 140.0949249
-114.0484085 -21.5611305 140.1233063
-113.6439972 -22.2261238 140.1267700
-113.1409149 -22.7971249 140.1281586
-112.5707703 -23.3243275 140.1162262
-111.9186935 -23.7782631 140.1152954
-111.2023163 -24.1917381 140.1088104
-110.4272766 -24.5522194 140.0979309
131.6574860 22.4588261 121.3891830
131.6489410 21.3558311 121.4417343
131.7182007 20.2491951 121.5173798
131.9242249 19.2371750 121.5698318
132.2319794 18.2934818 121.5893555
132.5814209 17.3827820 121.6326447
133.0154724 16.4934807 121.6810913
133.5587311 15.7258177 121.6643372
134.1597900 14.9655256 121.6846085
134.8318176 14.2567778 121.6899185
135.6051788 13.6063280 121.6745605
136.4583282 13.0134306 121.6628265
137.4506378 12.4750013 121.6197433
138.4918976 12.0065756 121.5978012
139.7296448 11.6452503 121.5326157
-115.6352310 -20.8705750 139.4345856
-115.3120880 -21.5781364 139.4575348
-114.9293442 -22.2685108 139.4748840
-114.4996872 -22.9056873 139.4872742
-114.0080490 -23.4831181 139.4895020
-113.4324646 -24.0001717 139.4904938
-112.8212280 -24.4952412 139.4783783
-112.1857834 -24.9342175 139.4536743
-111.4343109 -25.3069248 139.4318085
-110.5923386 -25.6363277 139.3948517
-109.6457214 -25.8967648 139.3704376
132.3694458 21.7877254 120.4399261
132.8538361 18.6981754 120.5839462
133.2198334 17.7754250 120.6121063
133.6443481 16.8917542 120.6485062
134.1657867 16.1046352 120.6670685
134.7987518 15.3617821 120.6648636
135.5075378 14.6744785 120.6536865
136.2725525 14.0211563 120.6627350
137.1662140 13.4557943 120.6305161
138.1719971 12.9494934 120.6106110
-116.9724274 -19.0368423 138.6593781
-116.8475723 -19.9105663 138.7030029
-116.6455536 -20.7166042 138.7448120
-116.3692093 -21.4518147 138.7771149
-116.0456085 -22.1519890 138.7944641
-114.7049713 -24.0323486 138.8304901
-114.1504669 -24.5691013 138.8306732
-113.5792542 -25.0821056 138.8196259
-112.9382401 -25.5304604 138.8153687
-112.2465286 -25.9427891 138.7862854
-111.4433670 -26.2979946 138.7514496
-110.5605545 -26.5871143 138.7166443
133.6898041 19.2171917 119.5553894
134.0390015 18.2845497 119.5929108
134.4678497 17.3992767 119.6130524
134.9571686 16.5949421 119.6468735
135.5910034 15.8516502 119.6441803
136.3011780 15.1586075 119.6403122
137.0939178 14.5339003 119.6322632
138.0654297 14.0096397 119.5951462
139.1936188 13.5766201 119.5416412
-117.6587524 -19.5774975 138.0091095
-117.5176010 -20.4338112 138.0444641
-117.2886200 -21.2163582 138.0800476
-116.9915390 -21.9402695 138.1131744
-116.6530914 -22.6295128 138.1291504
-115.3023071 -24.5028114 138.1693268
-114.7703857 -25.0487423 138.1671143
-114.2084579 -25.5697327 138.1549225
-113.5986252 -26.0527973 138.1366425
-112.9121094 -26.4734612 138.1274719
-112.1504440 -26.8484001 138.0992126
-111.3205872 -27.1766987 138.0584412
-110.4272919 -27.4534760 138.0149841
-109.3873978 -27.6488113 137.9835510
134.5254974 20.8704662 118.4188385
134.7653656 19.8978424 118.4664536
135.1084442 18.9722424 118.5019226
135.4932709 18.0510445 118.5545044
136.0100403 17.2394085 118.5553818
136.5797577 16.4672737 118.5659790
-118.4152908 -19.2228127 137.2785034
-118.2833633 -20.0871277 137.3292542
-115.8435364 -24.9404049 137.4733124
-115.3080139 -25.4700546 137.4880371
-113.4849777 -26.9088879 137.4521790
-112.7561340 -27.3181763 137.4285583
-111.9475174 -27.6741295 137.3923340
-111.0595093 -27.9565449 137.3516693
-110.0816116 -28.1611824 137.3049469
-109.0403976 -28.3265743 137.2616119
-119.0360031 -18.7183876 136.5507507
-118.9503555 -19.6452160 136.6036224
-118.7922363 -20.4902515 136.6544495
-116.2910309 -25.2891655 136.7953796
-115.7710266 -25.8464470 136.7966156
-113.9715958 -27.2771378 136.7740326
-113.2534256 -27.7049713 136.7486877
-112.4723969 -28.0765209 136.7209320
-111.6238174 -28.3943577 136.6797180
-110.7225723 -28.6452808 136.6303864
-109.7227020 -28.8275471 136.5735626
-108.6286240 -28.9522209 136.5255280
-119.5276108 -18.1175861 135.8070526
-119.5028992 -19.0751514 135.8632660
-119.4148788 -20.0035896 135.9192657
-119.2481918 -20.8510380 135.9651642
-119.0194702 -21.6304111 136.0089569
-118.7417831 -22.3812923 136.0357056
-115.6356125 -26.6870422 136.0994873
-115.0384445 -27.1647072 136.0956726
-112.9253922 -28.4322796 136.0313721
-112.1121216 -28.7694187 135.9972687
-111.2359314 -29.0524139 135.9550934
-110.2715988 -29.2545300 135.9040070
-109.2216034 -29.3918724 135.8383331
-119.9569244 -18.4626656 135.1179047
-119.9233780 -19.4139481 135.1731873
-119.8129196 -20.3199539 135.2295380
-119.6339874 -21.1811714 135.2682343
-119.4024200 -21.9629574 135.3036041
-119.1167450 -22.6863041 135.3382874
-115.9709015 -26.9577675 135.4090576
-115.4015045 -27.4392872 135.3934631
-113.3201294 -28.7326412 135.3411865
-112.5097733 -29.0884552 135.3100586
-111.6678314 -29.3918476 135.2685547
-110.7501831 -29.6236439 135.2123108
-109.7309265 -29.7699566 135.1508484
-120.3331223 -17.8336201 134.3440399
-120.3446808 -18.7780437 134.4175262
-120.2713776 -19.6916409 134.4764557
-120.1184387 -20.5791683 134.5248718
-119.9327927 -21.4152317 134.5713654
-119.7110901 -22.2000599 134.6094208
-119.4265900 -22.9340763 134.6383667
-116.2473526 -27.1834049 134.7124634
-115.6909714 -27.6574955 134.6994934
-112.0130768 -29.6632996 134.5730438
-111.0871887 -29.9037437 134.5275879
-110.1157303 -30.0745716 134.4619141
-108.9963150 -30.1766815 134.3985901
-120.6798935 -18.0992012 133.6488495
-120.6567459 -19.0202026 133.7143097
-120.5406570 -19.9084682 133.7699890
-120.3814697 -20.7806473 133.8243408
-120.2192307 -21.6338520 133.8644867
-119.9920197 -22.4206715 133.9041443
-119.6922684 -23.1479416 133.9323120
-116.5248413 -27.3922672 133.9985657
-115.9584579 -27.8810654 134.0003357
-112.3154373 -29.9053097 133.8697052
-111.4413071 -30.1656933 133.8222351
-110.4981613 -30.3710899 133.7685547
-109.4177551 -30.4953995 133.6954651
-108.1187286 -30.5386162 133.6164703
-120.9499741 -18.3357372 132.9408112
-120.9089737 -19.2031231 133.0094757
-120.7855988 -20.0853977 133.0683136
-120.6461868 -20.9964104 133.1143799
-120.4746780 -21.8398781 133.1563721
-118.8212509 -25.3099384 133.2791748
-118.3614883 -25.9478245 133.2896423
-117.8758469 -26.5423355 133.2942657
-117.3369141 -27.0834942 133.3001404
-116.7971725 -27.5916595 133.2841797
-116.2274246 -28.0875187 133.2860565
-112.6079102 -30.1156673 133.1624756
-111.7420197 -30.3995876 133.1199341
-110.8179245 -30.6186771 133.0678101
-109.7650070 -30.7597733 133.0008545
-108.5357513 -30.8201637 132.9150085
-121.1775589 -18.4747887 132.2340546
-121.1338654 -19.4043999 132.2936249
-121.0192947 -20.2981586 132.3474731
-120.8596191 -21.1716766 132.4000549
-120.6631622 -21.9924774 132.4434357
-119.0089569 -25.4669132 132.5677948
-118.5502319 -26.1089592 132.5764618
-118.0630341 -26.7029762 132.5836334
-117.5538025 -27.2471561 132.5858765
-117.0168152 -27.7701111 132.5824127
-116.4532928 -28.2496071 132.5743408
-112.8128281 -30.2843800 132.4521942
-111.9696655 -30.5723667 132.4088287
-111.0581589 -30.7996922 132.3588104
-110.0255966 -30.9564419 132.2920990
-108.7802811 -31.0211887 132.2083435
-121.2157822 -16.5762444 131.3666382
-121.3143997 -17.6324425 131.4456482
-121.3544998 -18.6019821 131.5167389
-121.3117065 -19.5349140 131.5783691
-121.1904297 -20.4106102 131.6359253
-121.0269318 -21.3014812 131.6840668
-120.8204575 -22.1209106 131.7260590
-119.1576080 -25.5802841 131.8490143
-118.6975937 -26.2281418 131.8592529
-116.6161270 -28.3894691 131.8582001
-111.2409058 -30.9371624 131.6418152
-110.2355347 -31.1145172 131.5783844
-109.0242233 -31.1984806 131.4948120
-121.4575119 -17.7597294 130.7221375
-121.4874115 -18.7153072 130.7931519
-121.4448318 -19.6421604 130.8557129
-121.3369751 -20.5465107 130.9112244
-121.1703949 -21.4180508 130.9612274
-120.9453659 -22.2158680 131.0031128
-119.2801971 -25.6800213 131.1251373
-118.8239899 -26.3276463 131.1366882
-116.7321167 -28.4813347 131.1364288
-111.3650513 -31.0354900 130.9178314
-110.3737488 -31.2289886 130.8567657
-109.2112808 -31.3325443 130.7754822
-107.8154526 -31.3327847 130.6743164
-121.5511551 -17.8245144 129.9935760
-121.5809174 -18.7968025 130.0657196
-119.3764954 -25.7650776 130.4006500
-118.9182205 -26.3999195 130.4115601
-117.3919449 -28.0672112 130.4165649
-116.8256760 -28.5508556 130.4089966
-109.3040466 -31.4107151 130.0486298
-107.9063263 -31.4160538 129.9434204
-121.5094376 -16.8030262 129.1748047
-121.6116943 -17.8998146 129.2626343
-121.6379623 -18.8504162 129.3331757
-119.4359589 -25.8075790 129.6706543
-118.9791107 -26.4416885 129.6819763
-118.4938583 -27.0475903 129.6888275
-117.9810715 -27.6024628 129.6902618
-117.4511108 -28.1212273 129.6879425
-116.8817062 -28.6060753 129.6796875
-109.3574677 -31.4505119 129.3144073
-107.9617767 -31.4608727 129.2074280
-121.6210785 -17.9098282 128.5237885
-121.6490707 -18.8641434 128.5949860
-109.3531799 -31.4540539 128.5736847
-107.9578247 -31.4603195 128.4633942
-121.5752869 -17.8677616 127.7759857
-121.6099091 -18.8410053 127.8519287
-109.2869492 -31.4110985 127.8236923
-107.8972626 -31.4152222 127.7123642
-121.4918213 -17.7993813 127.0201874
-121.5246506 -18.7625446 127.0963669
-113.1632919 -30.5783710 127.3236847
-112.3123169 -30.8490143 127.2781067
-111.4033279 -31.0698471 127.2161026
-110.3991699 -31.2401218 127.1584244
-109.1646423 -31.3155403 127.0645523
-121.3669052 -17.7026310 126.2623672
-121.3967056 -18.6649914 126.3419037
-113.0307541 -30.5049095 126.5632095
-112.1915359 -30.7492619 126.5209579
-111.2663422 -30.9583435 126.4582138
-110.2446976 -31.1157150 126.3959351
-108.9939728 -31.1765633 126.2983475
-121.2202606 -18.5180511 125.5725937
-121.2127991 -19.4496574 125.6452942
-121.1394348 -20.3574162 125.7028198
-120.9918823 -21.2696838 125.7631836
-120.7714539 -22.1014595 125.8048019
-120.5083771 -22.8757534 125.8403625
-120.2453766 -23.6035099 125.8832703
-117.1933594 -27.9277916 125.9607086
-116.6322250 -28.4054546 125.9562988
-116.0181046 -28.8384190 125.9454117
-115.3077545 -29.2703342 125.9174805
-114.5311813 -29.7085934 125.8834991
-113.7536697 -30.0824318 125.8598862
-111.1010437 -30.8270893 125.6964035
-110.0710678 -30.9634151 125.6285629
-121.0010376 -19.2792759 124.8770447
-120.9313583 -20.2072964 124.9372330
-120.7990036 -21.1098003 124.9992371
-120.5899811 -21.9515476 125.0457306
-120.3426514 -22.7351036 125.0803070
-120.0804138 -23.4769249 125.1175537
-117.0177155 -27.8050041 125.2068329
-116.4527130 -28.2655888 125.1964722
-115.8179169 -28.6744003 125.1665421
-115.1253586 -29.1216545 125.1523056
-114.3642197 -29.5682125 125.1240234
-113.5528259 -29.9303303 125.0898209
-110.8676147 -30.6496601 124.9253845
-109.8231201 -30.7719975 124.8556595
-120.7249451 -19.0616817 124.0947952
-120.6724243 -19.9960880 124.1636581
-116.8042297 -27.6320572 124.4365387
-116.2349167 -28.0799332 124.4241638
-115.5924377 -28.4917526 124.3816833
-114.9088440 -28.9612541 124.3916321
-114.1407547 -29.3916168 124.3595886
-113.2838745 -29.7291832 124.3046799
-112.4103394 -30.0088634 124.2620850
-111.5328369 -30.2398090 124.2132568
-110.5711365 -30.4110775 124.1415558
-120.4036636 -18.7883701 123.2946930
-120.3597717 -19.7367783 123.3756180
-116.5430908 -27.4265327 123.6564636
-115.9951706 -27.8790474 123.6615753
-115.3509293 -28.3059902 123.6267471
-114.6253281 -28.7499771 123.5999756
-113.8207626 -29.1519070 123.5696335
-112.9670258 -29.4762077 123.5250092
-112.0702133 -29.7451382 123.4626007
-111.1889954 -29.9648743 123.4219055
-110.1887283 -30.1132107 123.3448334
-119.9993668 -19.4271317 122.5678787
-119.9022141 -20.3848248 122.6519241
-119.7372360 -21.2732582 122.7047119
-119.0077515 -23.5361519 122.8216324
-118.6650391 -24.1823006 122.8374710
-113.4584885 -28.8619442 122.7753296
-112.5910797 -29.1830006 122.7309418
-111.6853409 -29.4403687 122.6770630
-110.7370987 -29.6262455 122.6107559
-119.4731903 -20.0328197 121.8305283
-119.3166199 -20.9398880 121.9051819
-118.6243210 -23.2262459 122.0198822
-118.3063354 -23.8946133 122.0540314
-113.0461044 -28.5408382 121.9832382
-112.1495056 -28.8423119 121.9342346
-111.1985626 -29.0681438 121.8707275
-110.2127609 -29.2252102 121.7960892
-118.8414917 -20.5433788 121.0762558
-118.6564865 -21.3894463 121.1468430
-118.4315643 -22.1660042 121.1860886
-118.1699066 -22.8603611 121.2167130
-117.8607254 -23.5204887 121.2387772
-114.1832733 -27.3922958 121.2396240
-113.4033508 -27.7846832 121.2021408
-112.5217133 -28.1368389 121.1622009
-118.0762405 -20.9398594 120.3215790
-117.8656998 -21.7164345 120.3629913
-117.6133423 -22.4102306 120.3910065
-117.3205795 -23.0906219 120.4219742
-113.6432266 -26.9610081 120.4277802
-112.8305664 -27.3265343 120.3892670
-116.9347000 -21.8720627 119.5607986
-116.6731644 -22.5864525 119.5935059
-116.3354340 -23.2964497 119.6216202
-115.8980103 -24.0025864 119.6451340
-115.3856201 -24.6044903 119.6414795
-114.8265152 -25.1375942 119.6338654
-114.2550049 -25.6146927 119.6280594
-113.6345673 -26.0311604 119.6065979
-112.9097824 -26.3859272 119.5573807
-115.8606644 -21.9250679 118.7063751
-115.5168915 -22.6553974 118.7567215
-115.0949936 -23.3627377 118.7901840
-114.5552979 -23.9689121 118.7780533
-113.9932251 -24.5073299 118.7825775
-113.3959961 -24.9435215 118.7515640
-112.7967300 -25.3624420 118.7479248
-113.9645309 -22.4487038 117.8580399
137.1864166 20.1085968 89.6506958
137.7008514 19.2662144 89.6810226
138.3732758 18.5253830 89.6948242
135.1604004 21.0792294 88.7789841
135.4235992 20.1296158 88.8339386
135.7496796 19.2030067 88.8762054
136.2360535 18.3397598 88.9086761
136.8273773 17.5658112 88.9177551
137.5048523 16.8415089 88.9032822
138.4023132 16.2654419 88.8955002
139.3732605 15.7398987 88.8703308
133.7687225 21.3013592 87.9320297
133.9628754 20.3292618 87.9984589
134.2574463 19.4230785 88.0600891
134.6235809 18.4972630 88.0999146
135.1027222 17.6436138 88.1222763
135.7034302 16.8634148 88.1422653
136.3556366 16.1320457 88.1301651
137.1663513 15.5120955 88.1180115
138.0478363 14.9524813 88.0724411
139.1162415 14.4676447 88.0404892
140.2527313 14.0283442 87.9739075
132.7203674 22.9217701 86.9409561
132.7038422 21.7534790 87.0486984
132.8091888 20.6976147 87.1349640
132.9769440 19.6859913 87.1790924
134.2105713 17.0809593 87.3223724
134.7701721 16.2846069 87.3175964
135.4403839 15.5508232 87.3278885
136.1700745 14.8733740 87.3120880
136.9991302 14.2795401 87.2790451
137.9835205 13.7835693 87.2433777
139.0693817 13.3083153 87.1681671
131.9004517 23.5918655 86.0044174
131.7932129 22.3014812 86.1067429
131.8693237 21.2098064 86.2167130
132.0127563 20.1865139 86.2879410
132.2299805 19.2355175 86.3449554
133.4416656 16.6045074 86.4693146
134.0360413 15.8353109 86.4861603
134.6713562 15.0762157 86.4772339
135.3653107 14.3796968 86.4764175
136.1811829 13.7645493 86.4709320
137.0541229 13.2035055 86.4238739
138.0613861 12.6891546 86.3654022
139.2397308 12.2634993 86.3059006
87.5853043 12.8412628 90.0863495
131.0732574 21.8820000 85.2867508
131.1860962 20.7704639 85.3560028
131.3704376 19.7873325 85.4314880
131.6045532 18.8420715 85.4858932
131.9233551 17.9388809 85.5410461
132.3296661 17.0341644 85.5843582
132.8174133 16.2017937 85.6011734
133.4211426 15.4408865 85.6252060
134.0537109 14.6857204 85.6432877
134.6940155 13.9653759 85.6263809
135.4725494 13.3267298 85.6160660
136.3361359 12.7467575 85.5886078
137.2927246 12.2170057 85.5328674
138.4198151 11.7758474 85.4740829
139.6637726 11.3976774 85.3881378
85.8398132 12.7904701 89.3493958
86.1333160 11.8977442 89.4000168
86.5291748 11.0884466 89.4312973
87.6694794 9.6403437 89.4255524
88.4654083 9.0258617 89.4260254
89.2438354 8.4275322 89.4067078
131.0738983 18.5108204 84.6220779
131.4002686 17.5888786 84.6631393
131.8159943 16.7214909 84.7177811
132.2880096 15.8522930 84.7378769
132.8515625 15.0650454 84.7548218
133.4622650 14.3141375 84.7624893
134.1174011 13.6092520 84.7635880
134.8633575 12.9668455 84.7510452
135.7082214 12.3648777 84.7176819
136.6849365 11.8196764 84.6872559
137.7368774 11.3419237 84.6279831
138.9085846 10.9435396 84.5377655
140.3209839 10.6400108 84.4381790
84.3073654 15.1399202 88.3899841
84.3107147 14.0224314 88.4616928
84.4674072 13.0253105 88.5459595
84.7313690 12.0848837 88.6251144
85.0484009 11.1889610 88.6688538
85.4794388 10.3943605 88.7099457
85.9585190 9.6075563 88.7070313
86.5659866 8.9169312 88.7115097
87.3167038 8.2894783 88.7077789
88.0624542 7.6757793 88.6708069
88.9549942 7.1416135 88.6339417
89.9851151 6.6954265 88.6112518
130.6144409 18.2184162 83.7366257
131.8105927 15.5594263 83.8583908
132.3566589 14.7745428 83.8821716
132.9889069 14.0088949 83.8929291
133.6490173 13.3054399 83.8819351
136.1522369 11.4932432 83.8105621
137.1592560 10.9914761 83.7564011
138.3318024 10.5700092 83.6890106
139.6173553 10.2438536 83.5791092
83.2710953 14.4383755 87.6313858
83.3599091 13.4202023 87.7268982
83.5429611 12.4307613 87.7923660
83.7916336 11.4596176 87.8323822
84.1390762 10.5980968 87.8865433
84.5679398 9.7989187 87.9181519
85.1016083 9.0386200 87.9443359
85.7063980 8.3336697 87.9437790
86.3711319 7.6784196 87.9381104
87.0967178 7.0445385 87.9226074
87.9701004 6.4938297 87.8903580
88.9297104 6.0222583 87.8343887
130.2059326 17.9628544 82.8596573
131.4387970 15.3253689 82.9687576
131.9676666 14.5245028 82.9862213
132.5765839 13.7705469 83.0064545
133.2493744 13.0573101 82.9976044
135.7505341 11.2375603 82.9297943
136.7178497 10.7214546 82.8770676
137.8291321 10.2728128 82.8126602
139.1103973 9.9087029 82.7171402
140.6163788 9.6393986 82.5981979
82.5025864 16.1301289 86.6421356
82.3787308 14.9391251 86.7473297
82.3825150 13.8482962 86.8501587
82.5101624 12.8435707 86.9236145
82.7461319 11.9092340 86.9956512
83.0548172 11.0141029 87.0603943
83.4022446 10.1357059 87.0921707
83.8348618 9.2951984 87.1233673
84.3457184 8.5339212 87.1348114
84.9222794 7.8395138 87.1443405
85.5723877 7.1515312 87.1517029
86.2868118 6.5189095 87.1331711
87.1326141 5.9528098 87.1096115
88.0394821 5.4539599 87.0582581
89.0655060 5.0093160 87.0046463
129.8468475 17.7253361 81.9655991
130.2191315 16.8392448 82.0036621
130.6351013 15.9689569 82.0363235
131.1202240 15.1445141 82.0750427
131.6435699 14.3403826 82.0967865
132.2305603 13.5611315 82.1028519
132.9050598 12.8542967 82.0993500
135.4153137 11.0334778 82.0306854
136.3910675 10.4986477 81.9843597
137.4351959 10.0237398 81.9226227
138.6720123 9.6433372 81.8350830
140.1629333 9.3576469 81.7192001
81.6410980 14.4365759 85.9560013
81.6916275 13.3946609 86.0591583
81.8222961 12.3858757 86.1256790
82.0789032 11.4649954 86.1856995
82.4085617 10.5775261 86.2387619
82.7705307 9.7137289 86.2801514
83.2257462 8.8999090 86.3148880
83.7577133 8.1635599 86.3380127
84.3243942 7.4382286 86.3461456
84.9466171 6.7400718 86.3434982
85.6516800 6.0965271 86.3394852
86.4371262 5.5038204 86.3072128
87.3283691 4.9865761 86.2743988
88.2984619 4.5176806 86.2089310
89.3415222 4.1226802 86.1337509
129.5289001 17.5076180 81.0672226
129.9198761 16.6518841 81.1004715
130.3603821 15.7897711 81.1344757
130.8367767 14.9570789 81.1630020
131.3587646 14.1481743 81.1815720
131.9605560 13.3977337 81.2009659
132.6607666 12.6876383 81.1979904
135.1278381 10.8499603 81.1236877
136.0801086 10.3025036 81.0826874
137.1344452 9.8228884 81.0233612
138.3610840 9.4385443 80.9372025
139.8243866 9.1445189 80.8212509
38.2487984 4.7938499 90.1779327
38.6727524 4.0032296 90.1992798
39.1871223 3.2838659 90.2174835
39.7777634 2.6496880 90.2291565
81.0567093 15.1858969 85.0425644
81.0352631 14.0616636 85.1497345
81.1030121 13.0099125 85.2322235
81.2525787 12.0111675 85.3023529
81.5286331 11.1192493 85.3710403
81.8602142 10.2325859 85.4198685
82.2405548 9.3609619 85.4529572
82.6971893 8.5720377 85.4779434
83.2323227 7.8216648 85.4988708
83.7997665 7.1021161 85.5039902
84.4086304 6.4090343 85.5104675
85.0799332 5.7380795 85.5011673
85.8489685 5.1255484 85.4859238
86.6987152 4.5830293 85.4515076
87.6523666 4.0976548 85.4120407
88.7173309 3.6818173 85.3412933
89.8226852 3.3347700 85.2495117
130.1588440 15.6715088 80.2203827
130.6337280 14.8226385 80.2516098
131.1511230 14.0200205 80.2733154
131.7756653 13.2583580 80.2823563
132.4595337 12.5681753 80.2769012
133.2198181 11.9193125 80.2655258
134.0128174 11.2957163 80.2436905
134.8800354 10.6988335 80.2123795
135.8222046 10.1562338 80.1703796
136.8756866 9.6808481 80.1107254
138.1322174 9.2761307 80.0271530
139.5059204 8.9727955 79.9167709
36.5056419 4.7007155 89.4538345
36.8809242 3.8771131 89.4994965
37.2907677 3.0674996 89.5194931
37.7915421 2.3725193 89.5336227
38.4108810 1.7358762 89.5352631
39.0409698 1.0977000 89.4976349
80.6116791 12.6855993 84.4065628
80.7950058 11.7160158 84.4740601
81.0572662 10.7922573 84.5257263
81.3952484 9.9122210 84.5804596
81.8013992 9.0605993 84.6133957
82.2748032 8.2813826 84.6379852
82.8225479 7.5455709 84.6610489
83.4001999 6.8440738 84.6797562
83.9977722 6.1473966 84.6748581
84.6797104 5.4639597 84.6717682
85.4135132 4.8438063 84.6538925
86.2171707 4.2733898 84.6226807
130.0109100 15.5657721 79.2984161
130.4928131 14.7257957 79.3268585
131.6530762 13.1698990 79.3551178
132.3031464 12.4733753 79.3553772
133.0398407 11.8099823 79.3441086
133.8389282 11.1917772 79.3218536
134.7387390 10.6006012 79.2882004
135.6857605 10.0578432 79.2454987
136.7234955 9.5775042 79.1882095
137.9340057 9.1695433 79.1061935
139.3608093 8.8611364 78.9949112
34.9450722 5.7855453 88.6466141
35.1199608 4.8173790 88.7007141
35.4035530 3.9584234 88.7639313
36.6999092 1.6154765 88.8376999
37.2982292 0.9738340 88.8493423
37.9677315 0.3728008 88.8382187
38.7410316 -0.1774486 88.8115082
80.3790512 11.4275827 83.6297455
80.6677322 10.5330372 83.6860733
81.0303955 9.6741266 83.7394257
81.4605255 8.8553171 83.7671585
81.9382248 8.0575666 83.7902679
82.4582520 7.3009887 83.8107834
83.0186844 6.5893049 83.8215179
83.6338196 5.9011245 83.8239899
84.3065491 5.2325926 83.8175583
85.0435715 4.6004491 83.8079300
85.8297195 4.0250554 83.7718582
129.9347992 15.5144987 78.3590851
130.4377899 14.6886892 78.3872604
130.9933472 13.8940105 78.4059525
131.5861359 13.1386213 78.4168091
132.2367706 12.4157295 78.4210434
132.9507141 11.7630749 78.4108276
133.7759857 11.1394272 78.3856506
136.6551514 9.5169868 78.2513733
137.8477173 9.1063347 78.1718369
139.2627563 8.8116932 78.0610733
33.8869705 6.1307611 87.8413925
34.0038033 5.1445932 87.9284897
34.2103920 4.2026291 87.9943771
34.5005569 3.3206167 88.0396805
35.8342819 1.0337712 88.1285858
36.3985329 0.3618723 88.1286850
37.0287247 -0.2683100 88.1146469
37.7745094 -0.8271137 88.0979462
38.5991745 -1.3287802 88.0608521
39.5653000 -1.7810656 88.0133514
80.0251694 11.2040434 82.7866211
80.3479767 10.3174219 82.8278580
80.7330093 9.4602385 82.8664551
81.1701279 8.6626339 82.9088058
82.0881805 7.0626073 82.9544754
82.6623764 6.3468380 82.9586639
83.3001251 5.6645451 82.9716644
83.9628830 5.0132475 82.9623184
84.7079849 4.3888173 82.9508591
85.5200958 3.8220105 82.9241180
86.3894119 3.2881315 82.8831635
87.3262177 2.7919571 82.8401794
88.3433456 2.3552744 82.7728653
89.5171051 2.0026569 82.6874924
90.9492416 1.7704438 82.5669327
130.4098969 14.6760015 77.4465332
130.9588623 13.8879948 77.4646683
131.5645905 13.1368141 77.4744644
132.2270508 12.4193506 77.4727783
132.9488983 11.7476988 77.4650955
133.7487640 11.1275072 77.4423904
136.6279297 9.5014095 77.3081741
137.8590393 9.0994663 77.2216110
139.2934265 8.8191090 77.1091537
33.0358887 7.6617937 86.9121323
32.9899254 6.5763483 87.0206757
33.0371628 5.5410466 87.1077271
33.1880188 4.5848765 87.1803436
34.1310196 2.0130379 87.3295135
34.5717583 1.2419674 87.3568192
35.0874672 0.5353702 87.3767395
35.6672630 -0.1253475 87.3867340
36.2731590 -0.7756860 87.3701630
36.9827766 -1.3680325 87.3619385
37.7843933 -1.8987833 87.3376160
38.6533966 -2.3827360 87.2747574
39.6627998 -2.7910495 87.2277069
80.4834290 9.2923946 82.0040665
80.8956757 8.4813070 82.0441971
81.8019333 6.8691416 82.1068115
82.3728409 6.1528277 82.1071091
82.9906082 5.4745259 82.1146622
85.2252274 3.6379638 82.0613708
86.0716858 3.0750127 82.0282516
86.9547119 2.5631030 81.9805908
88.0060577 2.1142423 81.9280853
89.1363602 1.7549036 81.8418121
90.5382996 1.5106515 81.7234268
130.4426117 14.6931505 76.5017624
130.9987183 13.8997517 76.5132065
131.6228485 13.1597700 76.5250397
132.2640686 12.4375706 76.5223541
132.9692383 11.7575378 76.5218201
133.7859650 11.1429491 76.4908295
134.6793365 10.5561895 76.4551163
135.6284485 10.0113821 76.4118271
136.6747284 9.5345640 76.3543396
137.9359894 9.1649780 76.2606354
139.4463654 8.8880863 76.1345444
32.2550201 7.1258769 86.1689835
32.2472916 6.0586324 86.2708969
32.3512764 5.0830011 86.3586731
32.5381584 4.1458101 86.4290314
33.4972916 1.5878321 86.5779877
33.9364967 0.8051996 86.5928192
34.4770889 0.1190351 86.6298141
35.0251045 -0.5638649 86.6154022
35.6504593 -1.2034693 86.6306076
36.3104668 -1.8253046 86.6106110
37.0601540 -2.3873868 86.5835342
37.9229202 -2.8777626 86.5409927
38.8806076 -3.3035173 86.4810333
39.9202881 -3.6537001 86.4185486
80.2639084 9.1535473 81.1412811
80.6536255 8.3037567 81.1777496
81.0347900 7.4625540 81.2160492
81.5422058 6.6883378 81.2398987
82.1164703 5.9816389 81.2527924
82.7238846 5.3098826 81.2485199
84.9741516 3.4783351 81.1948242
86.6964569 2.3858764 81.1252365
87.7207260 1.9476298 81.0626526
88.8758316 1.5720729 80.9811020
90.2556381 1.3257196 80.8625717
133.0828247 11.8209953 75.5537567
133.8892059 11.2061300 75.5273438
134.7654572 10.6148233 75.5009308
135.7325287 10.0871286 75.4515228
136.8192444 9.6335135 75.3843994
138.1170197 9.2706757 75.2850494
139.6296234 8.9981909 75.1550522
31.6715431 7.8101640 85.3028488
31.6182194 6.7064686 85.4089813
31.6504192 5.6501617 85.5024872
31.7792377 4.6846199 85.5844345
31.9686413 3.7462919 85.6545258
32.2196274 2.8353195 85.7148361
32.5515671 1.9962170 85.7531281
33.8869820 -0.2817124 85.8240509
