-113.4579620 -29.3659344 234.0078125
-112.7404327 -29.7051811 234.0087128
-111.9770050 -30.0054111 234.0209961
-111.1444016 -30.2455311 234.0362854
-110.2352676 -30.4296017 234.0563507
-109.3013229 -30.5455227 234.0742340
-108.2617645 -30.5682030 234.1019592
-107.1254501 -30.4950161 234.1290283
136.2883301 19.8693867 241.2990723
-120.6716614 -20.3172188 233.2603302
-119.2241974 -24.3765488 233.2129822
-118.8086319 -25.0680027 233.2076874
-114.9538422 -28.7653446 233.2225494
-114.2881546 -29.1571045 233.2375183
-108.4451218 -30.7658939 233.3429413
-107.3489227 -30.7281704 233.3666840
-106.1147461 -30.5994511 233.4052887
134.5632324 20.9647846 240.3167267
134.7817841 19.9018250 240.2952423
135.0886230 18.9071808 240.2710114
135.5095520 18.0490398 240.2497711
136.0953827 17.3320103 240.2698975
136.7165222 16.6226082 240.2419739
137.4760590 16.0055790 240.2626343
138.3308868 15.4595747 240.2636871
139.3498230 14.9886055 240.2716217
140.4362488 14.6319618 240.2988281
-120.9410400 -19.4464455 232.5257111
-120.7992935 -20.4662075 232.5045929
-119.3377609 -24.5014744 232.4614258
-118.9110794 -25.1816349 232.4548492
-115.0666580 -28.8897934 232.4725494
-114.4233170 -29.2912884 232.4788361
-108.5947952 -30.9248142 232.5847931
-107.5084610 -30.9047546 232.6097412
-106.2882767 -30.7574959 232.6417999
133.3677979 21.2195740 239.3429413
133.5164642 20.1005497 239.3067474
133.7893066 19.1000195 239.3020172
134.1797180 18.1971130 239.3044281
134.6563263 17.3658485 239.2943573
135.2315369 16.6209641 239.2923279
135.8820496 15.9408646 239.3079071
136.6157074 15.2899380 239.3112183
137.4400482 14.7161751 239.3091583
138.3736572 14.2142010 239.3160095
139.3685455 13.7935963 239.3069153
-121.0218582 -19.5743008 231.7676239
-120.8800735 -20.5576210 231.7522888
-120.1453476 -23.1067791 231.7186432
-119.7976990 -23.8652916 231.7113800
-119.4077911 -24.5791893 231.7072906
-118.9599533 -25.2438984 231.7059631
-117.5090942 -27.0420666 231.7031250
-116.9831390 -27.5607128 231.7053680
-116.4118576 -28.0444756 231.7120361
-115.7971344 -28.5204887 231.7160645
-115.1563644 -28.9763260 231.7245789
-114.5004578 -29.3948860 231.7292175
-106.3954849 -30.8744507 231.8851166
132.3908539 21.6457844 238.3794556
132.5117950 20.5207214 238.3619080
132.7449493 19.5000515 238.3613434
133.0610809 18.5118332 238.3376465
133.4771576 17.6360798 238.3422699
133.9758606 16.8170700 238.3291016
134.5554657 16.0518646 238.3349304
135.1661377 15.3354330 238.3243713
135.8751221 14.6874285 238.3312531
136.6960602 14.1063833 238.3423615
137.5942535 13.5822392 238.3518066
138.5517120 13.1491795 238.3650360
139.6100311 12.7891521 238.3640594
140.8385010 12.5513859 238.3924713
-121.0706482 -19.6402893 231.0142212
-120.9325180 -20.6023407 231.0001831
-120.1841125 -23.1353951 230.9697113
-119.8228683 -23.8874588 230.9640198
-119.4213181 -24.5942974 230.9601898
-118.9882126 -25.2819996 230.9573059
-117.5562744 -27.0639362 230.9572906
-117.0283508 -27.5839729 230.9576263
-116.4558487 -28.0910645 230.9624634
-115.8539276 -28.5841846 230.9646149
-115.2307358 -29.0410347 230.9699249
-114.5491409 -29.4531059 230.9795990
-106.4595032 -30.9504051 231.1315002
131.6456604 22.2567101 237.4352112
131.7082214 21.0966129 237.4176178
131.8820038 20.0300961 237.4108734
132.1483612 19.0075874 237.3945007
132.4856262 18.0379620 237.3792114
132.9152985 17.1657104 237.3724670
133.4264526 16.3876953 237.3836365
133.9868622 15.5846233 237.3551331
134.6001434 14.8825970 237.3669739
135.2970886 14.2429676 237.3669739
136.0977325 13.6423702 237.3847046
136.9487305 13.0933199 237.3778839
137.9369507 12.6440535 237.4145050
-121.0920944 -19.6658707 230.2628632
-120.9477844 -20.6492805 230.2480469
-119.4207611 -24.5982342 230.2118073
-119.0081406 -25.2989082 230.2078857
-116.4811401 -28.1130161 230.2134399
-115.8850479 -28.6165810 230.2171326
-115.2444458 -29.0686512 230.2222595
-114.5726242 -29.4544144 230.2311401
-110.6382675 -30.8556156 230.2915192
-109.7089539 -31.0093613 230.3086853
-106.5002899 -30.9795074 230.3784332
131.0766449 23.0415478 236.4982300
131.0529785 21.7728271 236.4733124
131.1578979 20.6409855 236.4559784
131.3650360 19.5772457 236.4369049
131.6500549 18.5905533 236.4219666
135.6282196 13.2615499 236.4264069
136.4795990 12.7082977 236.4296417
137.4263916 12.2443094 236.4522400
138.4058075 11.8242321 236.4594727
139.4723816 11.4779015 236.4717102
140.6653748 11.2220345 236.4800568
-121.0694275 -19.6357975 229.5137024
-120.9227524 -20.6037254 229.4999084
-119.3972778 -24.5792999 229.4643097
-118.9825516 -25.2692986 229.4619904
-116.4741516 -28.0999775 229.4666748
-115.8536301 -28.5931587 229.4704590
-115.2126007 -29.0342693 229.4773407
-114.5418167 -29.4359398 229.4841614
-110.6350784 -30.8384743 229.5429535
-109.6811676 -30.9808674 229.5599823
-106.4549637 -30.9443378 229.6298523
130.6891937 23.9685936 235.5662842
130.5588837 22.5969906 235.5317993
130.5744629 21.3854370 235.5131989
130.7263947 20.3010082 235.5057373
130.9559937 19.2655106 235.4912567
131.2759247 18.2950287 235.4785156
135.2665253 12.9596891 235.4650421
136.0923615 12.3887215 235.4725342
136.9941711 11.9026527 235.4821777
137.9672089 11.4731083 235.5053253
138.9976044 11.0975161 235.5134583
140.1756439 10.8189163 235.5341492
141.5088196 10.6562490 235.5545807
-121.0087280 -19.5501881 228.7644806
-120.8518982 -20.5305061 228.7532043
-120.0547638 -23.0099392 228.7278290
-119.7074585 -23.7655411 228.7241669
-119.3175430 -24.4999485 228.7207184
-118.8882980 -25.1752319 228.7167969
-108.6276245 -30.9743500 228.8318176
-107.5579071 -30.9693775 228.8539429
-106.3528214 -30.8422127 228.8824463
130.2443237 23.5799389 234.5998383
130.1598358 22.2837543 234.5774078
130.2177887 21.0937958 234.5581207
130.3899689 20.0081177 234.5500641
130.6467590 18.9824982 234.5303650
130.9754944 18.0635910 234.5327454
131.3553619 17.1283627 234.5238190
131.7985077 16.2565060 234.5151825
132.3083038 15.4547052 234.5076141
132.8921661 14.7111559 234.5094757
134.9703369 12.7160988 234.5242004
135.7686615 12.1408129 234.5230103
136.6778870 11.6360979 234.5445709
137.6079254 11.1868696 234.5507355
138.6253967 10.7995024 234.5648499
139.8042145 10.4978085 234.5897827
141.0768890 10.3140106 234.5988159
-120.9094315 -19.4418335 228.0166473
-120.7438889 -20.4146652 228.0069580
-119.9599304 -22.9109383 227.9804688
-119.6028748 -23.6455250 227.9776611
-119.1947098 -24.3687286 227.9748077
-118.7720566 -25.0624542 227.9752808
-108.5148239 -30.8603783 228.0877991
-107.4217377 -30.8286572 228.1096497
-106.2046661 -30.6859188 228.1358948
129.9255066 23.3125648 233.6467438
129.8631744 22.0346050 233.6258545
129.9411316 20.8830719 233.6121368
130.1285858 19.7836227 233.5952759
130.3936310 18.7889462 233.5876312
130.7204895 17.8308372 233.5791931
131.1037598 16.9248238 233.5717163
131.5581055 16.0658932 233.5658112
132.0780792 15.2711420 233.5679474
132.6644135 14.5208893 233.5685120
134.7073975 12.5345440 233.5724792
135.5241852 11.9436121 233.5815887
136.4119568 11.4302282 233.5934906
137.3318329 10.9728632 233.6014252
138.3294830 10.5640144 233.6105499
139.4558716 10.2447662 233.6310883
140.7259521 10.0435743 233.6481171
-120.6075745 -20.2683372 227.2612610
-119.8503342 -22.7793922 227.2382202
-119.4841003 -23.5049210 227.2328033
-119.0815887 -24.2141647 227.2261353
-118.6597672 -24.9411545 227.2270966
-118.2469635 -25.6023235 227.2267303
-117.8060150 -26.2233257 227.2248383
-117.3249054 -26.8067856 227.2276764
-116.7993317 -27.3343849 227.2342224
-116.2063751 -27.8111115 227.2281036
-115.5855484 -28.3021221 227.2330475
-113.5873718 -29.5325108 227.2586670
-112.8630371 -29.8489132 227.2708740
-108.3403015 -30.6979504 227.3376465
-107.2239914 -30.6486168 227.3602448
-105.9978485 -30.4994316 227.3883057
129.7032623 23.1338921 232.6950226
129.6411133 21.8629875 232.6780396
130.2036133 18.6303177 232.6419525
130.5313110 17.6753616 232.6334686
130.9272156 16.7686291 232.6249237
131.3847046 15.9177904 232.6276703
136.2261505 11.2779789 232.6495209
137.1700592 10.8199024 232.6672821
138.1415405 10.4162159 232.6721954
139.2800598 10.0798368 232.6920013
140.5235291 9.8623495 232.7090302
141.9695435 9.7288809 232.7350922
-120.4478302 -20.0807152 226.5166931
-119.7062988 -22.6182938 226.4940643
-119.3551102 -23.3767738 226.4932709
-118.9632645 -24.1030827 226.4851074
-118.5504837 -24.8308182 226.4834747
-118.1273727 -25.4786243 226.4822388
-117.6644440 -26.0851879 226.4812469
-117.1735382 -26.6463165 226.4842682
-116.6237946 -27.1564560 226.4847107
-116.0498962 -27.6437244 226.4898987
-115.4374390 -28.1621265 226.4951630
-113.4229431 -29.3613911 226.5129547
-112.6847382 -29.6694126 226.5243378
-108.1716003 -30.5028744 226.5990448
-107.0736465 -30.4441776 226.6230621
129.5089417 22.9732037 231.7473907
129.4967651 21.7330971 231.7319489
130.0792542 18.5275593 231.6990662
130.4213867 17.5850048 231.6922455
130.8095551 16.6705627 231.6845093
131.2559509 15.8146286 231.6826935
136.0902863 11.1848574 231.7033081
137.0328827 10.7235985 231.7185211
138.0224152 10.3045788 231.7309875
139.1213531 9.9622135 231.7454834
140.3413849 9.7287302 231.7626343
141.7989807 9.5984421 231.7887726
-120.2326202 -19.8231525 225.7634277
-120.0210724 -20.7627716 225.7652435
-119.7822189 -21.6112099 225.7582855
-119.5084457 -22.3889771 225.7505798
-119.1878281 -23.1703281 225.7472229
-118.8209763 -23.9517994 225.7469482
-118.4119644 -24.6594143 225.7452698
-116.9886398 -26.4468040 225.7428589
-116.4519653 -26.9637413 225.7430725
-115.8876114 -27.4817581 225.7494354
-115.2622986 -27.9681854 225.7550507
-114.5965347 -28.4107227 225.7562866
-113.9413300 -28.8132687 225.7771149
-109.9319687 -30.1139374 225.8182220
-108.9630814 -30.2266140 225.8367157
-107.9245682 -30.2455235 225.8511810
-106.7919312 -30.1666451 225.8757629
129.5980988 24.3554096 230.8273315
129.4111633 22.9027214 230.8052979
129.4323883 21.7047634 230.7908020
130.0235596 18.4578247 230.7564392
130.3671570 17.5468273 230.7527313
130.7563782 16.6289082 230.7466431
131.2074127 15.7661638 230.7425232
131.7255707 14.9854193 230.7416534
132.3070221 14.2220364 230.7425232
132.9352417 13.5010366 230.7433777
133.6139069 12.8509531 230.7466278
136.0423584 11.1456232 230.7678223
136.9468384 10.6679907 230.7781372
137.9258423 10.2341785 230.7883148
139.0301666 9.8943062 230.8042603
140.2754669 9.6554089 230.8238678
141.6922150 9.5222683 230.8455048
-119.7453308 -20.4566479 225.0205994
-119.5184326 -21.3128166 225.0170288
-119.2512589 -22.1032906 225.0081024
-118.9352493 -22.8788795 224.9969025
-118.5867767 -23.6848812 225.0063324
-118.1822433 -24.4213257 225.0002289
-116.7737808 -26.2286854 225.0028992
-116.2441559 -26.7425060 225.0018768
-115.6720352 -27.2494946 225.0161743
-115.0286942 -27.7123470 225.0014191
-114.3702774 -28.1610470 225.0106049
-113.6889191 -28.5641918 225.0185852
-109.6560440 -29.8358364 225.0767212
-108.6640015 -29.9275227 225.0944824
129.5752411 24.3382053 229.8847961
129.4116211 22.9124889 229.8639832
129.4398804 21.7135410 229.8489532
130.0222168 18.4583797 229.8187256
130.3646088 17.5383739 229.8123627
130.7645569 16.6567879 229.8072205
131.2297668 15.7816839 229.8055725
131.7358398 14.9898672 229.8042908
132.3002777 14.2174120 229.8043671
132.9427032 13.4943790 229.8060760
133.6338043 12.8367529 229.8094330
136.0357208 11.1264677 229.8306122
136.9257355 10.6528578 229.8392487
137.9229736 10.2285118 229.8508606
139.0433197 9.8983078 229.8660278
140.2781067 9.6549911 229.8842468
141.6957245 9.5118790 229.9069061
-119.2219086 -20.9866734 224.2761536
-118.9643021 -21.7930489 224.2684937
-118.6553574 -22.5878487 224.2582245
-118.3090973 -23.3771572 224.2536621
-117.9128799 -24.1263199 224.2642212
-116.5197983 -25.9462357 224.2639923
-115.9811554 -26.4595833 224.2497711
-115.4112930 -26.9678745 224.2643585
-114.7772522 -27.4550533 224.2760468
-114.1233063 -27.8926239 224.2814484
-113.4335556 -28.2774124 224.2868042
-111.1648026 -29.1448307 224.3083191
-110.2910919 -29.3458290 224.3152466
-109.3451996 -29.4981537 224.3417816
129.6427612 24.3900280 228.9455261
129.4891968 22.9758472 228.9257965
129.5034637 21.7505302 228.9098663
129.6135101 20.6100101 228.8968048
129.8049622 19.5078716 228.8876801
130.8224030 16.6960030 228.8700867
131.2783966 15.8283205 228.8686218
131.7819977 15.0192051 228.8676300
132.3446503 14.2502699 228.8668518
132.9733276 13.5447664 228.8701019
133.6523438 12.8684559 228.8736420
134.3647919 12.2308111 228.8790741
135.1877441 11.6704283 228.8847809
136.0886078 11.1544561 228.8899078
136.9787750 10.6883459 228.9029541
137.9844818 10.2768822 228.9142609
139.0873871 9.9442492 228.9297028
140.3076630 9.6991644 228.9470062
141.7747955 9.5666752 228.9694824
-118.8840256 -20.6186562 223.5394897
-118.6376877 -21.4294510 223.5325928
-118.3413773 -22.2468796 223.5284424
-117.9776688 -23.0328445 223.5133820
-117.5651321 -23.7674065 223.5127106
-116.2144699 -25.6178989 223.5135803
-115.7074203 -26.1627750 223.5334320
-115.1258698 -26.6669006 223.5263519
-114.4828262 -27.1333923 223.5240173
-113.7953720 -27.5635490 223.5304260
-113.1054688 -27.9402046 223.5453339
-110.8435211 -28.7865105 223.5793610
-109.9468689 -28.9714947 223.5840302
-108.9484482 -29.0786266 223.5993652
129.8088684 24.5334072 228.0061798
129.6508636 23.1307983 227.9840393
129.6362610 21.8756008 227.9697723
129.7294312 20.6874104 227.9597168
129.9142151 19.5955238 227.9517670
130.9315948 16.7761669 227.9339752
131.3834076 15.9044886 227.9367371
131.8903656 15.1074057 227.9312439
132.4546204 14.3330870 227.9335632
133.0740967 13.6199427 227.9329987
133.7371979 12.9438353 227.9362946
134.4699707 12.3064928 227.9423065
135.2966614 11.7563963 227.9521179
136.1871643 11.2464075 227.9567871
137.1067047 10.7904749 227.9690704
138.1304626 10.3902588 227.9799805
139.2552338 10.0507641 227.9896240
140.4680176 9.8148565 228.0124817
141.9326477 9.6959734 228.0348663
-118.4637375 -20.1187630 222.7745514
-118.2251587 -20.9748173 222.7897644
-117.9505539 -21.8056984 222.7855988
-117.5977402 -22.6209164 222.7867432
-117.1852570 -23.3480186 222.7731781
-113.4262466 -27.1703243 222.7999725
-112.7076797 -27.5225544 222.8043060
-111.9763489 -27.8485947 222.8139191
-111.2176285 -28.1187916 222.8116150
-110.4272842 -28.3438110 222.8327637
-109.4895554 -28.4956818 222.8361816
-108.4707947 -28.5767174 222.8606110
130.0455170 24.7520027 227.0628204
129.8752441 23.2796764 227.0553741
129.8349609 22.0031796 227.0376129
129.9151917 20.8285255 227.0264435
130.1057281 19.7528858 227.0139923
131.1036224 16.9116497 226.9979858
131.5521851 16.0464687 226.9997406
132.0633087 15.2413054 226.9991608
132.6211700 14.4726591 227.0001984
133.2254181 13.7475834 227.0039215
133.8910217 13.0660295 227.0082855
134.6615601 12.4573412 227.0043182
135.4905853 11.9090967 227.0213776
138.3282166 10.5460367 227.0470428
139.4470215 10.2145662 227.0610809
140.7045898 9.9952965 227.0773315
142.1931152 9.8844547 227.0994720
-117.7478333 -20.4423847 222.0426025
-117.4787064 -21.2975826 222.0527344
-117.1415253 -22.1082077 222.0359802
-116.7608719 -22.8904419 222.0376587
-112.9666214 -26.6904812 222.0396881
-112.2522278 -27.0496387 222.0529175
-111.5388260 -27.3827229 222.0756683
-110.7646790 -27.6345921 222.0803833
-109.9274979 -27.8274841 222.0864563
-109.0042496 -27.9627094 222.1113129
-107.9202423 -27.9861679 222.1181183
130.1943665 23.5516338 226.1181641
130.1406403 22.2716103 226.1015167
130.1960602 21.0866203 226.0870514
130.3610382 19.9540272 226.0852051
131.3439331 17.0963917 226.0636139
131.7724152 16.2174892 226.0695496
132.2782440 15.4131842 226.0672913
132.8499146 14.6542444 226.0643158
133.4726257 13.9293013 226.0682983
134.1461487 13.2633333 226.0726166
134.9081116 12.6629515 226.0782013
135.7396240 12.1024542 226.0790863
138.6029205 10.7436447 226.1160889
139.7291260 10.4297361 226.1280060
140.9836121 10.2324085 226.1471710
142.5572510 10.1660738 226.1614990
-116.9385986 -20.6817799 221.3038177
-116.6318436 -21.5616837 221.3137665
-116.2713318 -22.3556042 221.2966461
-115.8865738 -23.0986938 221.3121643
-115.4322357 -23.7083073 221.2923431
-114.9626694 -24.2763824 221.3056793
-114.4455490 -24.7841644 221.3081055
-113.8698654 -25.2886963 221.3055115
-113.2318573 -25.7875290 221.3190155
-112.5064392 -26.1930046 221.3148804
-111.7839050 -26.5391426 221.3274536
-111.0088425 -26.8210239 221.3310242
-110.2098465 -27.0449448 221.3397217
-109.3575134 -27.2178383 221.3619843
-108.3359375 -27.2666283 221.3687286
-107.1791840 -27.1996574 221.3868561
130.5743866 23.8730812 225.1796875
130.5078583 22.5709171 225.1722107
130.5401917 21.3636818 225.1575470
130.6890106 20.2204685 225.1480255
130.9456635 19.2192955 225.1413116
131.2727966 18.2707291 225.1398773
133.7912598 14.1916161 225.1330414
134.4563446 13.5186300 225.1412964
135.2048187 12.9014091 225.1500854
136.0411377 12.3414507 225.1542206
136.9277191 11.8357868 225.1652222
137.8754578 11.3966436 225.1773376
138.9729919 11.0246916 225.1657867
140.0994873 10.7208538 225.1976776
141.3949738 10.5374632 225.2210693
-116.0308990 -20.8946877 220.5672913
-115.6812057 -21.7070351 220.5678711
-115.2942047 -22.4349937 220.5561371
-114.8736954 -23.0896549 220.5660706
-114.3628540 -23.6289043 220.5471649
-113.8531723 -24.1292019 220.5453186
-113.3144836 -24.6941490 220.5780640
-112.6688919 -25.1717644 220.5748749
-111.9275742 -25.5720692 220.5832062
-111.1720047 -25.8869076 220.6006470
-110.3784332 -26.1388721 220.6098022
-109.5420380 -26.3253574 220.6068726
-108.6304321 -26.4388390 220.6183472
-107.5421600 -26.4146156 220.6274567
130.9415588 22.9279175 224.2361908
130.9728851 21.7083511 224.2282715
131.1034088 20.5619125 224.2175140
131.3450775 19.5461292 224.2122650
131.6483154 18.5846195 224.2015839
134.1512909 14.4885273 224.1974487
134.8062439 13.7975054 224.2190857
135.5774231 13.1887426 224.2176514
136.4361725 12.6453476 224.2135315
137.3252258 12.1458902 224.2220917
138.2921295 11.7158184 224.2426910
139.3802338 11.3716831 224.2534332
140.5994873 11.1084461 224.2590942
141.9360504 10.9440441 224.2816620
-114.9504318 -20.9270363 219.8326111
-114.5818024 -21.6565666 219.8190765
-114.1630249 -22.3384705 219.8345184
-113.6988220 -22.9275894 219.8414154
-113.1873856 -23.4314518 219.8278656
-112.6223907 -23.9367161 219.8295288
-111.9360199 -24.4079380 219.8347168
131.5057983 23.3830624 223.2929535
131.5144196 22.1469650 223.3059235
131.6076050 20.9858036 223.2888184
131.8009491 19.9268513 223.2762909
132.0795898 18.9229088 223.2806549
132.4679260 18.0075989 223.2652130
132.8825684 17.1201973 223.2814484
133.3716431 16.3122978 223.2792206
133.9419403 15.5377407 223.2871857
134.5783691 14.8104448 223.2784882
135.2671051 14.1660805 223.2697144
136.0546570 13.5652027 223.2779236
136.8820801 13.0158873 223.2913208
137.7902069 12.5233803 223.3022614
138.7955780 12.1254539 223.3195343
139.9134064 11.8154888 223.3278046
141.1958923 11.6033516 223.3347168
-112.3544693 -22.5127048 219.1101532
-111.7675400 -23.0066471 219.1066895
132.1525879 22.6820831 222.3566132
132.2103119 21.4753094 222.3624420
132.3538818 20.3660812 222.3587341
132.6327820 19.3747921 222.3414612
132.9893036 18.4443359 222.3363190
133.4005280 17.5262947 222.3460846
133.9060822 16.7467995 222.3295135
134.4813843 15.9872637 222.3351746
135.1240540 15.2553787 222.3455963
135.8060913 14.5999632 222.3598328
136.5966644 14.0122652 222.3488159
137.4361572 13.4580851 222.3647308
138.3964539 13.0112028 222.3585663
139.4691467 12.6509399 222.3626404
140.5893250 12.3657484 222.3972473
132.9631042 22.1218948 221.4057465
133.0802307 20.9641724 221.4307709
133.3135681 19.9221268 221.4181213
133.6193848 18.9410572 221.4125671
134.0048218 18.0258636 221.4163208
134.5210724 17.2402840 221.4069061
135.1059113 16.4890213 221.4137573
135.7554626 15.7755356 221.4071808
136.4383698 15.1143799 221.4245453
137.2412567 14.5416174 221.4190063
138.0979309 14.0079432 221.4452057
139.0862732 13.5815363 221.4526520
133.9435883 21.6941471 220.4767151
134.1313171 20.5927448 220.4892426
134.4051056 19.5723133 220.5031586
134.7862854 18.6575356 220.4963074
135.2835846 17.8599606 220.4850159
135.8598022 17.0975971 220.4810486
136.4734955 16.3596783 220.5049896
137.2118378 15.7367325 220.4971161
138.0391083 15.1803541 220.5028992
138.9570770 14.7000494 220.5099335
140.0026855 14.3212280 220.5164490
135.4790955 20.4886913 219.5348206
135.8152466 19.5178509 219.5661621
136.2637787 18.6697998 219.5681152
136.8238983 17.8971233 219.5666351
137.4798737 17.1815491 219.5592804
11.1055183 -1.5358652 215.6258545
11.6353941 -2.2080231 215.6255798
13.6474733 -3.8801880 215.6278839
14.5104523 -4.2788777 215.6425781
9.1075239 0.1435080 214.7849579
9.4196911 -0.7511519 214.7873535
9.7732267 -1.5867345 214.7859039
10.1889019 -2.3691664 214.7723389
10.7257748 -3.0626876 214.7785492
11.3255949 -3.6575348 214.7966309
11.9767609 -4.2472734 214.7893982
12.6995506 -4.7421150 214.8003693
13.4977093 -5.1923256 214.7909241
14.3687134 -5.5398231 214.7788696
15.3968401 -5.7849693 214.8201141
8.2794790 -0.6326135 213.9108582
8.6147108 -1.5039207 213.9237061
9.0087910 -2.3098431 213.9242706
9.4829664 -3.0159533 213.9435577
10.0126295 -3.7144797 213.9365387
10.5936842 -4.3426318 213.9382019
11.2397366 -4.9221845 213.9394379
11.9417048 -5.4240246 213.9464111
12.7256536 -5.8820782 213.9546051
13.5593147 -6.2699738 213.9501343
14.5166512 -6.5670729 213.9494019
15.5848055 -6.7746830 213.9633331
7.3679643 -0.3005973 213.0720978
7.6365232 -1.2280636 213.0700226
7.9880490 -2.0809619 213.0744324
8.3979635 -2.8641224 213.0785217
9.9792137 -4.9203997 213.0818329
10.6288557 -5.4751039 213.0917358
11.3237162 -5.9937901 213.0933075
12.0677366 -6.4691181 213.0954590
12.8905306 -6.8797693 213.1078949
13.7891197 -7.2182474 213.1065979
14.8100433 -7.4687400 213.1062927
15.8893652 -7.6605721 213.1216888
6.5825691 0.1269472 212.2106476
6.8123980 -0.8008276 212.2285614
7.1084709 -1.7152852 212.2266846
7.4663386 -2.5540094 212.2229462
7.8956232 -3.3312228 212.2313080
9.5010872 -5.3600817 212.2425079
10.1440697 -5.9173145 212.2515259
10.8210421 -6.4610462 212.2441406
11.5616531 -6.9488149 212.2556305
12.3572578 -7.3689518 212.2602539
13.2337561 -7.7425308 212.2586670
14.2041140 -8.0274687 212.2627258
15.2369690 -8.2345276 212.2647858
16.4016323 -8.3830881 212.2976074
5.9269042 0.6907263 211.3667297
6.0993505 -0.3225465 211.3685913
6.3433290 -1.2509809 211.3730469
6.6523499 -2.1418641 211.3657227
10.4011984 -6.8480296 211.3983917
11.1197672 -7.3365941 211.4018555
13.7246656 -8.4621906 211.4182892
14.7345200 -8.7023420 211.4225006
15.8189659 -8.8631392 211.4235687
17.0627651 -8.9586105 211.4544983
5.5421023 0.3315782 210.5193329
5.7093782 -0.7023004 210.5135040
5.9670300 -1.6001768 210.5320129
6.3049073 -2.4524844 210.5319977
10.0524397 -7.1636539 210.5511475
10.7744436 -7.6561193 210.5574036
13.3295889 -8.8066216 210.5702362
14.3171463 -9.0931597 210.5769348
15.3760729 -9.2829838 210.5832672
16.5506992 -9.3905115 210.5856323
5.1280589 1.1302810 209.6709290
5.2415185 0.0672165 209.6797180
5.4126887 -0.9474102 209.6786499
5.6633449 -1.8872919 209.6752319
6.0279822 -2.7340631 209.6856232
6.4307084 -3.5352964 209.6913300
6.8416615 -4.2960000 209.6906281
8.4669619 -6.3158655 209.7017670
9.1071815 -6.8817248 209.7087402
11.2928209 -8.3306808 209.7283020
12.1329184 -8.7356873 209.7253265
13.0312366 -9.1034994 209.7344971
13.9613104 -9.4068317 209.7312012
14.9917498 -9.6290579 209.7324371
16.1515446 -9.7462311 209.7419586
17.4288616 -9.7780695 209.7448730
4.7732744 1.9759409 208.8204803
4.8445015 0.8335359 208.8165436
4.9818106 -0.1671741 208.8337555
5.1687207 -1.1734284 208.8330536
5.4164729 -2.1197901 208.8308258
5.7675800 -2.9546092 208.8443451
6.1759639 -3.7642353 208.8468933
6.6123118 -4.5170903 208.8541107
8.2344370 -6.5137563 208.8607483
8.8621721 -7.0923481 208.8637390
11.0331802 -8.5688963 208.8785706
11.8467350 -8.9840488 208.8764191
12.7626495 -9.3494225 208.8926086
13.7029305 -9.6600828 208.8912964
14.7076054 -9.8973656 208.8939667
15.8267775 -10.0524912 208.8959198
17.0708733 -10.0947361 208.8952179
4.5227056 1.7398162 207.9727478
4.6096148 0.6402401 207.9757996
4.7622256 -0.3738259 207.9833221
4.9656038 -1.3613163 207.9884186
5.2301259 -2.2978358 207.9905853
5.5718732 -3.1532078 207.9932251
8.0601063 -6.6842098 208.0177460
8.6702099 -7.2623978 208.0262451
10.8029385 -8.7707186 208.0337830
11.6425648 -9.1860294 208.0370636
14.4984016 -10.1079550 208.0530396
15.5635328 -10.2875385 208.0508270
16.8119125 -10.3522091 208.0560608
18.1862106 -10.2957716 208.0566711
4.3423462 1.5755746 207.1280670
4.4350228 0.4997481 207.1343536
4.6011086 -0.5425351 207.1376343
4.8274570 -1.4973549 207.1438446
5.1103854 -2.4050062 207.1500702
5.4525537 -3.2781644 207.1543579
7.9245067 -6.8189473 207.1791077
8.5365973 -7.4191418 207.1738434
10.6517296 -8.9157591 207.1940918
11.4925947 -9.3262606 207.1991425
14.3123350 -10.2765865 207.2073517
15.3889904 -10.4707680 207.2127533
16.5658493 -10.5586643 207.2099915
17.9662170 -10.5005245 207.2121582
4.2097535 1.4271694 206.2791443
4.3112025 0.3664368 206.2870331
5.7332988 -4.1723371 206.3160248
6.1796622 -4.9005814 206.3260956
6.6786227 -5.6067648 206.3253021
7.2250786 -6.2683129 206.3294220
10.5332518 -9.0269499 206.3491211
11.3452225 -9.4505167 206.3516083
12.2294950 -9.8166103 206.3554688
13.1848984 -10.1331453 206.3576813
16.3842907 -10.7097254 206.3645782
17.7668419 -10.6626749 206.3673096
4.1231585 1.3562328 205.4354858
4.2275038 0.2874299 205.4423676
5.6698246 -4.2527046 205.4711456
6.1226954 -4.9805245 205.4752808
6.6183882 -5.6602182 205.4855347
7.1674027 -6.3443475 205.4881592
10.4626684 -9.0968018 205.5076599
11.2749052 -9.5249271 205.5115051
12.1579046 -9.8808317 205.5150299
13.1053762 -10.2037086 205.5176544
16.3243217 -10.7822428 205.5228882
17.6828842 -10.7432337 205.5228577
4.0335307 2.4870639 204.5823517
4.0964603 1.3239045 204.5904541
4.2005672 0.2458329 204.5979004
6.5835114 -5.7045236 204.6408997
7.1121025 -6.3938093 204.6450195
7.6949301 -7.0277214 204.6507874
8.3193092 -7.5927072 204.6542511
16.3064938 -10.8022480 204.6780243
17.6251469 -10.7783203 204.6772461
19.2832794 -10.5846643 204.6758118
4.1400094 1.3681816 203.7442932
4.2397676 0.2848908 203.7533112
6.6094332 -5.6815567 203.7989197
7.1441412 -6.3667655 203.8035431
7.7249694 -7.0058250 203.8096008
8.3517952 -7.5762482 203.8118896
16.3203850 -10.7775536 203.8335419
17.6463680 -10.7589588 203.8336029
4.2412915 1.4643943 202.8958588
4.3378448 0.3735218 202.9079895
14.1659374 -10.4044065 202.9866943
15.2401075 -10.5956726 202.9878082
16.4115906 -10.6933575 202.9871368
17.7588043 -10.6573143 202.9882660
4.3800979 1.5918503 202.0480194
4.4770412 0.5251024 202.0560760
14.3049459 -10.2819490 202.1448212
15.3796425 -10.4610643 202.1432190
16.5814438 -10.5369120 202.1407013
17.9782639 -10.4762592 202.1350861
4.5452728 1.7290099 201.2039337
4.6511507 0.6565357 201.2164307
4.8040762 -0.3563267 201.2189178
5.0019464 -1.3757880 201.2348633
6.0268440 -3.9071529 201.2556152
6.4804602 -4.6420259 201.2570648
6.9650469 -5.3609104 201.2642975
7.5040665 -6.0579438 201.2747498
8.0861893 -6.6823115 201.2760315
8.7012453 -7.2761121 201.2833710
12.5366383 -9.5537052 201.3013458
13.5159454 -9.8568602 201.2937164
14.5250454 -10.0965290 201.2953339
15.6031437 -10.2699423 201.2950134
16.8190384 -10.3264809 201.2939453
18.2303867 -10.2541313 201.2865143
4.8766913 0.8767427 200.3669891
5.0313025 -0.1567110 200.3723297
5.2166095 -1.1705582 200.3861237
6.2396612 -3.7403302 200.4113922
6.6726832 -4.4672494 200.4134064
7.1490974 -5.1973190 200.4244690
7.6977396 -5.8801565 200.4257355
8.2851839 -6.5061936 200.4346771
8.9128828 -7.0863585 200.4369202
12.7961245 -9.3418369 200.4474182
13.7735233 -9.6297913 200.4419556
14.7877836 -9.8658991 200.4490662
15.8747501 -10.0315733 200.4487457
17.1131229 -10.0616426 200.4457703
5.1594977 1.1850203 199.5015564
5.3142967 0.1026876 199.5274963
5.5096726 -0.8998122 199.5358734
5.7764487 -1.8185953 199.5447998
6.0926218 -2.6788244 199.5546570
7.3904877 -4.9698005 199.5871887
7.9490099 -5.6400018 199.5836945
9.8256092 -7.4008446 199.6038513
10.5607357 -7.8710618 199.6059723
11.3442888 -8.2827969 199.5959778
12.1638184 -8.7148676 199.6076965
13.0697289 -9.0686750 199.6058044
14.0593872 -9.3540783 199.6036987
15.1131220 -9.5720549 199.5949097
16.2262325 -9.7147102 199.6038971
17.5165749 -9.7115583 199.5872345
5.6696887 0.4372129 198.6805115
5.8767810 -0.5515627 198.6894989
6.1295705 -1.4909494 198.6915741
6.4295797 -2.4048135 198.7115173
7.7177010 -4.6495113 198.7261353
8.2653112 -5.3285794 198.7226410
10.1524420 -7.1154284 198.7551880
10.9326887 -7.5409789 198.7302094
11.6877861 -7.9803004 198.7593689
12.5316343 -8.3912086 198.7556763
13.4602432 -8.7249804 198.7466583
14.4511156 -9.0035791 198.7480011
15.5211706 -9.1954889 198.7476959
16.6959648 -9.2780237 198.7474213
6.1335969 0.8873559 197.8117676
6.3066735 -0.1685720 197.8368835
6.5230465 -1.1108035 197.8367004
6.8134236 -2.0272257 197.8572083
7.1988201 -2.8148928 197.8593140
7.6303988 -3.5716898 197.8679352
10.5269108 -6.7560682 197.9013062
11.3002357 -7.1999054 197.9024506
12.1274757 -7.5881534 197.8787079
12.9552860 -7.9881597 197.9097290
13.9016085 -8.3247814 197.8965302
14.9141436 -8.5830288 197.8981171
16.0431442 -8.7189131 197.8941040
17.2944050 -8.7407198 197.8880005
6.8004532 0.3067392 196.9821320
6.9988041 -0.6816077 197.0004120
7.2864900 -1.5670886 196.9980164
7.6479936 -2.4021378 197.0101166
8.0761623 -3.1587150 197.0100250
10.9833488 -6.3350945 197.0409241
11.7362633 -6.7862344 197.0562134
12.6178503 -7.1596861 197.0216675
13.4651327 -7.5327258 197.0569611
14.4192343 -7.8582573 197.0528870
15.4687481 -8.0718584 197.0482941
16.6914310 -8.1339893 197.0321655
7.4272380 0.9225984 196.0903473
7.6138701 -0.1018179 196.1326294
7.8729081 -1.0448608 196.1469116
8.1868534 -1.9220079 196.1654510
8.6003218 -2.6737909 196.1558838
9.0611029 -3.4046874 196.1704559
9.6005936 -4.1067109 196.1773071
11.5110378 -5.8531938 196.1919098
12.2678261 -6.3091769 196.2041626
13.1572351 -6.6498332 196.1871490
14.1443138 -6.9382849 196.1556244
15.0886068 -7.2517939 196.1914215
8.3286562 0.5731221 195.2452698
8.5740871 -0.3839007 195.2865906
8.8724012 -1.2871090 195.3068695
9.2635527 -2.0651135 195.3016205
9.7092991 -2.8144991 195.3166351
10.2555037 -3.5110879 195.3096619
12.1905832 -5.2553806 195.3254547
12.9545631 -5.6843286 195.3391876
13.8340330 -5.9993625 195.3456726
14.8526773 -6.2622881 195.3298492
15.8884954 -6.5236745 195.3310547
10.0703335 -1.3215613 194.4385376
10.5014610 -2.0799749 194.4530945
11.0188751 -2.7847378 194.4554749
11.6011305 -3.4566901 194.4675598
12.2734861 -4.0183463 194.4653625
13.0049486 -4.4910016 194.4757843
13.8179121 -4.8952703 194.4758759
14.7848244 -5.1723566 194.4440308
12.0178089 -1.8611108 193.5967407
12.6207867 -2.5149734 193.6027374
13.2918787 -3.0635886 193.5996552
14.0812759 -3.5084207 193.5719299
137.7853546 19.7399578 191.2465820
138.3407593 18.9735661 191.2503510
139.0396118 18.2988205 191.2538605
135.9470673 19.4409924 190.3054962
136.3862305 18.5817947 190.3049774
136.9518585 17.8260708 190.3127441
137.6047211 17.1502953 190.3191833
138.3756866 16.5100517 190.3153229
134.0357513 21.5796680 189.3540802
134.1956482 20.4781723 189.3671112
134.4975433 19.4902344 189.3903656
134.8524780 18.5237923 189.3722534
135.3590088 17.7670670 189.4195557
135.8901672 16.9875278 189.4062500
136.5711212 16.2799416 189.4103699
137.3284454 15.6810265 189.4163361
138.1913910 15.1047621 189.4214630
139.0883484 14.6099062 189.3983307
140.1725464 14.2618456 189.3966522
132.9572754 21.8934078 188.3900299
133.0870209 20.8210278 188.4319763
133.3065643 19.7491512 188.4425812
133.6277618 18.7566833 188.4518127
134.0613098 17.8922749 188.4762268
134.5440826 17.0890846 188.4731903
135.1371765 16.3601074 188.4894104
135.8483429 15.7060862 188.5168762
136.5439758 15.0360956 188.4931946
137.3213501 14.4230480 188.4999390
138.2044983 13.9005108 188.4942932
139.2149048 13.4994001 188.4867401
140.3044891 13.2085409 188.4735565
141.5943451 13.0268908 188.4643860
-111.8206100 -22.2848263 191.1896667
-111.1996536 -22.7476025 191.1683197
-110.5084610 -23.1321182 191.1831818
132.1471558 22.4986629 187.4635315
132.1819000 21.2889004 187.4783325
132.3430481 20.2025585 187.4975433
132.6119995 19.1884556 187.5120544
132.9784088 18.2667236 187.5332184
133.4440460 17.4108982 187.5636749
133.9326630 16.5963135 187.5637817
134.5158386 15.8486910 187.5567932
135.2019348 15.1786432 187.5745239
135.9077148 14.5122862 187.5888672
136.6468506 13.8824720 187.5669250
137.5574799 13.3739882 187.5981750
138.4885406 12.9180984 187.5829773
139.5102386 12.5502462 187.5671692
142.0847473 12.1264353 187.5678406
-114.2799988 -21.5270901 190.4342957
-113.8525543 -22.1788692 190.4403381
-113.3686295 -22.7952976 190.4432373
-112.8177643 -23.3315449 190.4519043
-112.2070007 -23.8063488 190.4556580
-111.5460815 -24.2189999 190.4514160
-110.8080215 -24.5686283 190.4589081
131.4766235 23.1868477 186.5035248
131.4577789 21.9285698 186.5325317
131.5516663 20.7733002 186.5547028
131.7703400 19.7417316 186.5830231
132.0602570 18.7627621 186.5973511
132.4503632 17.8138866 186.6035309
132.9158325 16.9540596 186.6211853
133.4226074 16.1591015 186.6365356
134.0017700 15.4175253 186.6445160
134.6520691 14.7225780 186.6466522
135.3684540 14.0766935 186.6653595
136.1302032 13.4648037 186.6579285
136.9738312 12.9171715 186.6632538
137.8752441 12.4339046 186.6569824
138.8926544 12.0560818 186.6549683
140.0509033 11.7641087 186.6430664
141.2767944 11.5232887 186.6242218
-115.4306488 -21.6417542 189.7032776
-115.0457230 -22.3403435 189.7185669
-114.6124191 -22.9877872 189.7223816
-112.9523621 -24.6113319 189.7421570
-112.3051224 -25.0523739 189.7373657
-111.6158676 -25.4181805 189.7279968
-110.8306046 -25.6954536 189.7317657
-110.0067139 -25.9255009 189.7139893
-109.0879364 -26.0841961 189.7161713
131.0076752 24.0203724 185.5474854
130.8743744 22.6915092 185.5799561
130.8912201 21.4756336 185.6094666
131.0445404 20.3605499 185.6318512
132.9559631 15.7897224 185.7097931
133.5188141 15.0377350 185.7122040
134.1669464 14.3470411 185.7187500
134.9015808 13.7129545 185.7311859
135.6847992 13.0980921 185.7394104
136.4742432 12.5193787 185.7247314
137.3740540 12.0193624 185.7298584
138.4064636 11.6448145 185.7377930
139.4947968 11.3296642 185.7281036
140.6600342 11.0509396 185.6994324
-116.7303467 -20.7704887 188.9499817
-116.4492645 -21.6241741 188.9557800
-116.0920258 -22.3543148 188.9779663
-115.6856384 -23.0287743 188.9868927
-115.2294617 -23.6561699 188.9927063
-113.5786285 -25.2645226 189.0109711
-112.9236145 -25.7168941 189.0166931
-112.2390442 -26.0983562 189.0124359
-111.4836884 -26.4066677 189.0098114
-110.6794281 -26.6588726 189.0104523
-109.8541260 -26.8833179 188.9809570
-108.8986359 -26.9876919 188.9718018
130.4922333 23.6094284 184.6218262
130.3919983 22.2828789 184.6559601
130.4544678 21.1082993 184.6804657
130.6309967 20.0310879 184.7066040
132.5491791 15.4593019 184.7703094
133.1354218 14.7139406 184.7904205
133.7997284 14.0345726 184.7989655
134.5208893 13.4030685 184.8101807
135.2733917 12.7719975 184.8053894
136.0868835 12.1889801 184.8124695
136.9667511 11.6909008 184.8071594
137.9563446 11.2966185 184.8033905
139.0227356 10.9478836 184.7933197
140.2196045 10.6593714 184.7915497
141.5533295 10.4648609 184.7797089
-117.5792465 -20.5617867 188.2001343
-117.3209305 -21.4133797 188.2220154
-117.0046158 -22.2131119 188.2412109
-116.6314697 -22.9394169 188.2483063
-116.2103577 -23.6042786 188.2561340
-115.7430573 -24.2070522 188.2720947
-112.7726898 -26.6722755 188.2867584
-112.0629349 -27.0072536 188.2689819
-111.2600327 -27.2800903 188.2828217
-110.4609909 -27.5213413 188.2621307
-109.5440674 -27.6691742 188.2508698
-108.5444870 -27.7466125 188.2445984
-107.4466019 -27.7533073 188.2566986
130.0369720 21.9926205 183.7253265
130.5622711 18.7507019 183.7966614
130.8932190 17.7799129 183.8104095
131.3039093 16.8689117 183.8248444
131.7576904 16.0177670 183.8375092
132.2746582 15.2248783 183.8534698
132.8637085 14.4692326 183.8603363
133.5048218 13.7841082 183.8695831
134.1927185 13.1311655 183.8722076
136.6308289 11.4343185 183.8809509
137.6026917 11.0102243 183.8782349
138.6535339 10.6298351 183.8696899
139.7874298 10.3323126 183.8569489
141.0878448 10.1370754 183.8407135
142.6772614 10.0789623 183.8257599
-118.2880249 -20.1853676 187.4531403
-118.0635071 -21.0640697 187.4704132
-117.7907791 -21.9087009 187.4854279
-117.4538727 -22.7093258 187.4974518
-117.0696182 -23.4169750 187.5146332
-116.6476440 -24.0814476 187.5186920
-116.1837311 -24.6885071 187.5230713
-113.2112732 -27.1411114 187.5467834
-112.5056839 -27.4936161 187.5515747
-111.7832108 -27.8108444 187.5413361
-110.9640503 -28.0537605 187.5418396
-110.0858002 -28.2399426 187.5330963
-109.1605759 -28.3810463 187.5058289
-108.1260834 -28.4238186 187.5000610
129.7743073 21.7845554 182.7991180
130.3224792 18.5363464 182.8662109
130.6633301 17.5752487 182.8800812
131.0790710 16.6898727 182.9001923
131.5531921 15.8525133 182.9143219
132.0651093 15.0644722 182.9230194
132.6377869 14.2950468 182.9333801
133.2508850 13.5929308 182.9413452
133.9446411 12.9313250 182.9481964
136.3777313 11.2300644 182.9494324
137.3439026 10.7907276 182.9542389
138.3851471 10.4023705 182.9455109
139.5122223 10.0869846 182.9366150
140.7524414 9.8593092 182.9137726
142.3095093 9.7966852 182.8970337
-118.6818237 -20.6113644 186.7212372
-118.4425659 -21.4557838 186.7432251
-118.1548691 -22.2812920 186.7536621
-117.8051758 -23.0771866 186.7687683
-117.4226532 -23.7979336 186.7877655
-114.9064789 -26.6734066 186.8035736
-114.2443008 -27.1308041 186.8117828
-113.5872803 -27.5517998 186.8085632
-112.9115524 -27.9350204 186.8105164
-110.5549698 -28.7328472 186.7966156
-109.6287537 -28.8880768 186.7890167
-108.6486282 -28.9662895 186.7652588
-107.5638885 -28.9567394 186.7540436
129.6777802 24.2395172 181.7932281
129.5471649 22.8131886 181.8281403
129.5498505 21.5772457 181.8597412
129.6540985 20.4401245 181.8866730
129.8538818 19.3758068 181.9105988
131.9016418 14.9192343 181.9887390
132.4516602 14.1579084 182.0036163
133.0635834 13.4313068 182.0062103
133.7586517 12.7761765 182.0160828
138.1584778 10.2442770 182.0098114
139.2791901 9.9105339 182.0022125
140.5327301 9.6601715 181.9880524
142.0277863 9.5856733 181.9629974
-119.2658157 -20.1305943 185.9620056
-119.0525131 -21.0069180 185.9855652
-118.7945786 -21.8442669 186.0011749
-118.4835129 -22.6281414 186.0245514
-118.1413269 -23.4456882 186.0288239
-117.7751465 -24.1803436 186.0361633
-115.2169571 -27.0162754 186.0840454
-114.5654449 -27.4759636 186.0987244
-113.9399185 -27.9238091 186.0805817
-113.2683258 -28.3069458 186.0839844
-110.9309998 -29.1329460 186.0693054
-110.0371094 -29.3142490 186.0489502
-109.0655441 -29.4186478 186.0369415
-108.0259323 -29.4330997 186.0199127
-106.8831253 -29.3785152 186.0155792
129.8550873 25.7159119 180.8106079
129.5282288 24.1072063 180.8548737
129.3870850 22.7075939 180.8936310
129.3926697 21.4639359 180.9264984
129.5225983 20.3422413 180.9531097
129.7242279 19.2699947 180.9758606
131.7822571 14.8072786 181.0598297
132.3313141 14.0480194 181.0687714
132.9429626 13.3426685 181.0774536
133.6402893 12.6813231 181.0830231
138.0536499 10.1225243 181.0809479
139.1583862 9.7819853 181.0717163
140.3681183 9.5360146 181.0569305
141.8467255 9.4340153 181.0322876
-119.6086044 -20.4900398 185.2300262
-119.3917618 -21.3835049 185.2401581
-118.4445267 -23.7677002 185.2955475
-118.0758972 -24.5053177 185.3015137
-114.2588577 -28.2555885 185.3408661
-113.5846634 -28.6203747 185.3412018
-109.4085541 -29.7998734 185.3105621
-108.4179764 -29.8536167 185.2834320
-107.3020782 -29.8052406 185.2685394
-106.0775833 -29.6854343 185.2576904
129.8289337 25.6951714 179.8663330
129.4707794 24.0483189 179.9156647
129.3026428 22.6256065 179.9553680
129.3160400 21.4086628 179.9871063
129.4575195 20.2859020 180.0150757
129.6603394 19.1939526 180.0403290
129.9421387 18.2199001 180.0621490
130.3126526 17.2911167 180.0792847
130.7290497 16.4109097 180.0961456
131.2032471 15.5579033 180.1103821
131.7115479 14.7710142 180.1227417
132.2699432 14.0104532 180.1339569
136.0172577 10.9237356 180.1530457
136.9462585 10.4708281 180.1502991
137.9528656 10.0732269 180.1418304
139.0538025 9.7299786 180.1333618
140.2787323 9.4641590 180.1199493
141.7511597 9.3548841 180.0986938
-120.0990372 -19.8950233 184.4680786
-119.9158783 -20.8211193 184.4924774
-119.6758575 -21.6719761 184.5124512
-118.6952972 -24.0290051 184.5657196
-118.3162308 -24.7663193 184.5710907
-114.4976959 -28.5185375 184.6073303
-113.8197479 -28.8861675 184.6109161
-109.7168198 -30.1225510 184.5705261
-108.7439270 -30.1961689 184.5519714
-107.6684418 -30.1772671 184.5312347
-106.4509277 -30.0599899 184.5100555
129.8350983 25.7100544 178.9209442
129.4755859 24.0572567 178.9733887
129.3133698 22.6594868 179.0131378
129.3211975 21.4054031 179.0473633
129.4553375 20.2670193 179.0753021
129.6679382 19.2023735 179.1006317
129.9506683 18.2366123 179.1206512
130.3100739 17.2990704 179.1411743
130.7415771 16.4032784 179.1593018
131.2197723 15.5774546 179.1716614
131.7193298 14.7778492 179.1846619
132.2732849 14.0012798 179.1983643
136.0133514 10.9387741 179.2171173
136.9718018 10.4851027 179.2088928
137.9817200 10.0846605 179.2052155
139.0991058 9.7294836 179.1943817
140.2556610 9.4611597 179.1843262
141.7532806 9.3499937 179.1602173
143.4803925 9.3761320 179.1268921
-120.3692780 -20.2176151 183.7283478
-117.0981598 -26.8109970 183.8616180
-116.5668106 -27.3357697 183.8660431
-109.9740219 -30.3841877 183.8291321
-109.0017014 -30.4785309 183.8150635
-107.9543915 -30.4895344 183.7943573
-106.7978287 -30.3935471 183.7677765
129.5321045 24.1136646 178.0281067
129.3929596 22.6975517 178.0705872
129.3978729 21.4865990 178.1011505
130.0106659 18.2766190 178.1808167
130.3626099 17.3289661 178.2023621
130.7915955 16.4604244 178.2152557
131.2658539 15.6132908 178.2328339
136.1034698 10.9813547 178.2740631
137.0101013 10.5418243 178.2742004
138.0551147 10.1375160 178.2650299
139.1471100 9.7841206 178.2542877
140.3770599 9.5199137 178.2378235
141.8357391 9.4089775 178.2166443
-120.7383118 -19.4907017 182.9691315
-120.5856247 -20.4392700 182.9945068
-117.2667084 -26.9850101 183.1228485
-116.7344666 -27.5280304 183.1226501
-110.1613998 -30.5948143 183.0918427
-109.2058487 -30.7065468 183.0770721
-108.1752319 -30.7310181 183.0622101
-107.0483627 -30.6603661 183.0315704
-105.7296448 -30.4586277 183.0045166
129.5544586 22.8337975 177.1258850
129.5413208 21.5800362 177.1593781
130.1235962 18.3667793 177.2384491
130.4712677 17.4434376 177.2580719
130.8946838 16.5304146 177.2752075
131.3527374 15.6762714 177.2909698
136.2027893 11.0655231 177.3358917
137.1428070 10.6315727 177.3267975
138.1786957 10.2336349 177.3182220
139.2406311 9.8829231 177.3164063
140.5028534 9.6287804 177.2966003
141.9460144 9.5210609 177.2760925
-120.9177246 -19.6958809 182.2282257
-120.7519073 -20.6342278 182.2497101
-119.2450638 -24.6547356 182.3396454
-118.8349991 -25.3462257 182.3513641
-112.0868073 -30.3656788 182.3706665
-111.2337723 -30.5797043 182.3600159
-108.3624496 -30.9315815 182.3160095
-107.2387772 -30.8776016 182.2931061
-105.9716034 -30.7005062 182.2619019
129.8099670 23.0674496 176.1639099
129.7803192 21.7507362 176.2092743
129.8665771 20.5988693 176.2392883
130.0573120 19.5287132 176.2719116
130.3158569 18.5090237 176.2922516
130.6505585 17.5874557 176.3067627
131.0603180 16.6530399 176.3312225
131.5192566 15.7866392 176.3526306
132.0341949 15.0110512 176.3560791
132.5988464 14.2601337 176.3745575
136.3718567 11.2061996 176.3949280
137.3151398 10.7714233 176.3860779
138.3370667 10.3726044 176.3762207
139.4633636 10.0309610 176.3597717
140.7202911 9.7974157 176.3497925
-121.0294418 -19.8213139 181.4846039
-120.8652191 -20.7604847 181.5087280
-119.3747940 -24.7872391 181.5979614
-118.9506302 -25.4638920 181.6128998
-112.1824646 -30.4660187 181.6305695
-111.3431625 -30.6920490 181.6188354
-108.5060730 -31.0792313 181.5748596
-107.4175873 -31.0473576 181.5498810
-106.1554871 -30.8805237 181.5183105
-104.6188507 -30.5329571 181.4844055
130.0920105 23.2954655 175.2079620
130.0750122 21.9856453 175.2610779
130.1591492 20.8526478 175.2753754
130.3318481 19.7672024 175.3076019
130.5601349 18.7134171 175.3496857
130.8907318 17.7596149 175.3680725
131.2947845 16.8474808 175.3890076
131.7356873 15.9887819 175.3982086
132.2580566 15.1963539 175.4105377
132.8444824 14.4359398 175.4293976
136.6347046 11.4042950 175.4281006
137.5677948 10.9530306 175.4310913
138.5985870 10.5636444 175.4273529
139.7408447 10.2578030 175.4145050
141.0543213 10.0603266 175.3950958
142.6446533 10.0397043 175.3621216
-121.2146530 -18.8397884 180.7082520
-121.1067505 -19.9176731 180.7370758
-120.9372787 -20.8390865 180.7625427
-120.7101059 -21.6978092 180.7842712
-120.4493866 -22.5345154 180.8073425
-120.1634216 -23.3607788 180.8245850
-119.8423767 -24.1425209 180.8422394
-113.8171921 -30.0000134 180.8993835
-113.0733719 -30.2975883 180.8922424
-112.2632065 -30.5501537 180.8878937
-111.4318466 -30.7906113 180.8759003
-108.5929794 -31.1782665 180.8290863
-107.5024948 -31.1583767 180.8061829
-106.2693634 -31.0085583 180.7753448
130.4466095 22.3051758 174.3021851
130.5093994 21.1050529 174.3401489
130.6581726 20.0318203 174.3558655
130.8812256 18.9841557 174.3836212
131.2091827 18.0320301 174.3959045
131.5906067 17.1086159 174.4190674
132.0113373 16.1996956 174.4603729
132.5462341 15.4102554 174.4613800
133.1351929 14.6887398 174.4489746
136.9136810 11.6244555 174.4964752
137.8628540 11.1859522 174.4876099
138.9427032 10.8319159 174.4745789
140.1458282 10.5603495 174.4517670
141.4598541 10.3979473 174.4450226
-121.1593933 -19.9698391 179.9902191
-120.9829102 -20.8879128 180.0157928
-120.7649612 -21.7626781 180.0390930
-120.5173950 -22.6344509 180.0604858
-120.2359543 -23.4404125 180.0797577
-119.8996735 -24.1911240 180.0972137
-113.8536682 -30.0531826 180.1546326
-113.1299515 -30.3607197 180.1481323
-112.3349075 -30.6320133 180.1386719
-111.4905548 -30.8603630 180.1302643
-108.6524734 -31.2339516 180.0821075
-107.5655518 -31.2224236 180.0585785
-106.3483276 -31.0778637 180.0280609
130.9588776 21.4902592 173.3812714
131.0718689 20.3574314 173.4063721
131.2650757 19.2772541 173.4385223
131.5644073 18.3024712 173.4582977
131.9474335 17.3661709 173.4749756
132.3834991 16.4808540 173.4940033
132.8905792 15.6929874 173.5189667
133.4847565 14.9553194 173.5207825
137.2885742 11.9334021 173.5384979
138.2903442 11.5185966 173.5258942
139.4051819 11.1831236 173.5150299
140.6459198 10.9597988 173.4917755
-121.1869965 -19.9928036 179.2416992
-121.0195313 -20.9279156 179.2682800
-120.8075943 -21.8187180 179.2919922
-120.5492630 -22.6645432 179.3143921
-112.3396225 -30.6478310 179.3925018
-111.4848938 -30.8714142 179.3818359
-108.6467972 -31.2411156 179.3316498
-107.5681992 -31.2291508 179.3085327
-106.3506699 -31.0888271 179.2773590
131.5072632 21.9810696 172.3752899
131.5843811 20.7677345 172.4457092
131.7607117 19.7198372 172.4640961
132.0375366 18.6936703 172.4991302
132.4191132 17.7551537 172.5095825
132.8413849 16.8536091 172.5388794
133.3473206 16.0663242 172.5520020
133.9355164 15.3389168 172.5441589
134.5400238 14.5992508 172.5815735
135.2407532 13.9457474 172.5749512
136.0158844 13.3444214 172.5823212
136.8829956 12.8127871 172.5763550
137.8323975 12.3448114 172.5657654
138.8243408 11.9480028 172.5593719
139.9367065 11.6314297 172.5539246
141.2858582 11.4615574 172.5206909
-121.1787949 -20.0006714 178.4934082
-121.0206299 -20.9430599 178.5203094
-120.7976837 -21.8073902 178.5425720
-120.5182343 -22.6458664 178.5639954
-112.3281937 -30.6128750 178.6429138
-111.4873276 -30.8469524 178.6332397
-108.6222153 -31.2093410 178.5801544
-107.5536880 -31.1997890 178.5584717
-106.3382492 -31.0584660 178.5265045
132.2013092 21.2997646 171.4493256
132.3763885 20.1972904 171.5026093
132.6184387 19.1553268 171.5319214
132.9875336 18.2418346 171.5319672
133.3951263 17.3141708 171.5729370
133.8868866 16.5089264 171.5813446
134.4552612 15.7632704 171.5817719
135.0724945 15.0345821 171.6066437
135.7847595 14.3922615 171.6070099
136.5935669 13.8058167 171.6030426
137.4852905 13.2947464 171.6057434
