81.6021500 10.7726259 85.2680817
81.9911652 9.8297253 85.3449478
82.4477310 8.9849939 85.4137192
82.9748230 8.1872377 85.4609985
83.5392914 7.4471593 85.5125198
84.1252747 6.7432976 85.5418091
84.7684097 6.1126018 85.5755386
85.4659729 5.5515056 85.5952988
86.2202835 5.0418468 85.5948563
87.0518112 4.6035881 85.6003418
87.9276047 4.1968422 85.5885010
88.8359756 3.8459215 85.5686188
89.8145370 3.5637250 85.5213394
90.9084091 3.3964081 85.4743423
92.0167694 3.3132749 85.3959351
93.2797089 3.3559918 85.2949448
128.8753357 21.5296574 80.7161865
128.9589996 20.1967964 80.8631973
129.1679993 19.0319824 80.9845734
129.4556122 17.9740143 81.0874481
129.8216705 16.9912014 81.1747742
130.2450714 16.1102066 81.2521210
133.1756744 12.3674831 81.4779510
133.9412842 11.8025694 81.5009842
138.3487549 9.6260653 81.4387970
139.4185944 9.3801031 81.3930893
140.6001282 9.2319546 81.3312149
141.8804474 9.2026167 81.2411575
143.3886261 9.3386230 81.1193848
35.1931839 3.3154380 88.4908752
35.6437225 2.4741046 88.5526276
36.1565361 1.7530311 88.6073685
36.7611008 1.0923108 88.6451263
37.4100151 0.5145024 88.6713486
38.1005287 -0.0235625 88.6753082
38.8747368 -0.4504595 88.6733093
39.7319183 -0.8122069 88.6603241
40.6001663 -1.1256450 88.6153259
41.6179237 -1.2922873 88.5676193
80.5731659 12.3022003 84.2513428
80.8464813 11.2530689 84.3601227
81.1868134 10.2764940 84.4468613
82.0955658 8.5812864 84.5833206
82.6461029 7.8208027 84.6325989
83.2132263 7.0951614 84.6886673
83.8093109 6.3724842 84.7266541
84.4411392 5.7539229 84.7559967
85.1319199 5.1971836 84.7647934
85.8796997 4.6681509 84.7789383
86.6668396 4.1746054 84.7773819
87.5190887 3.7520683 84.7656479
88.4181137 3.3900225 84.7467346
89.4023743 3.1001141 84.7179489
90.4238205 2.8950131 84.6686020
91.5149460 2.7611315 84.6040115
92.7388992 2.7578869 84.5127869
94.1630478 2.8956339 84.4121170
128.6828918 21.2953396 79.8276138
128.7876434 19.9979439 79.9738617
129.0065765 18.8663063 80.0912170
129.3085632 17.8292122 80.1921844
129.6783905 16.8437233 80.2810974
130.0893860 15.9412937 80.3587189
133.0108032 12.1930161 80.5907211
133.7478638 11.6144066 80.6069565
138.1813812 9.4368267 80.5534668
139.2373199 9.1826744 80.5087891
140.3913879 9.0100870 80.4478455
141.6745605 8.9622221 80.3630142
143.1675415 9.0794697 80.2417374
33.7338867 4.3320036 87.6160202
34.0744247 3.3532238 87.7029419
34.4789581 2.4967341 87.7763214
34.9566231 1.6940092 87.8382187
35.4945602 0.9677693 87.8816528
36.1069984 0.3459033 87.9183655
38.2190666 -1.2267979 87.9605026
39.0323372 -1.6304815 87.9464798
39.8779678 -1.9725333 87.9173050
40.8514977 -2.1871657 87.8788757
41.8906937 -2.3465836 87.8116989
42.9728088 -2.4146373 87.7458191
80.0287628 13.0514336 83.3118668
80.2144241 11.9171467 83.4338760
80.4929123 10.8680687 83.5412140
80.8526230 9.9075947 83.6241608
81.3152771 9.0633421 83.6918716
81.8348083 8.2894192 83.7560196
82.3775482 7.5192304 83.8009796
82.9269714 6.7695022 83.8526764
83.5132904 6.0422568 83.8849487
84.1805649 5.4491215 83.9250031
84.8787155 4.9092088 83.9473419
85.5840149 4.3520398 83.9487228
86.3581009 3.8445222 83.9465179
87.2213516 3.4098227 83.9544067
88.0846100 3.0247903 83.9208908
89.0464172 2.7151518 83.8981323
90.0517044 2.4655516 83.8570786
91.1039658 2.3078244 83.7960281
92.3044281 2.2685869 83.7128754
93.6926880 2.3916025 83.6040192
128.5656891 21.1824932 78.9235687
128.6747742 19.9029598 79.0677490
128.8951569 18.7456112 79.1883698
129.1954803 17.6907082 79.2908707
129.5452271 16.7119579 79.3819046
129.9601898 15.7817879 79.4616623
132.8833466 12.0404272 79.6975403
133.5911560 11.4606419 79.7153473
134.3710938 10.9210243 79.7242355
135.2182312 10.4275408 79.7221298
136.1073608 9.9920769 79.7112427
137.0341339 9.6154118 79.6891708
138.0250397 9.2820349 79.6599503
139.0875092 9.0268326 79.6139526
140.2282715 8.8494396 79.5552216
141.5050049 8.7812891 79.4729614
142.9741669 8.8746233 79.3563156
144.7608185 9.1999712 79.1912231
32.8041344 4.5640779 86.7763519
33.0930290 3.5540049 86.8882141
33.4654884 2.6403341 86.9690857
33.9077263 1.8025360 87.0424118
34.3926620 1.0303905 87.0928268
34.9527321 0.3474119 87.1475983
35.5557976 -0.3079172 87.1636810
37.6480255 -1.9085215 87.2135239
38.4484596 -2.3165865 87.2113190
39.2804794 -2.6725802 87.1804276
40.2395096 -2.9263859 87.1559219
41.1942177 -3.1289794 87.0979309
42.3016472 -3.2133224 87.0336609
43.5125351 -3.1661391 86.9550705
44.7975731 -3.0324774 86.8460312
79.7261505 12.7247210 82.4794922
79.9264221 11.5674915 82.6011276
80.2154846 10.5518026 82.7012024
80.6142960 9.6405449 82.7848282
81.0848389 8.7945080 82.8465881
81.5830765 7.9972162 82.9059601
82.1181259 7.2166843 82.9680862
82.6634903 6.4541664 83.0127563
83.2519913 5.7612619 83.0501175
83.9187775 5.1542263 83.0745468
84.6164856 4.5865383 83.0967484
85.3251724 4.0592031 83.1073990
86.1187286 3.5652070 83.1099548
86.9527588 3.1211782 83.1034470
87.8440247 2.7287641 83.0904694
88.7549820 2.3913400 83.0651169
89.7311249 2.1171422 83.0235901
90.8225937 1.9537904 82.9763336
91.9401855 1.8771566 82.8947678
93.2641220 1.9525214 82.7869568
128.5311890 22.6051617 77.8302078
128.4946899 21.0884323 78.0128326
128.5957642 19.7804127 78.1599655
128.8023834 18.6411495 78.2809677
129.0949402 17.5963058 78.3843079
129.4560242 16.5980434 78.4783401
129.8797455 15.6889658 78.5561295
132.8016052 11.9567213 78.7911530
133.5348816 11.3766451 78.8073196
134.3045807 10.8398113 78.8164597
135.1413574 10.3325567 78.8176804
136.0123138 9.8851967 78.8083954
136.9428253 9.4905338 78.7893219
137.9145660 9.1643925 78.7599335
139.0151215 8.9301510 78.7066803
140.1480408 8.7667494 78.6479416
141.4211578 8.6930151 78.5654984
142.8673553 8.7677364 78.4545364
144.7010345 9.1103249 78.2797470
32.0149918 5.0207829 85.9347610
32.2485886 3.9296341 86.0454178
32.5611954 2.9310637 86.1373901
32.9608688 2.0449452 86.2151718
34.4713707 -0.2378519 86.3730240
35.0809898 -0.8705916 86.4198151
38.7873001 -3.2622886 86.4361725
39.6774368 -3.5540745 86.4071808
40.6427078 -3.7926800 86.3608475
41.6880951 -3.9212389 86.3003387
42.8093643 -3.9523327 86.2203827
44.0421982 -3.8632176 86.1165924
79.3426666 13.7102871 81.4976044
79.4801559 12.4286432 81.6360626
80.4198151 9.3888988 81.9329147
80.8550186 8.5614567 82.0041199
81.3492355 7.7206116 82.0625076
81.8773880 6.9422326 82.1230164
82.4337921 6.1990519 82.1689606
83.0294037 5.5169950 82.2123413
83.6752396 4.8841004 82.2357635
84.3627090 4.3243961 82.2561951
85.0982285 3.8077350 82.2733231
85.8816833 3.3228209 82.2702713
88.5018997 2.1204114 82.2205200
89.4818268 1.8413643 82.1880875
90.5333328 1.6628864 82.1327438
91.6745682 1.5784642 82.0601883
92.9944992 1.6339803 81.9582825
128.4797363 21.0618629 77.0925446
128.5799103 19.7689152 77.2388229
128.7783508 18.6117668 77.3626328
129.0733795 17.5640526 77.4659424
129.4532318 16.5910435 77.5552673
129.8691864 15.6845379 77.6358032
132.7830353 11.9255466 77.8736267
133.5125580 11.3364019 77.8925247
134.2632446 10.7937832 77.9040222
135.1022034 10.2823038 77.9028549
135.9762268 9.8344364 77.8953476
136.9008789 9.4451866 77.8760834
137.8910065 9.1251202 77.8442001
138.9934235 8.9048223 77.7886581
140.1311035 8.7410927 77.7288742
141.4062805 8.6615658 77.6451569
142.8832092 8.7547531 77.5307846
144.6721039 9.0885468 77.3574753
-13.0579309 -4.3040185 89.4641190
-12.5745649 -5.0658212 89.5003586
-12.0074472 -5.7211041 89.5272827
-11.3442211 -6.2411633 89.5506287
-10.6313009 -6.7035356 89.5443726
-9.8688374 -7.0901093 89.5277786
-8.9853907 -7.3406200 89.5271683
-8.0511408 -7.5312023 89.5047379
31.5154114 4.3874836 85.1723709
31.7755089 3.3416502 85.2800064
32.1160812 2.4090242 85.3727646
32.5402451 1.5470517 85.4514618
34.0554428 -0.7404264 85.6021957
34.6615334 -1.3767130 85.6449432
38.3370705 -3.7813182 85.6679382
39.2147102 -4.1023026 85.6416321
40.1694450 -4.3438330 85.6098785
41.1554794 -4.5197964 85.5495834
42.2576218 -4.6070142 85.4810104
43.4544830 -4.5618033 85.3892670
79.1441650 13.4869194 80.6428986
79.2907028 12.1993341 80.7840347
80.2342758 9.1885729 81.0818176
80.6773300 8.3215885 81.1489334
81.1576614 7.5206943 81.2138596
81.6807022 6.7276392 81.2700272
82.2251663 5.9801283 81.3233414
82.8233719 5.2839365 81.3697357
83.4617844 4.6618929 81.3924408
84.1489716 4.0937419 81.4141693
85.6885529 3.0970991 81.4243698
88.3034744 1.8872907 81.3772278
89.2435608 1.6097053 81.3382034
90.3199158 1.4316565 81.2854614
91.4446716 1.3437325 81.2129059
92.7478256 1.3712181 81.1151428
128.5585480 21.1433544 76.1506805
128.6475525 19.8422260 76.2966537
128.8329163 18.6706600 76.4257660
129.1321869 17.5951328 76.5355530
129.4954224 16.6506958 76.6123962
129.8988342 15.7105904 76.7028122
132.7891846 11.9310312 76.9490967
133.4957733 11.3273287 76.9742203
134.2509766 10.7768402 76.9833603
135.0889130 10.2823143 76.9881134
135.9950409 9.8457804 76.9738007
136.9241943 9.4616804 76.9500275
137.9182434 9.1463709 76.9191513
139.0347748 8.9275150 76.8569031
140.1443634 8.7592325 76.8049011
141.4337921 8.6798973 76.7193146
142.9329376 8.7984171 76.5982132
144.7184143 9.1423635 76.4215469
-14.3776102 -4.6148462 88.7415466
-13.9190035 -5.4004865 88.8044891
-13.4134722 -6.1022172 88.8572693
-11.4577818 -7.7366762 88.9204483
-10.7121677 -8.1435909 88.9107742
-9.9089699 -8.4794941 88.8761826
-9.0106258 -8.7141418 88.8433914
30.9273243 5.0900636 84.2780914
31.1348915 3.9696717 84.3988647
31.3982010 2.9007559 84.5011597
32.6369781 0.2813796 84.7243576
33.1590309 -0.4368436 84.7862396
36.3705902 -3.3982239 84.9144440
37.1438675 -3.8232543 84.9100876
37.9624023 -4.2235184 84.8884048
38.8415070 -4.5548983 84.8662033
39.7754021 -4.8077507 84.8358536
40.7411041 -5.0037303 84.7827759
41.8342628 -5.1187768 84.7227554
42.9498367 -5.1400590 84.6350327
44.2080078 -5.0116897 84.5209351
45.7065582 -4.6786466 84.3807297
79.0230713 13.3286886 79.7744293
79.1676788 12.0870295 79.9143982
79.3766479 10.9460535 80.0370026
79.6915207 9.9461918 80.1356201
80.0996017 9.0339642 80.2166367
80.5468140 8.2097311 80.2849045
81.0282974 7.3790712 80.3506546
81.5347900 6.5603709 80.4143219
82.0681305 5.7619162 80.4650726
82.6547165 5.0759735 80.5045013
83.3124924 4.4703846 80.5353622
83.9938507 3.9137933 80.5565338
84.7276764 3.3912840 80.5645065
85.5291061 2.9054258 80.5663605
86.3423309 2.4615149 80.5598755
87.2097778 2.0604055 80.5430374
88.1450882 1.7133560 80.5194626
89.1010590 1.4508451 80.4821548
90.1683273 1.2696398 80.4260330
91.3068466 1.1655334 80.3555756
92.5497360 1.1664606 80.2626801
128.6868134 21.2898006 75.1944504
128.7640381 19.9429607 75.3567886
128.9368134 18.7627659 75.4840622
129.2197723 17.6956539 75.5904160
129.5774078 16.6868286 75.6914825
129.9666290 15.7685843 75.7715530
130.4332886 14.9000835 75.8362274
130.9652710 14.0728970 75.9100189
132.8346558 11.9808378 76.0202179
133.5404663 11.3702230 76.0485916
134.2986450 10.8248072 76.0611267
135.1747131 10.3434467 76.0382996
136.0699463 9.9061565 76.0359573
136.9865723 9.5243597 76.0173187
140.2473907 8.8317671 75.8603668
141.5065918 8.7727451 75.7835007
143.0712280 8.9401588 75.6486053
-15.4959412 -4.6884089 87.9991150
-15.0982676 -5.5125175 88.0769348
-14.6183386 -6.2841439 88.1338043
-14.0812387 -6.9440122 88.1830139
-12.1399975 -8.5969391 88.2386856
-11.4136534 -9.0197515 88.2308960
-10.5974035 -9.3540497 88.2236862
-9.7615108 -9.6532326 88.1793518
30.5857658 4.6804471 83.4913635
30.8010883 3.5750940 83.6090851
31.0752087 2.5490141 83.7147980
32.3308487 -0.0744522 83.9407883
32.8626976 -0.7882480 83.9914932
36.0495567 -3.7751253 84.1120911
36.8373833 -4.2007885 84.1151886
37.6441917 -4.5895414 84.1004715
38.5028305 -4.9328532 84.0724411
39.4219475 -5.2080164 84.0488586
40.3934059 -5.4212365 83.9999695
41.4262390 -5.5568180 83.9414139
42.5621834 -5.6076221 83.8672256
43.7759705 -5.5226049 83.7618713
45.2116165 -5.2447243 83.6216431
78.9414215 13.2354116 78.8971252
79.0841217 11.9822216 79.0396957
79.2877960 10.8277473 79.1657944
79.5920639 9.8119030 79.2661514
79.9951935 8.9333973 79.3443909
80.4603729 8.0821686 79.4147415
80.9384842 7.2541833 79.4790268
81.4466095 6.4397259 79.5435791
81.9742203 5.6797957 79.5989838
82.5569000 4.9635372 79.6419983
83.2131958 4.3465519 79.6696930
83.9018631 3.8001957 79.6852493
84.5834122 3.2727146 79.6981964
85.3949661 2.7691672 79.7029114
86.2429276 2.3308163 79.6916428
87.1292114 1.9481206 79.6754074
88.0743790 1.6279234 79.6427841
89.0429306 1.3564456 79.6061783
90.0417557 1.1412771 79.5591431
91.1797333 1.0262836 79.4902649
92.4438782 1.0330068 79.3966599
93.9210205 1.1668692 79.2710876
128.8815460 21.5254993 74.2156754
128.9591980 20.1756935 74.3851852
129.1062622 18.9461212 74.5218048
129.3636017 17.8479061 74.6355438
129.7032776 16.8610859 74.7233353
130.0997620 15.8890114 74.8276978
130.5493622 15.0238791 74.8945618
131.0768127 14.2030458 74.9483719
132.9670105 12.0971212 75.0689545
133.6690826 11.4888659 75.0971832
134.4285736 10.9440298 75.1116943
135.2786102 10.4647322 75.0995560
136.1639557 10.0181303 75.0967560
137.1100159 9.6430397 75.0659485
140.4097137 8.9815359 74.9047318
141.7186432 8.9719973 74.8156357
143.3182831 9.1828995 74.6720047
-16.1323776 -5.4802413 87.3181915
-15.6873703 -6.2686849 87.3917542
-15.1887703 -7.0128474 87.4396362
-14.6381226 -7.6533036 87.4847107
-11.1908312 -10.0758581 87.5352325
-10.3586760 -10.3987427 87.4989624
-9.4771910 -10.6406794 87.4548721
-8.5403318 -10.8029432 87.4009323
-7.4987917 -10.8598909 87.3321075
-6.3171849 -10.8136091 87.2691879
30.2538815 4.2283802 82.6990967
30.4860401 3.1572101 82.8158798
30.7809982 2.1974103 82.9231339
31.1394062 1.2374334 83.0082779
31.5666752 0.3535641 83.0772858
35.7947998 -4.0841556 83.3161774
36.5708351 -4.5035849 83.3093872
37.3873825 -4.8890595 83.3023758
38.2360001 -5.2509112 83.2805176
39.1328697 -5.5632472 83.2500916
40.0886955 -5.7800679 83.2089920
43.4276009 -5.9578972 82.9826813
44.7611923 -5.7480178 82.8511353
79.0372696 11.9353809 78.1558304
79.2431259 10.7884359 78.2811127
79.5355301 9.7447538 78.3885803
79.9377060 8.8485012 78.4685669
80.4062653 8.0324430 78.5322952
81.9383469 5.6433287 78.7110519
82.5170441 4.9104614 78.7633743
83.1653900 4.2969327 78.7877197
83.8322372 3.7258568 78.8096619
84.5353012 3.1879749 78.8265152
85.3407059 2.7151837 78.8249283
86.2145844 2.2748342 78.8096771
87.0858688 1.8948717 78.7956467
88.0287476 1.5648243 78.7655869
88.9743652 1.2815380 78.7300797
89.9737549 1.0582688 78.6854935
91.0990982 0.9502816 78.6152191
92.3758926 0.9658148 78.5203629
93.8598175 1.1062492 78.3894882
129.2242279 20.4176807 73.4194717
129.3484650 19.1720543 73.5606842
129.5804749 18.0592327 73.6779251
129.9025726 17.0440521 73.7713470
130.2879028 16.0909386 73.8595581
130.7364044 15.2014179 73.9395370
131.2636871 14.3821392 73.9966812
133.1344299 12.2652636 74.1176682
133.8371735 11.6576424 74.1432953
134.6060333 11.1182384 74.1586151
135.4459839 10.6263256 74.1529770
138.3085632 9.5408525 74.0723953
139.4269104 9.3229313 74.0181274
140.6231384 9.2028904 73.9422836
141.9719238 9.2351799 73.8449631
143.6099243 9.4703255 73.6862106
-17.0559616 -5.3200712 86.5382385
-16.6535320 -6.1327410 86.6226501
-16.2028275 -6.9232492 86.6763229
-15.6909523 -7.6465793 86.7326279
-15.1372700 -8.3078241 86.7590866
-11.6996450 -10.7205582 86.8144226
-10.8829479 -11.0595713 86.7902679
-10.0228720 -11.3329344 86.7646484
-9.0929136 -11.5266800 86.7161407
-8.0813942 -11.6067238 86.6490479
-6.9895968 -11.5965281 86.5636673
-5.8191514 -11.4754477 86.4611893
29.9610767 3.9022105 81.9027252
30.2095985 2.8285377 82.0155945
30.5277252 1.8629966 82.1152725
30.8975124 0.9573796 82.2020874
31.3387184 0.1005989 82.2717819
35.5712471 -4.3338218 82.5110931
36.3489952 -4.7653685 82.5062943
37.1572838 -5.1658502 82.4955521
37.9987831 -5.5291538 82.4749603
38.8957634 -5.8351660 82.4472427
39.8499069 -6.0671797 82.4034195
43.1541100 -6.2899384 82.1888504
44.4655113 -6.1157627 82.0634995
79.0567551 11.9383898 77.2622452
79.2562332 10.8113451 77.3854370
79.5461578 9.7403526 77.4966354
79.9292145 8.8330107 77.5791168
80.3910294 8.0095768 77.6444702
81.9430313 5.6138005 77.8303070
82.5063019 4.9129901 77.8732376
83.1292572 4.2686634 77.9066391
83.7937469 3.6829982 77.9301529
84.5416565 3.1693337 77.9320984
85.3389740 2.6934712 77.9382172
86.1701355 2.2440395 77.9324341
87.0516815 1.8525903 77.9149933
87.9711380 1.5269479 77.8886108
88.9458923 1.2506069 77.8464813
89.9903564 1.0587513 77.7930222
91.1356888 0.9631898 77.7189941
92.4161606 0.9791260 77.6225586
93.8802185 1.1248450 77.4938049
129.5772095 20.8320503 72.3883209
129.6932373 19.5669823 72.5516052
129.8811188 18.4015255 72.6821747
130.1728363 17.3330250 72.7934418
130.5561523 16.3806419 72.8780212
130.9993286 15.4714413 72.9681396
131.5092621 14.6400394 73.0221634
133.3497162 12.4888401 73.1499863
134.0712585 11.9031248 73.1792221
134.8499451 11.3842335 73.1714172
135.6923218 10.8731022 73.1793747
138.5747986 9.7943268 73.0988770
139.7258453 9.6109467 73.0246277
140.9341583 9.5273695 72.9589920
142.3774719 9.6358690 72.8325577
-59.1168365 -14.3740015 89.9792175
-58.2793274 -14.6138754 89.9787064
-18.1862621 -4.0012636 85.6296921
-17.8850212 -4.9802694 85.7360916
-17.5125980 -5.8725753 85.8266144
-17.0964279 -6.7118192 85.8916016
-16.6393719 -7.4734411 85.9493637
-10.4874191 -11.8986092 86.0418396
-9.5690498 -12.1082153 86.0024948
-8.5864000 -12.2302504 85.9439468
-7.5580683 -12.2835960 85.8714523
-6.4337907 -12.2294559 85.7703171
-5.1879735 -12.0420036 85.6538010
29.5661163 4.8228669 80.9613800
29.7607574 3.6899536 81.0888596
35.3817024 -4.5699553 81.6898651
36.1556129 -5.0174179 81.6918182
40.6650963 -6.4621315 81.5328293
41.7510643 -6.5559931 81.4654541
42.8876343 -6.5674095 81.3786163
44.2288628 -6.4078860 81.2584381
45.8029633 -6.0738583 81.1018448
78.9947891 13.3752108 76.1814575
79.1364822 12.0181074 76.3553543
79.3292618 10.8690729 76.4803467
79.6003571 9.8220692 76.5901108
79.9664230 8.8618288 76.6867676
80.4101715 8.0165596 76.7525787
80.9103470 7.2108212 76.8118134
81.4325104 6.4288850 76.8731766
81.9831619 5.6691699 76.9282684
82.5412979 4.9344287 76.9829483
84.5605698 3.1800399 77.0420990
85.3539429 2.6940989 77.0452881
86.1934662 2.2601454 77.0352097
87.0842743 1.8912140 77.0247650
88.0350571 1.5628856 76.9839401
88.9937134 1.2984843 76.9475937
90.0423279 1.1081094 76.8910370
91.1847305 1.0115912 76.8186340
92.4428177 1.0347941 76.7284775
130.0944672 19.9880314 71.5484848
130.2590790 18.7822647 71.6932755
130.5216064 17.7186909 71.7925262
130.8883362 16.7503242 71.8734818
131.3183746 15.8110094 71.9639206
131.8080597 14.9532099 72.0403214
133.6270447 12.7669353 72.1844330
135.1361084 11.6596279 72.2006607
135.9861603 11.1756811 72.1983795
136.9078064 10.7585535 72.1817856
137.8671570 10.4126663 72.1533203
138.9300232 10.1460943 72.1118698
140.0868378 9.9977741 72.0389481
141.3501129 9.9747839 71.9586182
-63.1368866 -12.9441633 89.3287506
-62.6265488 -13.6220284 89.3579178
-62.0603828 -14.2275286 89.3913956
-61.4375877 -14.7794180 89.4004288
-60.7238235 -15.1788378 89.4150162
-60.0077286 -15.5411243 89.4026489
-59.2233200 -15.8482618 89.3761902
-58.4045029 -16.0884361 89.3291473
-57.4811783 -16.2178440 89.2957764
-18.6192074 -4.5771351 84.9077835
-18.2945423 -5.5084720 85.0019760
-17.9075508 -6.3819218 85.0844421
-17.4824963 -7.1907897 85.1539764
-16.9990349 -7.9441280 85.2112045
-10.8637371 -12.3892441 85.3091660
-9.9732533 -12.6169920 85.2674713
-9.0136871 -12.7760849 85.2162170
-8.0241413 -12.8743534 85.1470261
-6.9268799 -12.8557081 85.0646210
-5.7404852 -12.7276506 84.9559174
29.3999481 4.6089597 80.1386185
29.6193447 3.4770675 80.2631607
35.2385559 -4.7398124 80.8707581
36.0040092 -5.1973729 80.8689194
40.5246353 -6.6378069 80.7105865
41.5707932 -6.7515216 80.6439743
42.7256508 -6.7732034 80.5600586
44.0425491 -6.6385512 80.4430771
45.5795174 -6.3089767 80.2857590
79.2667084 12.1710033 75.4285812
79.4528198 10.9776449 75.5693817
79.7144547 9.9294090 75.6767044
80.0551147 8.9700975 75.7696381
80.4611969 8.0834103 75.8563843
80.9557266 7.2642264 75.9182281
81.5095825 6.5056534 75.9626389
82.0528030 5.7564030 76.0151825
82.5999451 5.0186214 76.0709457
84.6201477 3.2339001 76.1471100
85.4152679 2.7707419 76.1513748
86.3070602 2.3597879 76.1168976
87.2123337 2.0011384 76.0980835
88.1274948 1.6745501 76.0801849
89.0889435 1.4064779 76.0441284
90.1198807 1.2069528 75.9906387
91.2822723 1.1215340 75.9088364
92.5884094 1.1635013 75.8036194
130.9751282 18.1631031 70.7882614
131.2803955 17.1308861 70.8949585
131.6931152 16.1949482 70.9728546
132.1842804 15.3371372 71.0452576
133.9913788 13.1501875 71.1699219
134.6838989 12.5318861 71.2153931
135.4813080 12.0140667 71.2079926
136.3558350 11.5573311 71.1995773
137.3085632 11.1681213 71.1741409
138.3278656 10.8513508 71.1352081
139.4069214 10.6284494 71.0857697
140.6222687 10.5318890 71.0069504
-64.3381653 -13.2239790 88.6509018
-63.8791733 -13.9643812 88.6965866
-63.3373146 -14.6031494 88.7458725
-59.9706116 -16.8477402 88.7621002
-59.1096153 -17.0611877 88.7427673
-58.2528381 -17.2701702 88.6800079
-57.2986603 -17.3312492 88.6067581
-19.2645149 -4.0018859 84.0644455
-18.9887161 -5.0147724 84.1693573
-16.7905045 -9.0507450 84.5074310
-16.2196503 -9.6640406 84.5454483
-15.5976772 -10.2444677 84.5712433
-14.9548216 -10.7935467 84.5826492
-11.2131929 -12.8073235 84.5632935
-10.3346186 -13.0620041 84.5216751
-9.3765926 -13.2421503 84.4793167
-8.3822889 -13.3438873 84.4168854
-7.3284454 -13.3644104 84.3345413
-6.1820159 -13.2694788 84.2295456
-4.8255825 -13.0293064 84.1095200
29.2883358 4.4690137 79.3047714
29.5183010 3.3497069 79.4269714
29.7875290 2.3203030 79.5368423
30.0956039 1.3293931 79.6377106
30.4659348 0.4121154 79.7252808
30.9124546 -0.4089717 79.7957001
38.4329567 -6.3771977 79.9768677
39.3810616 -6.6151834 79.9348221
40.3793373 -6.7881718 79.8814240
41.4498672 -6.8937597 79.8134995
42.6009941 -6.9084487 79.7284851
43.8872604 -6.8116360 79.6175613
45.4034615 -6.4912782 79.4614792
79.6292038 11.1721210 74.6407547
79.8765640 10.1279430 74.7440262
80.1998672 9.1198320 74.8526154
80.5855560 8.2123718 74.9356308
81.0581436 7.3832955 75.0065002
81.5943222 6.6021309 75.0603638
82.7211151 5.1164327 75.1661606
83.3533249 4.4935589 75.1938248
84.0311508 3.9192066 75.2182007
84.7676849 3.4036655 75.2300186
85.5780716 2.9391739 75.2151031
86.4264145 2.5130982 75.2180939
87.3494492 2.1512494 75.1799545
88.2874146 1.8363497 75.1490479
89.2808151 1.5734338 75.1069107
90.3037033 1.3795422 75.0578384
91.4703293 1.3136054 74.9744720
92.7904587 1.3777196 74.8705902
131.8625183 17.7500019 69.8437576
132.2195740 16.7537766 69.9345169
132.6812134 15.8403072 70.0194168
133.2182770 15.0413542 70.0628204
133.7865295 14.2820530 70.1333466
134.4323578 13.5960827 70.1703262
135.1516571 13.0050430 70.1831512
135.9463043 12.4910126 70.1903000
136.8413849 12.0449810 70.1830521
137.8370514 11.6966581 70.1412277
138.8938446 11.4331455 70.1007919
139.9951782 11.2655563 70.0498962
-65.4069366 -13.2957697 87.9403381
-64.9648285 -14.0855160 88.0031281
-64.4751816 -14.7841215 88.0580292
-63.9252930 -15.3999853 88.0915604
-60.5714035 -17.6667595 88.1280212
-59.7588043 -17.9319096 88.0999527
-58.9028664 -18.1338768 88.0574951
-57.9539032 -18.2328796 87.9962769
-56.9707298 -18.2714062 87.9187622
-55.8267975 -18.1851482 87.8549042
-19.5882435 -4.4334445 83.3088379
-19.2994404 -5.4195123 83.4138107
-17.0721378 -9.4001999 83.7541275
-16.4842949 -10.0079384 83.7804184
-15.8664312 -10.5707550 83.8137207
-15.2371588 -11.1428299 83.8304901
-11.5128479 -13.1770201 83.8059082
-10.6298466 -13.4531565 83.7701340
-9.7126112 -13.6429167 83.7223587
-8.7189522 -13.7604837 83.6613007
-7.6680784 -13.7991247 83.5912247
-6.5603871 -13.7430248 83.4928818
-5.2845254 -13.5509443 83.3720398
29.2420578 4.4313779 78.4502792
29.4599247 3.2611926 78.5835037
29.7046432 2.2364237 78.6941605
30.0088387 1.2359104 78.7983932
30.3938522 0.3141783 78.8861389
30.8477097 -0.5027652 78.9541779
38.3541260 -6.4763021 79.1392975
39.3072472 -6.7136168 79.0962219
40.3008423 -6.8747115 79.0419617
41.3915062 -6.9632378 78.9690323
42.5503807 -6.9838333 78.8820114
43.8257866 -6.8970909 78.7761993
45.3308678 -6.5931578 78.6198044
79.8671646 11.4720736 73.6841583
80.0980072 10.3391447 73.8185043
80.4084167 9.3437462 73.9059372
80.7771072 8.4247437 73.9959564
81.2236099 7.5629554 74.0768890
81.7323074 6.7483301 74.1467056
82.2887650 6.0053310 74.1897583
82.8961411 5.3194513 74.2407684
83.5573349 4.7020950 74.2528229
84.2476425 4.1434660 74.2760696
84.9885712 3.6312704 74.2943573
85.7720490 3.1532636 74.2823486
86.6127014 2.7042866 74.2920532
87.5308609 2.3367829 74.2558975
88.4479141 2.0266237 74.2360840
89.4634323 1.7680355 74.1770248
90.5100403 1.5990677 74.1239471
91.7000885 1.5680884 74.0408936
93.0793304 1.7013048 73.9218674
132.5921631 18.5058784 68.7734756
132.8953247 17.4479122 68.8866959
133.3123627 16.5049782 68.9710312
133.8059387 15.6531544 69.0356903
134.3768005 14.9000893 69.0787811
135.0208130 14.2246332 69.1139069
135.7323761 13.6131802 69.1513748
136.5533752 13.1230259 69.1267548
137.4427490 12.6769438 69.1366730
138.4824524 12.3824835 69.0887146
139.6284485 12.2231407 69.0047684
-66.3626022 -13.2279806 87.2047577
-65.9517822 -14.0515957 87.2800903
-65.4860153 -14.7791605 87.3493347
-61.0919609 -18.3674335 87.4558640
-60.2799721 -18.6292992 87.4338455
-59.4417648 -18.8609333 87.3914719
-58.5414276 -19.0178604 87.3368378
-57.5316620 -19.0583515 87.2818451
-56.5346947 -19.0637150 87.1815643
-55.3998108 -18.9521027 87.1137161
-20.0944576 -3.7142942 82.4291458
-19.8646889 -4.7781234 82.5502472
-19.5586586 -5.7535782 82.6497498
-18.3509521 -8.3112679 82.8833771
-17.8617172 -9.0361166 82.9381638
-17.3095207 -9.7161026 82.9787903
-16.7122154 -10.2936754 83.0186386
-9.9543610 -13.9615879 82.9661865
-8.9789534 -14.1049194 82.9053955
-7.9745154 -14.1746397 82.8339310
-6.8761835 -14.1420422 82.7434921
-5.6263556 -13.9656687 82.6243896
-4.1872845 -13.6749029 82.4873734
29.2341099 4.4087367 77.5942841
29.4391365 3.2273929 77.7308350
30.3800240 0.3041855 78.0328293
30.8190899 -0.5242326 78.1024323
31.3111515 -1.3242253 78.1686325
31.8363018 -2.0385954 78.2180405
40.2781410 -6.9047794 78.1876144
41.3740807 -7.0010438 78.1172256
42.5271034 -7.0197873 78.0302277
43.8270187 -6.9085631 77.9163284
80.2011642 11.8128099 72.7249298
80.3952560 10.6424704 72.8689957
80.6781540 9.6393566 72.9630127
81.0279770 8.6864176 73.0662537
81.4609756 7.8232737 73.1345444
81.9626770 7.0160880 73.1964264
82.5229874 6.2664971 73.2510376
83.1222534 5.5952373 73.2821045
83.7838593 4.9505510 73.3317490
84.4894028 4.4003057 73.3313141
85.2127304 3.8837147 73.3465958
85.9876709 3.3954906 73.3517838
86.8590393 2.9584842 73.3404999
87.7695923 2.5974655 73.3111191
88.7144928 2.2907262 73.2899323
89.7145920 2.0391197 73.2454758
90.8211136 1.9189523 73.1643295
92.0726166 1.9512622 73.0654602
134.0835571 17.3382168 67.8429794
134.5703278 16.4713516 67.9528656
135.1517029 15.7116861 68.0108566
135.8189240 15.0396318 68.0250778
136.5291595 14.4357634 68.0551376
137.3191681 13.9341412 68.0637894
138.2521210 13.5211182 68.0536652
139.3366089 13.2824945 67.9807587
-67.1953201 -13.0291023 86.4508972
-66.8400040 -13.8889961 86.5357590
-66.4158096 -14.6623201 86.6069489
-65.9386292 -15.3961792 86.6555634
-61.5288658 -18.9505138 86.7772522
-60.7171669 -19.2220383 86.7578201
-59.8902893 -19.4811821 86.7209549
-59.0193787 -19.6881428 86.6764374
-58.1199722 -19.8074512 86.6088028
-57.0879173 -19.8080597 86.5437546
-56.0645714 -19.7691212 86.4408112
-54.9040527 -19.6095715 86.3601456
-20.3233643 -4.0072608 81.6575470
-20.0875282 -5.0818181 81.7788849
-19.7770576 -6.0549450 81.8790359
-18.5496845 -8.5520563 82.1077347
-18.0454445 -9.2748766 82.1613312
-17.4965439 -9.9643717 82.1990738
-16.9094887 -10.5435429 82.2404022
-10.1801958 -14.2408800 82.1868134
-9.2144260 -14.3940897 82.1326370
-8.2057743 -14.4764738 82.0670166
-7.1330743 -14.4649229 81.9793549
-5.9000115 -14.3175745 81.8631516
29.2714806 4.4667721 76.7201767
29.4706821 3.3074415 76.8560028
30.4060459 0.3513991 77.1618958
30.8379478 -0.4985155 77.2372360
31.3235035 -1.2937541 77.3049927
31.8487816 -2.0219963 77.3562241
40.2824554 -6.9105401 77.3324280
41.3650360 -7.0087357 77.2614746
42.5507851 -7.0055404 77.1677856
43.8405495 -6.8725448 77.0551376
80.7872696 11.1090288 71.8850632
81.0377808 10.0472107 71.9966888
81.3662033 9.0688953 72.0958099
81.7836914 8.1874847 72.1721649
82.2743912 7.3409653 72.2508926
82.8224640 6.5917850 72.2895432
83.4004288 5.8855424 72.3462601
84.0408401 5.2648683 72.3776550
84.7553101 4.7029691 72.3867340
85.4879456 4.1658974 72.4054794
86.2795944 3.6851170 72.4051819
87.1539841 3.2787371 72.3889389
88.1044617 2.9547763 72.3495560
89.0686646 2.6689661 72.3125534
90.0967407 2.4431865 72.2609634
91.2070084 2.3542745 72.1906357
92.4991379 2.4456210 72.0954437
136.1605072 16.7761822 66.8417740
136.7838440 16.0747032 66.8825455
137.5431519 15.4846525 66.8872375
-111.2104950 -20.7554245 90.1225357
-110.6269913 -21.2987823 90.1347733
-109.9684525 -21.7164860 90.1361542
-109.2463837 -22.0345516 90.1217499
-67.9467621 -12.7088470 85.6749344
-67.6270294 -13.6202965 85.7677689
-67.2446289 -14.4470329 85.8494949
-65.8042145 -16.5937595 86.0068207
-65.2377548 -17.1785469 86.0473633
-63.3587761 -18.7005348 86.0872421
-62.6481857 -19.1120167 86.0807419
-61.9116402 -19.4669228 86.0673523
-61.1257401 -19.7598724 86.0518875
-60.2980537 -20.0290432 86.0211258
-59.4461594 -20.2356339 85.9851913
-58.5406265 -20.3762398 85.9347763
-57.5747337 -20.4445667 85.8688126
-56.5685234 -20.4498100 85.7787552
-55.4416046 -20.2975540 85.6780548
-54.2240715 -20.0521088 85.5650940
-20.6776695 -3.0235593 80.7339325
-20.5072823 -4.2343764 80.8736649
-17.6468201 -10.1624546 81.4168701
-17.0677242 -10.7680025 81.4548721
-16.4807987 -11.3660212 81.4853134
-15.8667631 -11.9395390 81.5063553
-10.3623915 -14.4705353 81.4085007
-9.4009008 -14.6242838 81.3526611
-6.1283803 -14.5993376 81.0929871
-4.7340059 -14.3289032 80.9511642
29.5563068 3.3771892 75.9850693
29.7977047 2.2976336 76.1042328
30.0973663 1.3368037 76.2008667
30.4676971 0.4138101 76.2950211
30.8867855 -0.4425965 76.3720322
32.4551773 -2.6736083 76.5439377
33.0581360 -3.2979305 76.5685654
35.0779915 -4.9424396 76.6226196
35.8341751 -5.3961043 76.6256790
40.3408241 -6.8614411 76.4638672
41.4074402 -6.9561911 76.3976212
42.5786400 -6.9322472 76.3011551
43.9343147 -6.7762942 76.1718597
81.2662659 11.6795187 70.8530884
81.4979858 10.5476952 71.0050125
81.8090057 9.5646496 71.1120148
82.2166290 8.6619291 71.1824493
82.6743698 7.7854061 71.2683716
83.1900330 7.0069146 71.3190231
83.7757492 6.2891421 71.3850784
85.1121902 5.0981741 71.4225769
85.8412399 4.5582080 71.4304886
86.6414108 4.0849910 71.4371414
87.5585632 3.7106636 71.4087753
88.5170746 3.3961973 71.3744125
89.4903793 3.1235988 71.3440399
90.5398026 2.9387634 71.2832031
91.7112732 2.9145558 71.1955643
-112.6476212 -21.4607277 89.5334396
-112.1068420 -22.0849476 89.5561447
-111.4934540 -22.5576706 89.5831146
-110.8476639 -22.9853630 89.5721359
-110.0984344 -23.2514687 89.5800552
-109.3642502 -23.5637379 89.5522690
-108.6025772 -23.8545723 89.5167465
-107.7412796 -23.9838200 89.4926605
-68.3343124 -13.2271175 84.9790039
-68.0002899 -14.1336355 85.0655365
-67.6010742 -14.9321098 85.1430740
-66.1418762 -17.0526104 85.2992096
-65.5622940 -17.6219540 85.3375015
-63.6684380 -19.1221619 85.3851852
-62.9443932 -19.5236988 85.3939056
-62.2272034 -19.8905029 85.3684387
-61.4564972 -20.1935329 85.3522110
-60.6403122 -20.4773998 85.3206406
-59.7837257 -20.6981468 85.2837067
-58.8961220 -20.8684635 85.2308731
-57.9442253 -20.9646034 85.1740494
-56.9652214 -20.9976120 85.0956039
-55.8984375 -20.8942757 84.9916840
-54.6934128 -20.6610641 84.8783722
-20.6463566 -4.4228201 80.0828400
-17.7788067 -10.3132324 80.6251144
-17.2147541 -10.9544668 80.6614609
-16.6343918 -11.5445681 80.6967773
-16.0032692 -12.1061277 80.7193298
-10.4965563 -14.6397047 80.6159668
-9.5430145 -14.8037815 80.5631332
-6.3045077 -14.8146601 80.3079300
-4.9320755 -14.5631924 80.1673203
29.6895504 3.5669844 75.0843277
29.9273815 2.4592600 75.2151947
30.2158165 1.4422953 75.3248367
30.5678139 0.5442168 75.4085846
30.9908714 -0.3511413 75.5035706
32.5522423 -2.5514467 75.6553192
33.1610069 -3.1891363 75.6946259
35.1703568 -4.8487039 75.7556000
35.9305725 -5.2952914 75.7474213
40.4366379 -6.7407861 75.5875778
41.5750694 -6.8041120 75.4928436
42.7420425 -6.7618175 75.4068069
44.1061058 -6.5941167 75.2712021
82.0597229 11.2053833 69.9555206
82.3649292 10.1788797 70.0979691
82.7378235 9.2346230 70.1828156
83.1683731 8.3305531 70.2692566
83.6632538 7.5337963 70.3288651
84.2686081 6.8738580 70.3429184
84.8827896 6.2080679 70.3957596
85.5542297 5.5790625 70.4313507
86.2844696 5.0451593 70.4514465
87.1346741 4.6090055 70.4285278
88.0606003 4.2550845 70.4053802
89.0072174 3.9501998 70.3761749
90.0451660 3.7057302 70.3161011
91.1681366 3.5938902 70.2396164
-114.2972870 -21.1227703 88.8663025
-113.8360062 -21.8518562 88.9126663
-113.3371201 -22.4983940 88.9561996
-111.5332260 -24.0084648 89.0139160
-110.8477783 -24.3792057 88.9979553
-110.1311874 -24.6852551 88.9822540
-109.3470459 -24.9126377 88.9538040
-108.5129166 -25.0748367 88.8992844
-107.6147690 -25.1345882 88.8460770
-106.6582260 -25.1416168 88.7728271
-68.6721725 -13.6873283 84.2697525
-65.2408981 -18.5699024 84.6270218
-64.6128311 -19.0547028 84.6539307
-59.2363930 -21.3092098 84.5184708
-58.3012886 -21.4216518 84.4636612
-57.3299866 -21.4743690 84.3954010
-56.2852364 -21.4147720 84.3045654
-55.1749382 -21.2454853 84.1817169
-20.7440758 -4.5336637 79.2783279
-19.8064976 -7.4441824 79.5850601
-19.3788223 -8.2452345 79.6570358
-6.4181290 -14.9591866 79.5113220
-5.0610619 -14.7278643 79.3725433
29.8747139 3.8087268 74.1695328
30.1088562 2.6902504 74.3118515
30.3946438 1.6624526 74.4254150
30.7533150 0.7627818 74.4983215
31.1592159 -0.1146350 74.5826645
31.6198692 -0.9564358 74.6698990
32.1220932 -1.6896571 74.7164383
33.9251099 -3.6172354 74.8317871
34.5895576 -4.1822000 74.8623810
35.3053703 -4.6858749 74.8676987
36.0708046 -5.1412444 74.8675766
40.6176987 -6.5490737 74.6891174
41.7339249 -6.5962029 74.6043167
42.9388237 -6.5288215 74.5052872
83.3715973 9.9409180 69.1508560
83.7812347 9.0365801 69.2410583
84.2502594 8.1819696 69.3208923
84.8035049 7.4589939 69.3640900
85.4297867 6.7785501 69.4001999
86.1105118 6.1824403 69.4308167
86.8668900 5.6777229 69.4321518
87.7051773 5.2475467 69.4226990
88.6426315 4.8962498 69.3883438
-115.3449783 -21.3041019 88.1930466
-114.9263687 -22.0737228 88.2527924
-114.4291992 -22.7095776 88.3232193
-113.9083862 -23.3439598 88.3652649
-112.1074982 -24.8251686 88.4037399
-111.4201889 -25.2086277 88.4035950
-110.7091217 -25.5360832 88.3908463
-109.9410477 -25.7868462 88.3566513
-109.1148300 -25.9482212 88.3267899
-108.2575989 -26.0872936 88.2630920
-107.3357468 -26.1364117 88.1867981
-106.3288727 -26.0501480 88.0904617
-69.2695541 -13.1283226 83.4511948
-68.9568024 -14.0812225 83.5502167
-65.4725800 -18.8865757 83.9160385
-64.8626938 -19.3861694 83.9290543
-59.5186501 -21.6866608 83.8033981
-58.6105347 -21.8251362 83.7494125
-57.6696472 -21.9057293 83.6794052
-56.6232986 -21.8683376 83.5932159
-55.5036049 -21.7071342 83.4862976
-54.2698097 -21.4709072 83.3569794
-20.7936764 -4.6164446 78.4670792
-19.8632469 -7.4862304 78.7695084
-19.4382553 -8.3093605 78.8446732
-6.4957123 -15.0505543 78.7036057
-5.1290579 -14.8229351 78.5635452
30.3611603 3.0058763 73.3835297
30.6475029 1.9577594 73.5037689
30.9785461 1.0189143 73.5999298
31.3687439 0.0953414 73.6940384
31.8060017 -0.7311774 73.7641678
32.3081894 -1.4933121 73.8317108
34.1183548 -3.4118657 73.9328690
34.7933159 -3.9456427 73.9416351
35.5062294 -4.4498057 73.9563828
36.2683258 -4.9216647 73.9540939
40.8441696 -6.2912002 73.7785645
41.9761238 -6.3175664 73.6946793
43.2472725 -6.1891427 73.5753708
85.0519333 9.0501747 68.2478638
85.5433044 8.2646160 68.3152618
86.1830063 7.6197357 68.3353500
86.8970490 7.0580978 68.3465042
87.6306992 6.5209613 68.3649292
-116.2813263 -21.2961998 87.5115967
-115.8869553 -22.0881310 87.5884171
-115.4468079 -22.8252945 87.6463852
-111.2202454 -26.2692719 87.7588196
-110.4409943 -26.5221882 87.7407074
-109.6529770 -26.7316952 87.6911774
-108.8106613 -26.8799019 87.6485519
-107.9145355 -26.9648075 87.5853195
-106.9166489 -26.9269295 87.5021744
-105.9086151 -26.8133450 87.3998413
-69.5176468 -13.4670906 82.7206802
-69.2002106 -14.3939981 82.8202515
-57.9233475 -22.2510204 82.9576797
-56.8996239 -22.2365513 82.8724289
-55.7982788 -22.1040134 82.7664948
-54.5529556 -21.8579102 82.6345291
-20.7958775 -4.6369562 77.6442642
-19.8820267 -7.5418301 77.9570389
-19.4634666 -8.3538237 78.0281906
-8.7940683 -15.1850224 78.0799561
-7.7232327 -15.1997242 77.9953766
-6.5274282 -15.0931778 77.8868561
-5.1787577 -14.8525324 77.7467880
30.6574268 3.3704321 72.4424210
30.9339790 2.2966661 72.5825119
31.2433090 1.3265619 72.6849213
31.6215115 0.4124786 72.7689209
32.0605812 -0.4343135 72.8439407
32.5491219 -1.2017457 72.9033585
33.0998573 -1.9226571 72.9701385
33.6916084 -2.5607023 73.0017853
34.3419075 -3.1533382 73.0261841
35.0320053 -3.6784563 73.0212708
35.7405891 -4.1934161 73.0517349
36.4897842 -4.6469097 73.0450211
39.0839500 -5.6585574 72.9821396
40.0878487 -5.8361726 72.9140778
41.1474571 -5.9317932 72.8441620
42.3213501 -5.9216447 72.7559280
43.6469078 -5.7522430 72.6132660
-117.1317368 -21.2004509 86.7964706
-116.7643051 -22.0308609 86.8809738
-116.3519440 -22.7880535 86.9480591
-115.8900299 -23.4826069 87.0036469
-111.6467896 -26.8920059 87.1083374
-110.8838654 -27.1521931 87.0899277
-110.0770645 -27.3589973 87.0649338
-109.2668533 -27.5421448 87.0153732
-108.3844986 -27.6530075 86.9556274
-107.4187469 -27.6494923 86.8830872
-106.4314728 -27.5902672 86.7990265
-105.4141312 -27.4720745 86.7003098
-69.9954834 -12.7536793 81.8697968
-69.7187805 -13.7765589 81.9845963
-69.3921738 -14.6884174 82.0789185
-58.1407623 -22.5385876 82.2218628
-57.1423721 -22.5454693 82.1395493
-56.0642700 -22.4465160 82.0387650
-54.8431778 -22.2187881 81.9086533
-20.7621174 -4.5710058 76.8049622
-19.8611374 -7.5013847 77.1210251
-19.4475307 -8.3340569 77.2010574
-8.7898331 -15.1808720 77.2560654
-7.7039876 -15.1854582 77.1674347
-6.5024281 -15.0730047 77.0564957
-5.1389494 -14.8242168 76.9113617
31.2696533 2.7311990 71.6162720
31.5878582 1.7491074 71.7381744
31.9540367 0.7978826 71.8427048
32.3713493 -0.0596029 71.9143295
32.8413467 -0.8584889 71.9847488
33.3773918 -1.5724282 72.0322800
33.9665489 -2.2367730 72.0734482
34.6077614 -2.8343980 72.1093140
35.3120384 -3.3694308 72.1148453
36.0129929 -3.8548527 72.1365738
36.7925034 -4.2918878 72.1259003
39.4366302 -5.2604160 72.0353775
40.4540024 -5.4134626 71.9767990
41.5574875 -5.4656501 71.8953323
-117.5567703 -21.8256626 86.1579208
-117.1656876 -22.6318493 86.2377472
-115.7529678 -24.6793613 86.3984451
-115.1958084 -25.2657928 86.4343948
-113.3842163 -26.6992607 86.4709549
-112.7129669 -27.0792046 86.4769974
-110.4774933 -27.9326439 86.4038696
-109.6614075 -28.1160355 86.3662720
-108.8026352 -28.2568474 86.3103180
-107.9053116 -28.3326817 86.2460632
-106.9848022 -28.3417358 86.1620483
-105.9532852 -28.2182560 86.0687408
-104.8339539 -28.0139294 85.9700546
-70.1725082 -13.0056114 81.1241455
-64.7921524 -20.6445637 81.7129288
-64.0888596 -21.0580521 81.7149734
-56.2633781 -22.7258701 81.3003159
-55.0778351 -22.5222626 81.1746826
-20.6940231 -4.4582386 75.9532776
-20.4420319 -5.5781002 76.0907059
-20.1555290 -6.5325708 76.1954422
-19.8045235 -7.4096818 76.2801361
-19.3975639 -8.2743607 76.3628616
-10.6869555 -14.8667603 76.5421753
-9.7409277 -15.0298548 76.4868469
-8.7373123 -15.1168633 76.4164581
-7.6388793 -15.1116743 76.3271713
-6.4411197 -14.9876251 76.2162247
-5.0249863 -14.7129383 76.0554047
32.0032997 2.2658894 70.7557983
32.3664093 1.3018976 70.8733215
32.7617340 0.4117750 70.9557800
33.2224731 -0.4107538 71.0260925
33.7415810 -1.1464287 71.0838318
34.3210526 -1.8250833 71.1331482
34.9621391 -2.4012663 71.1538925
35.6614571 -2.9240127 71.1607895
36.4142532 -3.4104412 71.1725769
37.1901779 -3.8385503 71.1602097
38.0022392 -4.2313862 71.1509705
38.8957367 -4.5362811 71.1181870
39.8713188 -4.7605639 71.0772552
40.9242096 -4.8748217 71.0101013
42.0718002 -4.8676610 70.9146271
-118.2800140 -21.4934292 85.4111481
-117.9251938 -22.3554420 85.4985275
-117.5184097 -23.1477737 85.5730820
-116.0754623 -25.1692543 85.7269516
-115.5206833 -25.7297916 85.7596664
-113.7118607 -27.1756096 85.8086243
-113.0561218 -27.5772743 85.7992096
-110.8027573 -28.4214592 85.7453232
-110.0137482 -28.6253471 85.6948166
-109.1750488 -28.7880230 85.6578140
-108.3143311 -28.8923302 85.5923691
-107.3822021 -28.9156647 85.5210419
-106.3675842 -28.8318920 85.4314651
-105.3245697 -28.6673584 85.3115082
-70.3175507 -13.1846504 80.3678894
-64.9118195 -20.8188343 80.9566498
-64.2272797 -21.2390404 80.9574966
-56.4208641 -22.9339447 80.5487442
-55.2245255 -22.7320080 80.4227448
-53.8344002 -22.3899174 80.2661667
-20.5752602 -4.3112655 75.0924683
-20.3213882 -5.4058981 75.2303391
-20.0456600 -6.3689599 75.3329315
-19.7089520 -7.2901397 75.4300308
-19.3239899 -8.1697903 75.5224380
-10.6042013 -14.7744961 75.6978455
-9.6611433 -14.9245119 75.6423492
-8.6147652 -14.9903469 75.5603409
-7.5293674 -14.9755735 75.4723663
-6.3187842 -14.8317299 75.3602676
32.8574715 1.8817587 69.8998184
33.2356987 0.9625652 69.9886017
33.6754341 0.1356233 70.0647583
34.1884918 -0.6271986 70.1292496
34.7555847 -1.3085222 70.1761093
35.3786621 -1.8910251 70.1995621
36.0833473 -2.4272606 70.2290573
36.8524933 -2.8762794 70.2005005
37.6312981 -3.3395188 70.2142258
38.4568520 -3.7056155 70.1996841
39.3951874 -3.9588246 70.1473083
40.4056396 -4.1422949 70.0909500
41.5272675 -4.1908832 70.0042419
-118.6073074 -21.9817410 84.7410660
-117.3831558 -24.3241577 84.9628906
-116.8930130 -24.9823341 85.0095825
-112.6310501 -28.3306847 85.1204300
-111.8804016 -28.6200371 85.0929947
-111.1042404 -28.8516502 85.0649414
-110.3141251 -29.0793495 85.0279694
-109.5037918 -29.2475758 84.9814606
-108.5912933 -29.3298988 84.9252090
-107.7155151 -29.3922768 84.8565140
-106.7441711 -29.3644371 84.7714920
-105.7041931 -29.2220669 84.6632843
-104.6070099 -28.9941330 84.5393906
-70.6604309 -12.2506094 79.4752655
-70.4116898 -13.3327866 79.6011734
-56.5551605 -23.0920773 79.7879257
-55.3469315 -22.8998928 79.6615067
-20.1651249 -5.1878386 74.3592224
-19.8981743 -6.2028446 74.4780045
-19.5849247 -7.1440125 74.5769119
-19.2023563 -8.0277967 74.6670990
-8.4875240 -14.8191671 74.7056656
-7.3849387 -14.7825966 74.6160660
34.7657738 0.0750246 69.1182022
35.3172493 -0.6316378 69.1786346
35.9417343 -1.2343483 69.2065735
36.6586037 -1.7570908 69.2035828
37.3786736 -2.2483177 69.2204819
38.1691666 -2.6899185 69.2228699
39.0672646 -2.9854794 69.1834641
40.0164032 -3.2053981 69.1494904
41.1237755 -3.3029168 69.0606079
-119.2192459 -21.4965153 83.9705200
-118.8878937 -22.4177933 84.0651169
-117.6480484 -24.7096119 84.2765656
-117.1495361 -25.3556271 84.3204041
-112.8926620 -28.7114887 84.4224472
-112.1292343 -29.0012856 84.4109726
-111.3796005 -29.2557030 84.3806610
-110.6123352 -29.4915829 84.3409348
-109.7643890 -29.6393623 84.2997284
-108.8836136 -29.7338066 84.2455215
-108.0236359 -29.8330402 84.1743622
-107.0826416 -29.8330574 84.0998611
-106.0496674 -29.7087002 83.9964905
-104.9343567 -29.4778481 83.8762665
-70.7195435 -12.3342218 78.6972504
-70.4787903 -13.4194202 78.8257980
-56.6087914 -23.1863327 79.0122070
-55.4345474 -23.0103092 78.8914871
-19.9670067 -4.8922629 73.4642563
-19.6976833 -5.9210181 73.5959702
-19.4036694 -6.9108953 73.7143021
-19.0313416 -7.8086195 73.7964706
-8.2913179 -14.5748596 73.8352814
-7.1379700 -14.4989672 73.7263565
35.0596046 1.7785201 67.9940186
35.4834557 0.9132556 68.0988693
36.0439568 0.2205266 68.1548996
36.6579857 -0.3928681 68.1804581
37.3210907 -0.9654691 68.2127151
38.0743828 -1.4380869 68.2075348
38.8909492 -1.8239793 68.2048416
39.8458061 -2.0546746 68.1300964
40.9249649 -2.1631808 68.0379791
-119.7729416 -20.9109612 83.1717072
-119.4738922 -21.8932571 83.2807617
-119.1306152 -22.7637939 83.3742676
-113.1244812 -29.0379791 83.7329025
-112.3783798 -29.3410130 83.7179642
-111.6334915 -29.6099930 83.6923218
-110.8340607 -29.8373718 83.6625443
-110.0193710 -29.9915142 83.5993805
-109.1312866 -30.0992374 83.5552979
-108.2765884 -30.2035580 83.4900589
-107.3513870 -30.2183723 83.4164352
-106.3330383 -30.1207790 83.3187561
-105.2485199 -29.9170036 83.2002182
-104.0816650 -29.6310272 83.0619202
-70.7592163 -12.3515043 77.9061356
-70.5160294 -13.4664717 78.0427094
-62.2206001 -22.5959015 78.6051941
-61.3959999 -22.8473911 78.5710907
-56.6575737 -23.2335606 78.2306290
-55.4761467 -23.0504436 78.1075592
-19.4216194 -5.5300288 72.6771317
-19.1384068 -6.5827403 72.8160400
-18.7985058 -7.5290947 72.9110336
-18.3976765 -8.3755684 72.9981689
-17.9279270 -9.1399021 73.0662460
-17.4021759 -9.8362465 73.1068192
-16.8594990 -10.5026226 73.1574326
-16.2812347 -11.1089649 73.1991425
-15.6410427 -11.6657009 73.2146301
-13.5214472 -13.0406408 73.2323227
-12.7233458 -13.3974400 73.2028275
-10.0579815 -14.1188831 73.0822906
-9.0989685 -14.2307463 73.0341568
-8.0176449 -14.2370434 72.9397888
37.6366539 0.7587081 67.0381088
38.3030434 0.2017265 67.0696564
-120.2363815 -20.2090950 82.3514786
-119.9980392 -21.2732906 82.4771500
-119.6870346 -22.2003994 82.5872650
-119.3350372 -23.0717754 82.6796341
-113.3103714 -29.3241940 83.0343628
-112.5881729 -29.6407795 83.0176773
-111.8464737 -29.9238892 82.9874649
-111.0511627 -30.1334152 82.9571228
-110.2066956 -30.2848797 82.9067841
-109.3370132 -30.3978710 82.8600540
-108.4902496 -30.5162544 82.7913742
-107.5814438 -30.5489674 82.7220459
-106.6018753 -30.4876938 82.6296310
-105.5234833 -30.3186836 82.5168991
-104.3770523 -30.0514660 82.3820038
-70.5129471 -13.4445477 77.2434387
-62.2349319 -22.6198196 77.8231125
-61.4106407 -22.8705120 77.7865372
-56.6650314 -23.2309875 77.4399185
-55.4505081 -23.0304451 77.3085175
-18.8336506 -6.2034583 71.9076157
-18.5223846 -7.1710019 72.0199127
-18.1317272 -8.0426941 72.1075287
-17.6769581 -8.8149137 72.1696777
-17.1725674 -9.5279112 72.2220383
-16.6270599 -10.2219973 72.2856827
-16.0448437 -10.8258123 72.3171539
-15.4125767 -11.3951035 72.3409424
-13.3077383 -12.7627974 72.3595657
-12.4906397 -13.1061726 72.3328476
-9.7842741 -13.7622252 72.1932373
-8.7647295 -13.8211937 72.1243668
-7.6514764 -13.7914791 72.0145416
-120.4521484 -20.5325603 81.6540680
-120.1970596 -21.5892448 81.7773209
-118.2373199 -25.5945187 82.1714020
-117.7388000 -26.2373371 82.2181091
-110.4077911 -30.5568695 82.1956253
-109.5470200 -30.6828728 82.1503220
-104.6149368 -30.3804588 81.6860733
-70.4604263 -13.3647327 76.4337463
-70.1672821 -14.3682699 76.5551529
-69.8405380 -15.2880583 76.6526260
-63.7391548 -21.9231606 77.0629044
-62.9920235 -22.2782364 77.0456924
-62.1926003 -22.5736179 77.0185089
-61.3653641 -22.8203888 76.9886856
-56.5991249 -23.1705132 76.6293259
-55.4063339 -22.9704323 76.5061646
-17.7944641 -7.6001573 71.1856308
-17.3638535 -8.4164772 71.2764816
-16.8657417 -9.1583633 71.3226318
-16.3171673 -9.8367376 71.3707581
-11.3089523 -12.9947367 71.3776550
-10.4073610 -13.2079897 71.3559647
-9.3782988 -13.2761383 71.2628784
-8.3045616 -13.2852726 71.1751862
-120.6353073 -20.7855988 80.9464035
-120.3639755 -21.8154697 81.0659790
-118.3675690 -25.7833710 81.4526062
-117.8743515 -26.4152050 81.5007401
-110.5672531 -30.7886963 81.4888763
-109.7207108 -30.9223442 81.4367828
-104.7976761 -30.6434727 80.9769821
-70.0879211 -14.2436743 75.7350693
-69.7645645 -15.2037439 75.8451157
-63.6833649 -21.8533611 76.2574921
-62.9434586 -22.1914425 76.2466278
-62.1223869 -22.4711094 76.2079010
-61.2966614 -22.7306194 76.1779785
-56.5322113 -23.0576382 75.8183212
-55.2496109 -22.8225746 75.6668625
-17.3623905 -7.0637574 70.2585983
-16.9546242 -7.8908253 70.3371353
-16.4833527 -8.6786032 70.4088821
-15.9537668 -9.3669167 70.4612122
-10.9346256 -12.5194626 70.4776001
-9.9468412 -12.6458282 70.4014359
-8.9110451 -12.6728039 70.3138657
-7.7793136 -12.6347170 70.2068939
-120.7687073 -20.9801426 80.2242813
-120.4912949 -21.9990406 80.3420563
