-68.2742310 -15.4117298 71.8814774
-68.0331650 -15.8583384 71.9527054
-54.7709198 -21.3076038 71.9198914
-54.2206764 -21.1275139 71.8575058
-12.8812284 -7.3839278 66.9824753
-11.9123144 -8.2394829 67.1195755
-10.7996550 -8.9296322 67.1204529
-10.3575640 -9.0295162 67.0614243
-9.9459877 -9.1348753 67.0385361
-67.9056702 -15.6081734 71.5052643
-54.6362457 -21.0233669 71.4759293
-120.1268921 -23.5195770 75.7967453
-119.8888550 -23.9854069 75.8626709
-102.1152115 -29.7166958 75.5592804
-67.7643967 -15.3417234 71.0448303
-55.5521011 -21.0256805 71.1364670
-55.0374298 -20.8876343 71.0899887
-119.8507004 -23.8800144 75.4527588
-102.0502548 -29.5998344 75.1447754
-55.3904228 -20.7004547 70.6720200
-119.8059921 -23.7639141 75.0394592
-66.7617874 -16.0039139 70.2723999
-66.5005493 -16.4078178 70.3418198
-56.2632980 -20.6266155 70.3272552
-55.7267456 -20.4928551 70.2596436
-119.7586823 -23.6593952 74.6361084
-66.3428802 -16.0724373 69.8495712
-56.0641785 -20.2636585 69.8566971
-119.2571106 -24.4822197 74.3579178
-104.2688828 -30.3429775 74.2591858
-103.7486267 -30.1302071 74.1950531
-103.1286926 -29.8307838 74.1033783
-65.8957138 -16.1594601 69.4454498
-65.6303177 -16.4977055 69.4747772
-56.8780060 -20.0480595 69.4758301
-56.3732834 -19.9602795 69.4103699
-119.4603195 -23.9099064 73.8809204
-119.2215729 -24.3686848 73.9457397
-104.1846161 -30.1834717 73.8378448
-104.1032791 -30.0125465 73.4222565
-64.9308014 -16.0523014 68.5471344
-64.6383133 -16.4095821 68.6162949
-57.3580856 -19.2198410 68.5774918
-56.8556290 -19.1541824 68.5309296
-119.0954514 -23.9932137 73.0789642
-64.3824844 -15.8710194 68.0600891
-57.0228157 -18.6430569 68.0252380
-104.9560013 -29.9685574 72.7084579
-104.3937225 -29.7710152 72.6160278
-63.4996376 -15.9643784 67.6271667
-63.1960640 -16.2995777 67.7074890
-62.8842125 -16.5951233 67.7481537
-62.5585136 -16.8634758 67.7503815
-62.2398186 -17.1189003 67.7536774
-61.9207001 -17.3557835 67.7762299
-61.5711403 -17.5372772 67.7870941
-58.6746826 -18.1825676 67.6914825
-58.1737328 -18.1673241 67.6265793
-57.6786575 -18.1340523 67.5689240
-104.8318710 -29.7293205 72.2638779
-62.8681641 -15.6337004 67.1158981
-62.5679741 -15.9648323 67.1581802
-61.2380371 -16.9276695 67.2489014
-118.3489761 -24.2488232 71.9112091
-104.7153015 -29.4721851 71.8414993
-60.8232498 -16.3878307 66.7707748
-60.4315262 -16.4022865 66.7010040
-60.0297432 -16.4158916 66.6412277
-104.5400314 -29.1370125 71.3845215
-117.6462860 -24.5243073 71.1176834
-105.4504852 -29.1981640 71.0963821
-104.8568878 -28.9590435 70.9830093
-105.1273346 -28.7051868 70.5427628
-104.9776917 -28.3361702 70.1202087
-116.2512970 -24.4531898 69.5036011
-115.9863586 -24.7929535 69.5489655
-106.7324982 -28.2178516 69.4675751
-106.2029800 -28.0559139 69.3896179
-115.8079681 -24.3822060 69.0306320
-106.4695587 -27.7266254 68.9389343
-115.0491409 -24.6475792 68.6308060
-114.7710571 -25.0061817 68.6904449
-114.4901581 -25.3113327 68.7359161
-109.9650955 -27.6543159 68.8269882
-109.5328903 -27.6777725 68.7766418
-109.1016541 -27.6940536 68.7506027
-108.6756516 -27.7030029 68.7429733
-108.2301025 -27.6724148 68.7095108
-107.7546997 -27.6049385 68.6452866
-114.2698135 -24.8627682 68.2304382
-109.7101364 -27.1839600 68.3215790
-109.3366547 -27.2449207 68.2983932
-108.8859329 -27.2907085 68.3055954
-108.4392776 -27.2277546 68.2308655
-107.9834137 -27.1817532 68.1866531
-113.4378738 -24.9409962 67.8299484
-111.7719269 -25.9883385 67.9188080
-111.4109421 -26.1514626 67.9093704
-111.0458450 -26.3108940 67.9235687
-110.6591492 -26.4205246 67.9095764
-110.2547455 -26.5013046 67.8792877
-109.8462372 -26.5810719 67.8528442
-109.4803772 -26.6138783 67.7969742
-111.7786179 -24.1890430 66.7932053
-111.5126343 -24.4956512 66.8585587
-111.9419174 -24.7755985 342.4303284
-111.1813660 -25.0334091 342.4790039
-110.4061661 -25.2620735 342.5129395
-114.3933182 -24.4365902 341.5472412
-113.8036880 -25.0096188 341.4870605
-113.1665039 -25.4871674 341.4726563
-112.4781265 -25.9062614 341.4543152
-111.7489471 -26.1992950 341.4649353
-110.9798737 -26.4057560 341.4911194
-110.2053223 -26.5393162 341.5198059
-109.3198090 -26.5512753 341.6133728
-108.3880310 -26.4432068 341.7028503
-115.4422073 -24.8533516 340.6120911
-114.8637390 -25.4313412 340.5744019
-109.7636261 -27.4688416 340.6483765
-108.8626251 -27.4245586 340.7250977
-107.9475174 -27.3449783 340.8052979
-116.8712616 -24.1915092 339.8471375
-116.3451004 -24.9181938 339.7755737
-115.7873001 -25.5698833 339.7256775
-115.2039185 -26.1312199 339.6779480
-110.1109695 -28.2188454 339.7450256
-109.2524567 -28.2337513 339.8130493
-108.3549957 -28.1826706 339.8756409
-107.3922119 -28.0094700 339.9844360
-117.1931610 -24.8071709 338.9666138
-116.6329803 -25.5254517 338.8940735
-116.0464935 -26.1442604 338.8365479
-115.4494019 -26.6862087 338.7996826
-111.9711990 -28.5034943 338.7984619
-111.1987839 -28.6899815 338.8274536
-110.4148560 -28.8229465 338.8683777
-109.5721130 -28.8854504 338.9170532
-108.6723557 -28.8456173 338.9831238
-107.7310562 -28.6991863 339.0796509
-106.7575302 -28.5235043 339.1864624
-117.9673691 -24.6518440 338.1388855
-117.4479294 -25.3380947 338.0859375
-116.8519363 -25.9799099 338.0342407
-116.2545395 -26.5111618 338.0327454
-115.6506577 -27.0983543 337.9581909
-112.1827240 -28.9537125 337.9505310
-111.4299545 -29.1612873 337.9665833
-110.6388016 -29.3027382 338.0100098
-109.8030090 -29.3798943 338.0561523
-108.9267960 -29.3634663 338.1217651
-108.0033798 -29.2639122 338.2055359
-107.0415192 -29.0958557 338.2945557
-106.0227509 -28.8436184 338.4226074
-118.1719360 -25.0945072 337.2969971
-117.6367264 -25.7497425 337.2489929
-117.0256653 -26.3624325 337.1955566
-116.4178696 -26.9096489 337.1679077
-115.8195953 -27.4577541 337.1322021
-109.1137543 -29.7699661 337.2842102
-108.2330856 -29.7175407 337.3441467
-107.2883453 -29.5742245 337.4368591
-106.2983780 -29.3503799 337.5386047
-118.8489532 -24.6814346 336.5352783
-118.3409500 -25.4406300 336.4625244
-117.7888031 -26.1243114 336.3939819
-117.1796570 -26.7076607 336.3597717
-116.5718613 -27.2274494 336.3356934
-115.9599075 -27.7732410 336.2849426
-109.2763901 -30.1019382 336.4523010
-108.3981628 -30.0668163 336.5209961
-107.4681625 -29.9613914 336.6011353
-106.4836960 -29.7703629 336.6948242
-105.4686203 -29.4940586 336.8172607
-63.9528160 -16.3006535 341.7149963
-63.3120117 -16.8461514 341.6619873
-62.6280937 -17.2736969 341.6522217
-61.8961067 -17.6296215 341.6648560
-61.1224899 -17.9188118 341.6751709
-60.3100052 -18.1118488 341.7079773
-59.4116516 -18.1728992 341.7872314
-119.4659653 -24.1680126 335.7918091
-118.9832230 -24.9910774 335.7084045
-118.4644547 -25.7277393 335.6420288
-117.9004059 -26.3915310 335.5794983
-117.2887573 -26.9395695 335.5518799
-116.6747971 -27.4530945 335.5332031
-116.0786057 -27.9777069 335.5076294
-115.4405441 -28.4823742 335.4721375
-114.7636871 -28.9241982 335.4539795
-114.0976181 -29.2875671 335.4409790
-113.3790894 -29.5936737 335.4507751
-112.6292496 -29.8606606 335.4654236
-111.8601227 -30.0620689 335.4919739
-111.0703583 -30.2179680 335.5250854
-110.2603073 -30.3222294 335.5713501
-107.6173553 -30.2773933 335.7669373
-106.6552124 -30.1158676 335.8563843
-105.6767120 -29.8653469 335.9587402
-104.5895462 -29.4884949 336.1047058
-65.5993576 -15.9459124 340.8321838
-65.0471954 -16.6065655 340.7897644
-64.4352264 -17.2051411 340.7490845
-60.8108978 -19.0402279 340.7461853
-59.9496574 -19.1383781 340.7835999
-59.0019798 -19.1246033 340.8677063
-58.0269585 -19.0777225 340.9655457
-120.0325928 -23.5608997 335.0642090
-119.5799713 -24.4360161 334.9729614
-119.0842514 -25.2379646 334.8931274
-118.5670395 -25.9264259 334.8403015
-117.9850159 -26.5594082 334.7859497
-117.3817978 -27.1056423 334.7558594
-116.7717590 -27.6666336 334.7189026
-116.1599808 -28.2174473 334.6715393
-115.5246811 -28.6866455 334.6508789
-114.8441544 -29.1018200 334.6499939
-114.1645508 -29.4439812 334.6516724
-113.4482346 -29.7450333 334.6623230
-112.7047958 -30.0142403 334.6691589
-111.9417953 -30.2256279 334.6996460
-111.1441193 -30.4041920 334.7286987
-110.3420258 -30.5218906 334.7733154
-107.7163391 -30.5004005 334.9658203
-106.7618790 -30.3583355 335.0541077
-105.7901230 -30.1318779 335.1506653
-104.7299728 -29.7601929 335.2810974
-66.0021515 -16.7035370 339.9039612
-65.4343567 -17.3355904 339.8587036
-64.8116684 -17.9101601 339.8223877
-61.1997795 -19.7536469 339.8175659
-60.3496780 -19.8766556 339.8650513
-59.4549828 -19.9705029 339.8967285
-58.5032997 -19.9453640 339.9773560
-120.1268082 -23.7925606 334.2491150
-119.6679535 -24.6432133 334.1636353
-119.1650391 -25.4073009 334.0945435
-118.6212234 -26.1019878 334.0286255
-118.0535278 -26.6886463 333.9920349
-117.4458847 -27.2934990 333.9466248
-116.8446426 -27.8772793 333.9027405
-116.2305450 -28.3738632 333.8870850
-107.8014603 -30.6822395 334.1557007
-106.8610764 -30.5602608 334.2407532
-105.8991089 -30.3514290 334.3353882
-104.8547134 -29.9984989 334.4567566
-103.6941528 -29.5428314 334.6182861
-67.3994751 -15.8527079 339.1275635
-66.8782196 -16.6129475 339.0583191
-66.3222656 -17.3008499 339.0015869
-61.4797287 -20.2802696 338.9270020
-60.6254196 -20.4165344 338.9877319
-59.7733421 -20.5592537 339.0042114
-58.8519592 -20.5933380 339.0603027
-57.9095764 -20.5293293 339.1318970
-56.8609390 -20.3706322 339.2583923
-120.6158524 -23.0110912 333.5567322
-120.1836624 -23.9432278 333.4542236
-119.7173462 -24.7697983 333.3720398
-119.2139359 -25.5212402 333.3016663
-118.6653214 -26.1867561 333.2468262
-118.0978622 -26.7887688 333.2051392
-117.4938660 -27.4320927 333.1506653
-116.9011841 -27.9832268 333.1214294
-116.2776489 -28.4593620 333.0938721
-107.8541260 -30.8077850 333.3638611
-106.9322586 -30.7011471 333.4431458
-105.9636307 -30.4930801 333.5411377
-104.9052277 -30.1493053 333.6663208
-103.8067245 -29.7423363 333.7996216
-68.1809616 -15.6134672 338.2969971
-67.6955795 -16.4143867 338.2272644
-67.1568832 -17.1480732 338.1587524
-66.5901794 -17.8007317 338.1093750
-61.7139130 -20.7461071 338.0423584
-60.9079819 -20.9305286 338.0680542
-60.0442886 -21.0657501 338.1158752
-59.1307449 -21.1200027 338.1723633
-58.1881905 -21.0826702 338.2445068
-57.2044067 -20.9706860 338.3240662
-56.1352196 -20.7409916 338.4407043
-54.9888763 -20.3438091 338.5954285
-121.0563431 -22.0332298 332.8900757
-120.6439667 -23.0966110 332.7664490
-118.1284866 -26.8466244 332.4266052
-117.5270004 -27.4874668 332.3727722
-115.6445389 -28.9519386 332.3017578
-114.9616013 -29.3649063 332.2882690
-106.0030136 -30.5670528 332.7546082
-104.9657364 -30.2540798 332.8717041
-103.8759232 -29.8650417 333.0007629
-68.8669739 -15.1702032 337.5216064
-68.4233780 -16.0665016 337.4223022
-67.9195251 -16.8639393 337.3481750
-67.3755569 -17.5624886 337.2940979
-66.7963715 -18.2036190 337.2406006
-63.4516296 -20.5726738 337.1420288
-62.7068214 -20.8860016 337.1494751
-61.9297829 -21.1325626 337.1666565
-61.1084557 -21.3185101 337.2165222
-60.2558899 -21.4756985 337.2353210
-59.3479347 -21.5456047 337.2950439
-58.4367409 -21.5383396 337.3703613
-57.4716644 -21.4712658 337.4334412
-56.4192924 -21.2530823 337.5469666
-55.3269386 -20.9214306 337.6656494
-11.8783169 -7.8129830 342.5846558
-11.1091022 -8.1832600 342.5701294
-10.2313423 -8.3852777 342.6172180
-121.0712891 -22.0675411 332.1096497
-120.6548767 -23.1200066 331.9903259
-118.1301117 -26.8939838 331.6444397
-117.5374527 -27.4959431 331.6043091
-115.6308289 -28.9584885 331.5317993
-114.9572906 -29.3520355 331.5277100
-105.9932251 -30.5718060 331.9844971
-104.9851074 -30.2903728 332.0920715
-103.8848801 -29.9008312 332.2227783
-69.4995575 -14.6088152 336.7569275
-69.0736465 -15.5712700 336.6438904
-68.6136856 -16.4213276 336.5655212
-68.0967407 -17.2121181 336.4829712
-67.5382156 -17.9036942 336.4246216
-66.9562759 -18.5042496 336.3879395
-63.6064606 -20.8540936 336.3020020
-62.8419724 -21.1531105 336.3242493
-62.0901947 -21.4219646 336.3244934
-61.2744102 -21.6233215 336.3565979
-60.4131470 -21.7725735 336.3958740
-59.5256157 -21.8705597 336.4445190
-58.6193085 -21.9008121 336.5004883
-57.6799545 -21.8517189 336.5685120
-56.6868744 -21.7012997 336.6599121
-55.6195755 -21.4301186 336.7659607
-14.5607319 -7.3274407 341.6258240
-13.9606848 -8.0415773 341.5375366
-13.3287668 -8.6072636 341.4956970
-12.6102543 -9.0530663 341.4983521
-11.8510065 -9.4391136 341.4859009
-11.0134068 -9.6856842 341.5160217
-10.1700363 -9.8781538 341.5363770
-9.2268696 -9.9523458 341.6068115
-121.0599594 -22.0517368 331.3381042
-120.6358948 -23.1080475 331.2202454
-119.2278900 -25.5651340 330.9806824
-118.6864624 -26.2529392 330.9220886
-111.2537689 -30.6478748 330.8346252
-110.4498749 -30.7679749 330.8733826
-103.8549805 -29.8713932 331.4558411
-69.6718140 -14.9572668 335.8863831
-69.2297974 -15.8874540 335.7908325
-63.7251129 -21.0904617 335.4478455
-62.9784164 -21.3984699 335.4676819
-62.2237053 -21.6709576 335.4773865
-61.4104652 -21.8642864 335.5088806
-60.5318108 -22.0206242 335.5597534
-59.6823540 -22.1412754 335.5893555
-58.7789154 -22.1779537 335.6526794
-57.8201942 -22.1358337 335.7295227
-56.8418617 -22.0217514 335.8045959
-55.8098640 -21.7883873 335.9081116
-54.6471252 -21.4346237 336.0495605
-15.6733665 -7.6085157 340.6505127
-15.1110983 -8.3180494 340.5902100
-14.5059891 -8.9546347 340.5572510
-13.8689327 -9.5242844 340.5221252
-13.1729879 -10.0115824 340.4951782
-12.4076042 -10.3857994 340.4986877
-11.5900917 -10.6542959 340.5287476
-10.7603903 -10.8809032 340.5364075
-9.8408098 -10.9916840 340.5852661
-8.8793316 -11.0362940 340.6606750
-121.0226822 -21.9765682 330.5764160
-120.5970001 -23.0221901 330.4623413
-119.1880035 -25.4862938 330.2222595
-118.6503754 -26.1929264 330.1627502
-111.2079544 -30.5752831 330.0769348
-110.3908386 -30.6616688 330.1215515
-103.8301697 -29.7959747 330.6938782
-69.8028946 -15.2211123 335.0433960
-69.3508148 -16.1236057 334.9529114
-63.8229790 -21.2848244 334.6234741
-63.0860748 -21.6017628 334.6309509
-62.3189583 -21.8572884 334.6499023
-61.5092773 -22.0592728 334.6820374
-60.6673737 -22.2381096 334.7098999
-59.7868309 -22.3511810 334.7577820
-58.8868904 -22.3921967 334.8138428
-57.9629021 -22.3725281 334.8789673
-56.9764824 -22.2686462 334.9654541
-55.9640236 -22.0737247 335.0597534
-54.8632698 -21.7732544 335.1754761
-16.6611748 -7.6041164 339.7602539
-16.1218624 -8.3473549 339.6974182
-15.5523119 -9.0474691 339.6448669
-14.9358311 -9.7067938 339.5860291
-14.2901525 -10.2430429 339.5600281
-13.5828638 -10.6984844 339.5500183
-12.8292103 -11.0881596 339.5410767
-12.0274630 -11.3777714 339.5757751
-11.2089844 -11.6198416 339.5854492
-10.3089628 -11.7594757 339.6308594
-9.3732557 -11.8475065 339.6699829
-8.3831863 -11.8411322 339.7535095
-7.2904892 -11.7136736 339.8682556
-120.5376434 -22.9103031 329.7080994
-120.0882416 -23.7958088 329.6190796
-119.6212769 -24.6089039 329.5404053
-119.1263809 -25.3560219 329.4721985
-118.5900116 -26.0522213 329.4143982
-118.0235367 -26.6692505 329.3693848
-117.4020920 -27.2670727 329.3311157
-114.1493454 -29.4768124 329.2543640
-113.4442291 -29.7841110 329.2611084
-112.6803284 -30.0597191 329.2754822
-111.9295807 -30.2910576 329.2967834
-111.1421661 -30.4341469 329.3305359
-110.3192978 -30.4983463 329.3806458
-109.4886398 -30.5559444 329.4263000
-108.6456604 -30.6126041 329.4791260
-103.7534332 -29.6556244 329.9444885
-70.3297348 -14.4026279 334.3231812
-69.9040680 -15.4116249 334.2062683
-69.4396667 -16.3093414 334.1157227
-63.8894463 -21.4129009 333.8076477
-63.1487885 -21.7326412 333.8121948
-60.7404671 -22.3761978 333.8897095
-59.8474350 -22.4831905 333.9408569
-54.9986076 -22.0094166 334.3298645
-18.0072060 -6.5312128 338.9919434
-17.5462933 -7.4456830 338.8887329
-17.0219784 -8.2440834 338.8145447
-16.4750710 -9.0015240 338.7362671
-15.9001942 -9.6760540 338.6865540
-15.2639465 -10.2478323 338.6757507
-11.5670958 -12.2201490 338.6481628
-10.6806259 -12.3881550 338.6966858
-9.7673664 -12.5078955 338.7340698
-8.7942133 -12.5273600 338.7952881
-7.7516618 -12.4449196 338.8746948
-6.6450000 -12.2767525 338.9919434
-119.9986038 -23.6010704 328.8791504
-119.5332031 -24.4281063 328.7981262
-119.0252533 -25.2067356 328.7284546
-118.4946518 -25.8712692 328.6757202
-117.9125061 -26.4816933 328.6380310
-117.3049850 -27.0849648 328.5969238
-114.0645142 -29.3087387 328.5126343
-113.3421249 -29.6110783 328.5199280
-112.5966263 -29.8764858 328.5386658
-111.8302155 -30.0983219 328.5574951
-111.0391312 -30.2305183 328.5932617
-110.2145691 -30.3103123 328.6385193
-109.3922348 -30.3955631 328.6840820
-108.5472565 -30.4468231 328.7342224
-103.6630325 -29.4626637 329.2044983
-69.9686661 -15.5528002 333.3827515
-69.4979019 -16.4035206 333.3031616
-63.9306259 -21.4992847 332.9942627
-63.1984863 -21.8185349 332.9981689
-60.7820244 -22.4479885 333.0804138
-59.9067650 -22.5658531 333.1243286
-55.0617371 -22.1375923 333.5121460
-53.8237343 -21.7078323 333.6612549
-18.3476925 -7.1280513 338.0505066
-17.8540440 -7.9399500 337.9941101
-17.3141651 -8.6916189 337.9348450
-16.7728901 -9.3960857 337.8761902
-16.1755810 -10.1047802 337.8041687
-15.5273323 -10.6916084 337.7666931
-11.8420553 -12.7002974 337.7439575
-10.9970160 -12.9175425 337.7638245
-10.0872593 -13.0548534 337.8066711
-9.1255579 -13.0931950 337.8726196
-8.1194868 -13.0548744 337.9387817
-7.0481009 -12.9037218 338.0360718
-5.8782301 -12.6230497 338.1671448
-119.8783646 -23.3791733 328.1448364
-119.4175415 -24.2187443 328.0635376
-118.9197769 -24.9694557 327.9953003
-118.3752823 -25.6236382 327.9483032
-117.2104263 -26.8572502 327.8548889
-116.5917130 -27.3997421 327.8245239
-115.9571762 -27.8882999 327.8096313
-113.9646912 -29.0823402 327.7824097
-113.2350464 -29.3753872 327.7835999
-110.9314270 -30.0076866 327.8629150
-110.1211243 -30.1291065 327.9010010
-109.2993546 -30.2222157 327.9451904
-108.4479980 -30.2483311 327.9959106
-107.5603409 -30.2076969 328.0643921
-106.6122360 -30.0950394 328.1426086
-103.5058594 -29.1747589 328.4789124
-70.4344711 -14.6471243 332.6734619
-70.0002060 -15.6071539 332.5730896
-69.5249329 -16.4550190 332.4942322
-55.0986481 -22.2129974 332.6977844
-53.8962135 -21.7998734 332.8372192
-19.0557785 -6.7161679 337.2252502
-18.6260166 -7.6518211 337.1215820
-18.1195583 -8.4649343 337.0459595
-17.5686226 -9.2042828 336.9875488
-16.4016209 -10.5201283 336.8918152
-15.7552080 -11.0792265 336.8718262
-10.2978325 -13.4482155 336.9277344
-9.3710718 -13.5315285 336.9727173
-8.4037228 -13.5379896 337.0310364
-7.3644485 -13.4269810 337.1125793
-6.2413192 -13.1885252 337.2241516
-5.0417895 -12.8596001 337.3641052
36.3536987 0.5507703 341.9572144
37.0020485 -0.0216281 341.9177246
37.7337189 -0.4810244 341.9055481
-119.7454376 -23.0753345 327.4193420
-119.2726288 -23.9418163 327.3417664
-118.7839737 -24.6812000 327.2719727
-118.2441940 -25.3589478 327.2190857
-117.6886215 -25.9923134 327.1679382
-117.0892181 -26.6156540 327.1320801
-116.4646072 -27.1425991 327.0976868
-115.8274384 -27.6255798 327.0781860
-113.8273315 -28.8249264 327.0548706
-113.1115189 -29.1220245 327.0626221
-110.7999725 -29.7536106 327.1308594
-109.9878693 -29.8911495 327.1665955
-109.1717300 -29.9709778 327.2143555
-108.3234634 -29.9765663 327.2720642
-107.4118118 -29.9036770 327.3388672
-106.4590302 -29.7819595 327.4219055
-103.3235550 -28.8228798 327.7608337
-70.4380569 -14.6493263 331.8729858
-69.9997864 -15.6260767 331.7709351
-69.5207291 -16.4833870 331.6893311
-55.1106186 -22.2414875 331.8935852
-53.9076614 -21.8246574 332.0298462
-19.6743336 -6.1354895 336.4315796
-19.2950039 -7.1215291 336.3286743
-18.8519573 -8.0621176 336.2245483
-18.3469009 -8.8552561 336.1607666
-17.7923660 -9.5973635 336.0959473
-17.2168255 -10.2461939 336.0472412
-16.6002064 -10.8378744 336.0130920
-15.9493904 -11.3982038 335.9896545
-10.4961500 -13.7685347 336.0384827
-9.5794249 -13.8851395 336.0787964
-8.6187143 -13.9151497 336.1453552
-7.5984440 -13.8418922 336.2192993
-6.5217113 -13.6481962 336.3126526
-5.3446574 -13.3257694 336.4374084
34.5158920 0.9446396 341.0430908
35.0751839 0.1551305 340.9598694
35.6982498 -0.4556726 340.9292603
36.3663521 -0.9736761 340.9062500
37.1152725 -1.4559458 340.8985596
37.8598747 -1.8915970 340.8494568
38.7123947 -2.1628001 340.8976746
39.6416817 -2.4074717 340.9277039
40.5796890 -2.5621014 340.9528809
41.6107750 -2.5887182 341.0433044
-119.5864258 -22.7208424 326.6995850
-119.1127090 -23.5733089 326.6215515
-118.6211090 -24.3559551 326.5533447
-118.1016617 -25.0460815 326.4952087
-117.5386734 -25.6985073 326.4428406
-116.9284058 -26.3113041 326.4159851
-115.6840057 -27.3003845 326.3614807
-115.0224457 -27.7565517 326.3377991
-114.3613586 -28.1589603 326.3316040
-112.1942825 -29.0663719 326.3557434
-111.4233627 -29.2876968 326.3804321
-107.2496719 -29.5601463 326.6228638
-106.2745209 -29.4254761 326.7046814
-105.2775650 -29.1906471 326.8016052
-104.2512589 -28.8610668 326.9230957
-103.1163177 -28.4043579 327.0559692
-70.4055710 -14.6352043 331.0750122
-67.8550262 -18.5390701 330.7294617
-67.2509995 -19.1256676 330.6927185
-66.6329422 -19.6667099 330.6616821
-65.9712601 -20.2026196 330.6345825
-55.0849152 -22.2059479 331.0992737
-53.8915291 -21.7899570 331.2343140
-19.8944263 -6.4644108 335.5482178
-19.4837208 -7.4476213 335.4480896
-19.0130539 -8.3142500 335.3633728
-18.4837456 -9.1010227 335.2911682
-17.9256153 -9.8414774 335.2260132
-17.3670864 -10.4793196 335.1869812
-16.7480125 -11.1027708 335.1410522
-16.0805950 -11.6576014 335.1229858
-12.3821898 -13.6111689 335.1054688
-11.5414228 -13.8499155 335.1300964
-8.7849607 -14.2001610 335.2622681
-7.7733593 -14.1600962 335.3379211
-6.6922565 -13.9860029 335.4386902
-5.5817928 -13.7168827 335.5385132
33.4557343 0.9308768 340.1005859
33.9919815 0.1331918 340.0351868
34.5875931 -0.5886859 339.9799805
36.6183319 -2.2160823 339.9030151
37.4145584 -2.6051083 339.9094238
38.2613297 -2.9152286 339.9312134
39.1312370 -3.2021766 339.9298706
40.0608978 -3.3683052 339.9700012
41.0577126 -3.4296310 340.0353699
-118.9190140 -23.1957932 325.9182434
-118.4365768 -23.9800968 325.8437500
-117.9242783 -24.6947803 325.7859497
-117.3678894 -25.3374348 325.7383423
-116.7498627 -25.8994312 325.7014160
-116.1190262 -26.4394073 325.6659546
-115.5047913 -26.9581566 325.6470642
-114.8596573 -27.4171524 325.6340942
-114.1898727 -27.7942104 325.6174927
-112.0350647 -28.7192802 325.6477356
-111.2615509 -28.9516029 325.6670532
-107.0587387 -29.1847649 325.9170532
-106.0921478 -29.0307579 326.0073547
-105.0523987 -28.7532024 326.1026001
-103.9842529 -28.3692131 326.2251282
-70.3534470 -14.5235939 330.2922363
-67.7987595 -18.4155750 329.9489136
-67.1906586 -18.9986782 329.9133606
-66.5731735 -19.5559883 329.8816528
-65.9138794 -20.1057663 329.8535461
-55.0254936 -22.0961094 330.3178406
-53.8379707 -21.6877747 330.4501648
-20.0452747 -6.7666788 334.6625977
-19.6168385 -7.6901970 334.5700073
-19.1275711 -8.4896936 334.5088806
-18.5938911 -9.2632713 334.4475708
-18.0438805 -10.0168009 334.3780212
-17.4749031 -10.6932812 334.3226013
-16.8605289 -11.3017397 334.2801208
-16.1793556 -11.8541193 334.2498169
-12.4888458 -13.7881279 334.2419434
-11.6475096 -14.0387154 334.2689514
-8.8957834 -14.3988028 334.4070435
-7.9262004 -14.3988829 334.4653015
-6.8774734 -14.2699480 334.5566406
-5.7624002 -14.0273352 334.6607056
-4.5100489 -13.6589823 334.7897949
32.5328598 1.1035428 339.2117310
33.0263786 0.2914162 339.1434631
33.5908661 -0.4811474 339.0749817
34.2137032 -1.1970403 339.0089417
36.2270317 -2.8174827 338.9370728
37.0036087 -3.2120187 338.9402161
37.8436508 -3.5476747 338.9514771
38.7116928 -3.8267121 338.9757080
39.6521339 -4.0196128 339.0102234
40.6103821 -4.1304922 339.0517273
41.6107445 -4.1696267 339.1047363
-118.7014542 -22.7222672 325.2160034
-118.2254562 -23.5011768 325.1439209
-117.7172928 -24.2279911 325.0820618
-117.1693420 -24.8896370 325.0313110
-116.5586853 -25.5030556 324.9983521
-111.8349075 -28.3393555 324.9382935
-111.0530014 -28.5528679 324.9575806
-106.8261108 -28.7269249 325.2183838
-105.8206406 -28.5334988 325.3049316
-104.8155746 -28.2549915 325.4161987
-70.2686310 -14.3917313 329.5147095
-67.7237625 -18.2994251 329.1712952
-67.1227875 -18.8755894 329.1365662
-66.4987030 -19.4218655 329.1060181
-65.8344879 -19.9506245 329.0829773
-65.1462326 -20.4072800 329.0671082
-64.4530640 -20.8144398 329.0597839
-63.7438240 -21.1843529 329.0588379
-63.0088081 -21.5000000 329.0639343
-54.9233665 -21.9164543 329.5466309
-53.7307396 -21.5174694 329.6774902
-20.5533962 -5.8938556 333.9269409
-20.1523876 -6.9508977 333.8079224
-19.7141762 -7.8604846 333.7173462
-19.2124691 -8.6886759 333.6394348
-18.6874390 -9.4651575 333.5736084
-18.1363163 -10.1912861 333.5151672
-17.5534019 -10.8413115 333.4677734
-12.5603657 -13.9178820 333.4029846
-11.7335520 -14.1689758 333.4197083
-10.8380051 -14.3510094 333.4536743
-9.9255257 -14.4675665 333.5052185
-6.9952240 -14.4484529 333.6992493
-5.8793926 -14.2390985 333.7996521
-4.6383801 -13.8859692 333.9275513
31.3419266 2.4776378 338.4545593
31.7104588 1.4431632 338.3344116
32.1720352 0.5306017 338.2546692
32.6844482 -0.2684979 338.1799622
33.2750664 -0.9901053 338.1304321
33.9212570 -1.6703116 338.0948486
34.5373497 -2.2908940 338.0260925
35.1991730 -2.8244853 338.0044861
35.9400406 -3.2973680 338.0099182
36.6859512 -3.7222128 337.9927979
37.4960670 -4.0720487 338.0025330
38.3641205 -4.3590631 338.0159607
39.2959251 -4.5590215 338.0623779
40.2363358 -4.6970401 338.1034851
41.2163277 -4.7680297 338.1548157
42.2707672 -4.7225509 338.2187195
43.4393234 -4.5494642 338.3456116
-118.4479294 -22.1521759 324.5216370
-117.9596405 -22.9844151 324.4589844
-117.4780350 -23.7084732 324.3918457
-116.9387207 -24.4151478 324.3424988
-116.3392487 -25.0277939 324.2941589
-111.6059647 -27.8885441 324.2383423
-110.8352661 -28.0901260 324.2619324
-106.5495834 -28.1826935 324.5272522
-105.5564804 -27.9794884 324.6283875
-104.4887695 -27.6453800 324.7260437
-70.1773376 -14.1655550 328.7459412
-67.6192856 -18.1258163 328.4029236
-67.0249100 -18.6801796 328.3649902
-66.3874893 -19.2270241 328.3386536
-65.7236862 -19.7512779 328.3141785
-65.0458984 -20.2100372 328.2973022
-64.3594818 -20.6308651 328.2896729
-63.6445503 -21.0079479 328.2908020
-62.8932152 -21.3134003 328.3003540
-54.7924576 -21.6890659 328.7842102
-53.5992355 -21.2814426 328.9156799
-20.6222229 -6.0621157 333.0623474
-20.2250843 -7.0790987 332.9572144
-19.7837143 -8.0024958 332.8649902
-19.2983246 -8.8148079 332.7915649
-18.7556515 -9.5856705 332.7272949
-18.1913567 -10.2849998 332.6751709
-17.5912704 -10.9281359 332.6278076
-12.5985603 -14.0007238 332.5599670
-11.7627735 -14.2360754 332.5862732
-10.8795185 -14.4272089 332.6210938
-9.9916010 -14.5638828 332.6549072
-7.0339770 -14.5548534 332.8588257
-5.9671855 -14.3776264 332.9455566
-4.7334189 -14.0383883 333.0713501
30.9995518 1.9197124 337.4997864
31.4082584 0.9436378 337.4013672
31.8842564 0.0687415 337.3210754
32.4127083 -0.7132150 337.2468872
33.0183640 -1.4307718 337.1882629
33.6479645 -2.0641067 337.1572876
34.2906456 -2.6566055 337.1208801
34.9742546 -3.1821303 337.0997314
35.6977005 -3.6681468 337.0844421
36.4385643 -4.1181846 337.0618591
37.2515259 -4.4574771 337.0842590
38.1275711 -4.7343183 337.1106567
39.0362587 -4.9616375 337.1406555
39.9445076 -5.1166620 337.1774597
40.9270172 -5.2174373 337.2284851
41.9755707 -5.2128072 337.2951355
43.0737877 -5.0906029 337.3820190
85.7606049 9.5804930 342.1061707
86.3512878 8.8666182 342.0332336
87.7600784 7.7615132 341.9684143
88.5786743 7.3116703 341.9665833
89.4713669 6.9564018 341.9844360
90.4413910 6.7251997 342.0483398
-117.6781769 -22.3812237 323.7865295
-117.2006607 -23.1361885 323.7070923
-116.6771393 -23.8468418 323.6570740
-116.0766907 -24.4946766 323.6061401
-112.8455887 -26.7865505 323.5295105
-112.1300430 -27.0930901 323.5344238
-108.0977020 -27.7965088 323.7089539
-107.2080994 -27.7296906 323.7728271
-106.2509766 -27.5612545 323.8515015
-105.2305603 -27.3153439 323.9634705
-70.0298615 -13.9112644 327.9863586
-69.5887222 -14.8760853 327.8957825
-69.1203766 -15.7466574 327.8112793
-66.2718964 -18.9997845 327.5783081
-65.6073990 -19.5215187 327.5558777
-64.9295959 -19.9883137 327.5410767
-64.2260513 -20.4117928 327.5333557
-63.5106773 -20.7681961 327.5343323
-62.7587929 -21.0601177 327.5368958
-56.7104378 -21.8286648 327.8391113
-55.7055855 -21.6733856 327.9234314
-54.6332283 -21.4021378 328.0299683
-53.4008369 -20.9397335 328.1706238
-20.6618404 -6.1320567 332.2213745
-20.2692242 -7.1387033 332.1193848
-19.8169765 -8.0630960 332.0285339
-19.3166294 -8.8581181 331.9597473
-18.7682285 -9.6010046 331.9003601
-4.8128643 -14.1355581 332.2239075
30.3627281 2.5297236 336.6752319
30.7278767 1.4871446 336.5680847
31.1541901 0.5594960 336.4781189
35.5070190 -3.9733520 336.1867371
36.2446976 -4.4210453 336.1637878
37.0690384 -4.7546453 336.1835632
37.9268608 -5.0538092 336.1963196
38.7989883 -5.3077879 336.2068176
39.7337837 -5.4728317 336.2680664
40.6795883 -5.5949631 336.3032227
41.6942406 -5.6149635 336.3644409
42.7913513 -5.5132203 336.4538574
43.9668655 -5.3150043 336.5491333
84.5377197 9.3544588 341.0875854
85.0642166 8.5722694 341.0266113
85.7078247 7.9033098 340.9900208
86.3948364 7.3198552 340.9699707
87.0926437 6.7697420 340.9299011
87.8812561 6.3027525 340.9220886
88.7427216 5.9336987 340.9319763
89.6733627 5.6738544 340.9568481
90.6315231 5.5278068 340.9967651
91.6670685 5.4655147 341.0315247
-117.3487091 -21.6564236 323.1240234
-116.8834610 -22.4774590 323.0480347
-116.3673401 -23.1906319 322.9837341
-115.7853699 -23.8716946 322.9368591
-112.5553055 -26.1706371 322.8498535
-111.8384323 -26.4854431 322.8583069
-107.7701035 -27.1355820 323.0434265
-106.8712082 -27.0383568 323.1133423
-105.8707657 -26.8077240 323.2015076
-104.8235931 -26.5072250 323.3099976
-69.4196548 -14.5457039 327.1465149
-68.9526749 -15.4491806 327.0603027
-66.1182480 -18.7161655 326.8240967
-65.4531479 -19.2258701 326.8019409
-64.7710037 -19.6982651 326.7844543
-64.0746841 -20.1081257 326.7759094
-63.3582458 -20.4709053 326.7817993
-62.6105881 -20.7725906 326.7898560
-56.5249672 -21.4908848 327.0899353
-55.5173416 -21.3275852 327.1817627
-54.4523773 -21.0445023 327.2908325
-53.1936188 -20.5441818 327.4312744
-20.6657162 -6.1395764 331.3919983
-20.2640743 -7.1671638 331.2859192
-19.8155384 -8.0485191 331.2026978
-19.3018265 -8.8282080 331.1366577
-18.7499332 -9.5634241 331.0794983
-4.7914448 -14.1302061 331.4005737
30.1452999 2.1577020 335.7537231
30.5168037 1.1536133 335.6516724
30.9693432 0.2374792 335.5619202
35.3385429 -4.2270188 335.2777405
36.1016808 -4.6597352 335.2734070
36.9018974 -5.0084338 335.2750854
37.7544136 -5.3128948 335.3022156
38.6367188 -5.5735588 335.3199463
39.5371094 -5.7636590 335.3534546
40.4809227 -5.8860917 335.3988953
41.5025406 -5.9173226 335.4637451
42.5817757 -5.8464270 335.5446472
43.7307663 -5.6738310 335.6333618
45.0719757 -5.3537288 335.7794800
83.0242386 10.4135227 340.2526550
83.4636917 9.4140587 340.1368408
83.9989243 8.5911150 340.0911255
84.5793076 7.8445120 340.0416565
85.2135696 7.1789718 339.9862366
85.8757477 6.5896254 339.9541016
86.5821381 6.0569162 339.9402771
87.3548126 5.5569086 339.9099121
88.2155762 5.1617932 339.9198608
89.1007080 4.8511429 339.9304504
90.0174179 4.6421871 339.9599915
91.0665436 4.5670748 340.0150452
92.1739883 4.5838957 340.0942993
-116.9261246 -20.7527981 322.4953308
-116.5003357 -21.6362495 322.4057007
-116.0105972 -22.4239349 322.3376160
-115.4469757 -23.1324177 322.2779541
-114.8384018 -23.7346210 322.2320862
-114.2052536 -24.2723503 322.2036133
-113.5715027 -24.7486362 322.1894531
-112.9082718 -25.1477585 322.1807251
-112.2168427 -25.4862328 322.1737671
-111.5066299 -25.8095646 322.1891785
-110.7418060 -26.0632305 322.2073059
-109.9344711 -26.2432156 322.2343750
-109.1117249 -26.3375282 322.2709656
-108.2803802 -26.3786068 322.3233643
-107.3959732 -26.3443031 322.3855591
-106.4643097 -26.2054691 322.4671631
-105.4445190 -25.9353409 322.5616150
-69.2242813 -14.1547327 326.4066772
-68.7591476 -15.0841274 326.3222046
-68.2575836 -15.8639202 326.2464600
-67.7244186 -16.5834446 326.1895142
-67.1595383 -17.2581749 326.1478882
-66.5699921 -17.8418274 326.1106873
-63.1807594 -20.1443272 326.0334167
-62.4300919 -20.4459400 326.0418091
-60.0008278 -21.0800228 326.1167297
-59.1220856 -21.1916924 326.1683655
-56.2882729 -21.0801353 326.3526611
-55.2901077 -20.8979225 326.4485779
-54.1895866 -20.5775223 326.5621338
-20.6355591 -6.0778074 330.5732422
-19.2682095 -8.7761011 330.3172607
-18.7114239 -9.5238419 330.2593384
-18.1500225 -10.2301159 330.2051392
-17.5653172 -10.8657246 330.1621094
-14.1133394 -13.3205767 330.0725708
-13.3603888 -13.6717939 330.0764771
-12.5835495 -13.9660807 330.0897217
-11.7435627 -14.2055559 330.1138306
-4.7456913 -14.0587282 330.5841980
29.9767933 1.8985755 334.8559265
32.5228729 -2.1883008 334.5118408
33.1715164 -2.8335283 334.4642029
42.4072227 -6.1031666 334.6382141
43.5517044 -5.9540210 334.7289429
44.8399315 -5.6467838 334.8548584
82.1604691 10.7407179 339.3621521
82.5409927 9.7210226 339.2585754
83.0257492 8.7872629 339.1693115
83.5646591 7.9596233 339.0938110
86.1681824 5.4466639 338.9361572
86.9409637 4.9785805 338.9330139
89.5512772 3.9811780 338.9684753
90.5717926 3.8625228 339.0244751
91.6237640 3.8110614 339.0665894
92.8049088 3.8897626 339.1778564
-116.0684891 -20.6293831 321.7604980
-115.5875473 -21.5157852 321.7023315
-115.0340805 -22.2990780 321.6458130
-114.4454575 -22.9416676 321.5941467
-113.8367615 -23.5024719 321.5603638
-113.2027664 -23.9827347 321.5346680
-112.5379333 -24.4142227 321.5272217
-111.8806992 -24.7605000 321.5305176
-111.1548004 -25.0462151 321.5339355
-110.3630829 -25.2969189 321.5552979
-109.5567703 -25.4626541 321.5899353
-108.7118225 -25.5236568 321.6324158
-107.8437042 -25.5025253 321.6863403
-106.9521790 -25.4283066 321.7632446
-106.0107269 -25.2572193 321.8397827
-68.9958038 -13.7005930 325.6699524
-68.5183640 -14.6436520 325.5966797
-68.0254135 -15.4404659 325.5209045
-67.5018005 -16.1749420 325.4578552
-66.9475174 -16.8399334 325.4081116
-66.3613663 -17.4245625 325.3660278
-62.9754677 -19.7726345 325.2918396
-62.2144318 -20.0638027 325.3039856
-59.7649498 -20.6578426 325.3855286
-58.8784370 -20.7494144 325.4342957
-56.0544014 -20.6240368 325.6363525
-55.0088348 -20.3871231 325.7254944
-53.8780022 -20.0176964 325.8489685
-20.9217319 -4.8607202 329.8788452
-20.5643234 -5.9527106 329.7635803
-19.2173424 -8.6798162 329.5055847
-18.6544380 -9.4513226 329.4445190
-18.0794048 -10.1341686 329.3953552
-17.4930687 -10.7401314 329.3560791
-14.0553713 -13.2088165 329.2646790
-13.2965174 -13.5473661 329.2706909
-12.5096684 -13.8315907 329.2845459
-11.6730661 -14.0718832 329.3095703
-4.6678801 -13.9264174 329.7774963
29.8624516 1.6986101 333.9664307
32.4333992 -2.3494775 333.6188354
33.0741844 -2.9847713 333.5810242
42.3072472 -6.2760553 333.7625732
43.4385338 -6.1453762 333.8467712
44.7122498 -5.8578677 333.9649353
81.3902054 11.2030239 338.4845276
81.7184448 10.0764446 338.3503418
82.1367722 9.0983152 338.2519226
82.6505280 8.2598562 338.2003479
83.2023163 7.4314036 338.1143494
83.7836533 6.7096848 338.0625610
85.8392944 4.9400029 337.9762878
86.6167450 4.4853859 337.9763184
89.2174377 3.4977572 338.0119324
90.1918793 3.3284092 338.0462036
91.2497864 3.2505417 338.1043396
92.3619766 3.2902744 338.1741028
93.6014938 3.4561353 338.2816467
138.3291168 17.2018108 342.9058533
-115.0867310 -20.4589729 321.0660400
-114.5511398 -21.2612629 321.0285339
-113.9710007 -21.9358101 320.9788208
-113.3828201 -22.5697803 320.9427490
-112.7717590 -23.0818195 320.9136963
-112.1198730 -23.5021591 320.8967285
-111.4317551 -23.8170643 320.8888550
-110.6961441 -24.1182976 320.9019470
-109.9143295 -24.3666286 320.9280701
-109.0864334 -24.4967785 320.9639893
-108.2463226 -24.5293884 321.0217285
-107.3352203 -24.4465504 321.0802612
-68.2490082 -14.0804987 324.8704834
-67.7619705 -14.9261913 324.7985535
-67.2488480 -15.7009783 324.7357483
-66.7034302 -16.3826904 324.6848145
-66.1229019 -16.9871845 324.6474304
-62.7425308 -19.3350449 324.5692444
-61.9879074 -19.6153679 324.5840454
-59.5124168 -20.1791935 324.6675415
-58.6031761 -20.2601662 324.7127075
-57.6823006 -20.2779675 324.7714844
-56.7275391 -20.2065372 324.8435974
-55.7291794 -20.0465622 324.9279480
-54.6854324 -19.7852879 325.0301514
-53.4973488 -19.3509655 325.1422119
-20.8280640 -4.6618457 329.0791931
-20.4636478 -5.7818475 328.9626770
-16.7767887 -11.1785746 328.5210571
-16.1105785 -11.7400990 328.4938660
-12.4119034 -13.6718864 328.4851990
-11.5773525 -13.9199038 328.5078735
-10.7022228 -14.1196766 328.5385437
-9.7910643 -14.2562857 328.5796814
-4.5640798 -13.7408447 328.9798279
29.4184551 2.6400557 333.1987000
29.7910748 1.5855467 333.0961914
30.1947651 0.6640618 333.0036926
30.6806202 -0.2103797 332.9230347
32.3767586 -2.4447401 332.7496033
33.0255051 -3.0581005 332.7204590
36.6494102 -5.4079480 332.6504822
37.4968452 -5.7207818 332.6668396
38.3653679 -5.9782596 332.6921692
39.2678871 -6.1638818 332.7260742
42.2541389 -6.3704925 332.8906250
43.3638573 -6.2522588 332.9757690
44.6169930 -5.9887896 333.0865784
46.0290642 -5.5731177 333.2318420
81.0035095 10.6318264 337.4922485
81.3672028 9.5795441 337.3835449
81.8206787 8.6549177 337.2959290
82.3556519 7.8213425 337.2283325
84.1617737 5.6665530 337.0767212
84.8422318 5.0570669 337.0352783
85.5554886 4.5324168 337.0093384
86.3383102 4.0895715 337.0148315
88.9473495 3.1137202 337.0629578
89.9077225 2.9158604 337.0982971
90.9258194 2.7981713 337.1463013
92.0184326 2.7983029 337.2113342
93.2010880 2.9065580 337.2943726
94.5072479 3.1457925 337.4094849
136.0637054 17.2189121 341.8157959
136.6733246 16.5282421 341.7791138
137.3503265 15.8971672 341.7269592
138.1315002 15.4015932 341.7039185
-113.4122314 -20.7380295 320.3739014
-112.8334503 -21.3731842 320.3672180
-111.5876541 -22.3701878 320.3061829
-110.9148636 -22.7134552 320.2974548
-110.1775055 -22.9986935 320.3099976
-109.3564911 -23.1959820 320.3385620
-108.4977951 -23.2818756 320.3792419
-107.6202698 -23.2704983 320.4253540
-67.9419022 -13.4604139 324.1602783
-67.4550018 -14.3670483 324.0969849
-66.9523544 -15.1389751 324.0261841
-66.4137573 -15.8406401 323.9708557
-65.8417740 -16.4493198 323.9216003
-62.4541550 -18.8076839 323.8482666
-61.6929092 -19.0879364 323.8554688
-59.2136536 -19.6333122 323.9430237
-58.2917519 -19.6962833 324.0006409
-57.3383675 -19.6692886 324.0666809
-56.3378334 -19.5367966 324.1315918
-55.3438072 -19.3632698 324.2257385
-54.3014374 -19.0746765 324.3315430
-20.7002659 -4.4459701 328.2814941
-20.3323517 -5.5596299 328.1709900
-16.6574993 -10.9837523 327.7261658
-15.9832277 -11.5288963 327.6989136
-12.2965126 -13.4867945 327.6912842
-11.4517126 -13.7282476 327.7168274
-10.5606709 -13.9114094 327.7485352
-9.6526585 -14.0285292 327.7928467
-4.4203534 -13.4802742 328.1935730
-2.9436679 -12.9126453 328.3486633
29.0650597 3.7965221 332.4645996
29.3692417 2.5847600 332.3322754
29.7520885 1.5297968 332.2284851
30.1705322 0.5860290 332.1336365
30.6496639 -0.2578230 332.0610046
32.3649254 -2.4731550 331.8950806
33.0184898 -3.1002498 331.8556213
36.6496696 -5.4218621 331.8004456
37.4832268 -5.7560434 331.8093262
38.3539314 -6.0104866 331.8342285
39.2656059 -6.1814799 331.8693848
42.2277451 -6.4058542 332.0300598
43.3271294 -6.3055387 332.1105957
44.5813408 -6.0571294 332.2196655
45.9774475 -5.6345797 332.3626709
80.3973160 11.3419619 336.6572266
80.7090836 10.1977015 336.5349121
81.1008453 9.1928577 336.4372559
81.5839005 8.3091965 336.3529663
82.1464539 7.4942923 336.2964478
83.9481277 5.3553147 336.1299438
84.6300125 4.7795954 336.1169739
85.3646698 4.2604871 336.0875244
86.1438446 3.8091912 336.0902100
88.7182693 2.7908237 336.1280823
89.6496353 2.5645926 336.1452942
90.6766968 2.4376054 336.1971436
91.7637100 2.4173577 336.2733765
92.8706131 2.4580429 336.3356628
94.1379089 2.6503158 336.4360352
95.5658112 3.0337873 336.5854492
134.2676697 17.9505024 340.8906250
134.7600403 17.0462704 340.8083191
135.3255157 16.2559052 340.7431335
135.9681702 15.6115503 340.7227478
136.6631165 14.9958506 340.6714783
137.4699402 14.4974546 340.6663818
138.3291168 14.0844574 340.6708679
139.2717285 13.7580233 340.6894836
140.2774506 13.5390959 340.7140808
141.3346710 13.4200821 340.7739563
-111.1870651 -20.0343704 319.7882385
-110.2539978 -21.3383560 319.7213135
-109.5115356 -21.5772629 319.7257996
-67.1113129 -13.6779251 323.3875732
-66.6083450 -14.4690065 323.3224792
-66.0707855 -15.2144833 323.2676392
-65.5170441 -15.8543835 323.2221985
-64.9205475 -16.4236145 323.1830139
-64.2636490 -16.9703960 323.1598206
-62.1406174 -18.2205429 323.1355286
-61.3837433 -18.5183487 323.1496277
-60.6268730 -18.7564793 323.1747742
-59.7991104 -18.9331608 323.2064819
-58.8911591 -19.0251236 323.2466125
-57.9666061 -19.0522671 323.2994385
-56.9951859 -18.9958706 323.3689575
-55.9708557 -18.8467350 323.4497070
-54.9550819 -18.6314220 323.5568237
-20.1630688 -5.2474213 327.3889771
-19.7604275 -6.2902308 327.2858276
-19.3051796 -7.2111244 327.2018433
-18.8090019 -8.0543184 327.1293335
-18.2802277 -8.8004484 327.0655518
-16.5156403 -10.7457809 326.9399414
-15.8390541 -11.2777491 326.9179993
-15.1216602 -11.7511482 326.9035950
-14.4148951 -12.1871138 326.8898315
-10.3894615 -13.6501379 326.9616699
-9.4863453 -13.7597303 327.0093994
-8.5503139 -13.8167934 327.0634766
-7.5662637 -13.8022137 327.1269836
-6.5193052 -13.6910601 327.1988525
-5.4530649 -13.5049582 327.2962341
-4.1880169 -13.1188059 327.4236755
29.0630970 3.7976005 331.6071777
29.3903542 2.5747211 331.4761963
29.7629128 1.5694515 331.3765259
30.1840000 0.6073904 331.2828064
30.6638870 -0.2526335 331.2068176
32.3809814 -2.4636681 331.0421143
33.0220985 -3.0874379 331.0058594
36.6705666 -5.3968744 330.9491272
37.4929695 -5.7370462 330.9576416
38.3727684 -5.9907999 330.9824829
39.2741890 -6.1739836 331.0153198
40.2098427 -6.3102818 331.0597839
41.2058754 -6.3821535 331.1140442
44.5849342 -6.0548291 331.3657532
45.9736938 -5.6240931 331.5057373
79.9349289 12.2275438 335.8368225
80.1497726 11.0135584 335.7199707
80.4906311 9.8797617 335.5968323
80.9198685 8.9041176 335.5011597
81.4268036 8.0651579 335.4346924
81.9891815 7.2564921 335.3659973
82.5592957 6.4960189 335.3093262
83.1541595 5.7846074 335.2521973
83.7993088 5.1306272 335.2193298
84.4921112 4.5565815 335.1954651
85.2245636 4.0436196 335.1750488
85.9794312 3.5862558 335.1660156
90.5072861 2.1970325 335.2817993
91.5619659 2.1375825 335.3382568
92.6760788 2.1512916 335.4123840
93.8871689 2.2978621 335.4999084
132.7742920 19.1314526 340.0338745
133.1682434 18.0680923 339.9182739
133.6498413 17.1001377 339.8313293
134.1793060 16.2910538 339.7759094
134.7856903 15.5324497 339.7167358
135.4299927 14.8909264 339.6825256
136.1563721 14.3105803 339.6591797
136.9467010 13.7878065 339.6462402
137.7479248 13.3123512 339.6136475
138.6729736 12.9712067 339.6434631
139.6513367 12.7119560 339.6665344
140.6858521 12.5557957 339.7145081
141.7550659 12.4920902 339.7599487
-66.2240982 -13.7492113 322.6382141
-65.7037964 -14.5068312 322.5772705
-65.1581421 -15.1818218 322.5249023
-64.5641708 -15.7768621 322.4902344
-63.9176559 -16.3154831 322.4576416
-61.8009911 -17.5828590 322.4365234
-61.0331688 -17.8640251 322.4508362
-60.2686501 -18.0811119 322.4717407
-59.4200554 -18.2372055 322.5060425
-58.5206604 -18.3120193 322.5546265
-57.5932999 -18.3420811 322.6212158
-55.5439148 -18.0445995 322.7767334
-19.9468288 -4.8812704 326.6152039
-19.5496998 -5.9486575 326.5171204
-19.1176777 -6.8703995 326.4263000
-18.6321621 -7.7160378 326.3509216
-18.1006737 -8.4889841 326.2880249
-16.3328571 -10.4339638 326.1642151
-15.6366243 -10.9471998 326.1397400
-14.9283314 -11.4159355 326.1227112
-14.2304821 -11.8703098 326.1141052
-10.2198772 -13.3363342 326.1932678
-9.3015566 -13.4320822 326.2322083
-8.3372650 -13.4798307 326.2864075
-7.3252659 -13.4418707 326.3537903
-6.3100071 -13.3205805 326.4317932
-5.2141175 -13.0992546 326.5328064
-3.9018185 -12.6742239 326.6637268
29.1145535 3.8561933 330.7593384
29.4438877 2.6786203 330.6350098
29.8216171 1.6178621 330.5283508
30.2158566 0.7176222 330.4429626
30.7072945 -0.1900299 330.3619080
32.4146805 -2.4038246 330.1967468
33.0707703 -3.0128586 330.1631775
36.7066345 -5.3223400 330.1070862
37.5615311 -5.6470003 330.1207886
38.4321480 -5.9081054 330.1440735
39.3108597 -6.1048141 330.1737671
40.2479439 -6.2373033 330.2161865
41.2622757 -6.3074088 330.2707214
44.6354675 -5.9711595 330.5238647
46.0204430 -5.5461888 330.6621399
79.6920395 11.9146786 334.9059448
79.9712143 10.7299547 334.7847290
80.3499603 9.6806774 334.6843872
80.7986908 8.7414885 334.5944519
81.3128281 7.8863044 334.5202637
81.8656158 7.0778852 334.4573364
83.0487061 5.6559677 334.3524170
83.6806412 4.9785366 334.3035583
84.3792191 4.3894744 334.2822876
85.1114883 3.8796239 334.2631836
85.8587265 3.4166989 334.2555847
90.3684387 2.0118380 334.3670959
91.3822021 1.9258609 334.4143982
92.5111237 1.9282320 334.4906616
93.7151871 2.0538836 334.5768738
95.0591049 2.3577495 334.6987610
131.9199066 19.5554523 339.1182861
132.2499237 18.4005871 338.9906921
132.6583710 17.3842697 338.8913574
133.1740112 16.4895134 338.8312988
133.7391510 15.6755848 338.7578125
134.3449707 14.9503975 338.7060242
134.9954681 14.2923298 338.6603088
135.7120972 13.7069130 338.6261292
136.4920197 13.1941595 338.6219177
137.3008881 12.7312956 338.6104431
138.2181549 12.3750143 338.6323242
139.1843414 12.0953283 338.6652222
140.1633606 11.8795319 338.6811829
141.2433777 11.7992611 338.7415771
142.3874359 11.8239174 338.8049316
-65.7692413 -12.8966770 321.9577026
-65.2671051 -13.6916027 321.9066162
-64.7298126 -14.3858747 321.8564453
-64.1485367 -14.9801321 321.8100281
-63.5087013 -15.5545883 321.7783508
-61.4095345 -16.8441582 321.7574768
-60.6259995 -17.0952396 321.7545471
-59.8381386 -17.3193092 321.7923279
-58.9799423 -17.4135094 321.8268127
-58.0550957 -17.4541721 321.8806458
-19.2997818 -5.4885998 325.7553711
-18.8782520 -6.4420505 325.6589661
-17.3235455 -8.8349323 325.4730530
-16.7370110 -9.4451218 325.4235535
-16.1037712 -10.0417624 325.4004517
-15.4145117 -10.5780630 325.3684692
-14.7239027 -11.0802774 325.3576050
-14.0172787 -11.5174665 325.3475952
-13.2576962 -11.8847046 325.3447266
-12.4832678 -12.2291660 325.3522644
-11.7234821 -12.5329962 325.3686523
-10.8841867 -12.7668943 325.3912659
-6.0210333 -12.8708305 325.6733398
-4.9017105 -12.6063108 325.7810059
29.1910114 3.9523277 329.9178162
29.5140800 2.7944791 329.7955017
29.8873692 1.7208577 329.6888733
32.5038872 -2.2810798 329.3645935
33.1515465 -2.8738177 329.3295593
35.2183533 -4.4148626 329.2721252
35.9959412 -4.8352256 329.2694397
42.3920784 -6.1705256 329.5024719
43.4827652 -6.0858335 329.5834961
44.7696304 -5.8164420 329.6930237
46.1088219 -5.4065003 329.8277893
79.5501328 11.6978340 333.9874573
79.8611298 10.5728102 333.8766479
80.2643585 9.5160131 333.7659302
80.7045288 8.5975361 333.6862183
81.2029724 7.7248721 333.6083069
81.7608643 6.9107447 333.5406189
82.3655396 6.2005935 333.4923096
82.9592056 5.5437975 333.4599915
83.6119156 4.8789544 333.4122009
84.3138275 4.2997565 333.3861694
85.0439987 3.7802854 333.3714600
85.7884369 3.2999842 333.3528442
88.3218918 2.2497170 333.3816833
89.2687378 2.0237644 333.4159851
94.9029770 2.1510134 333.7762146
131.1883850 20.1160946 338.2331543
131.4737549 18.9648895 338.1114197
131.8381195 17.8594608 338.0000916
132.2754211 16.8714180 337.9049988
132.7922668 15.9818478 337.8182678
134.6535797 13.8514318 337.6810608
135.3892365 13.2846642 337.6651001
136.1683807 12.7643871 337.6443481
136.9717102 12.3064566 337.6329956
137.8796997 11.9221449 337.6500854
138.8150940 11.5972672 337.6589355
139.7865906 11.3829412 337.6959534
140.8343506 11.2693062 337.7379761
141.9963837 11.2745924 337.8205261
143.2295532 11.3622761 337.8958740
-64.7549515 -12.6944332 321.2205200
-64.2268600 -13.3837643 321.1888123
-63.6590958 -14.0295343 321.1596680
-63.0162735 -14.6252108 321.1215515
-60.9254684 -15.9559202 321.0897827
-60.1547241 -16.2383003 321.1032104
-59.3570824 -16.4070435 321.1357422
-58.4836464 -16.4624519 321.1777344
-57.5450211 -16.4682064 321.2391052
-19.0046921 -4.9676695 325.0063171
-18.5988178 -5.9729042 324.9114990
