130.7335205 14.2432833 78.1747208
131.3219299 13.4581585 78.2609482
131.9682159 12.7102871 78.3412781
132.6617889 12.0573959 78.4057007
133.3794708 11.4699812 78.4609833
134.1121063 10.9126940 78.5121536
138.3033752 9.1024618 78.6057510
139.2291718 8.9050274 78.6002884
142.2757874 8.7096167 78.5130615
143.3921814 8.8317184 78.4542999
144.6261139 9.0986052 78.3710556
145.9889374 9.5492144 78.2582016
-63.4091835 -14.7417812 88.6256943
-62.7325020 -15.3385153 88.6805725
-62.0404930 -15.8187046 88.7294388
-61.3256111 -16.2399254 88.7590637
-60.5924110 -16.5813141 88.7820892
-59.8183212 -16.8521976 88.7854233
-58.9906807 -17.0228901 88.7888870
-58.1625290 -17.1507587 88.7563400
-57.2703247 -17.1153793 88.7256470
-56.3680534 -17.0310040 88.6625443
-55.4104919 -16.8130226 88.6178207
-54.3734703 -16.4765377 88.5573883
-17.0238228 -7.0062513 85.7928238
-16.4529457 -7.8160510 85.8981934
-15.8401699 -8.5410080 85.9690018
-15.1892414 -9.1873198 86.0329666
-14.5050201 -9.7552958 86.0916519
-13.7939987 -10.2420187 86.1344604
-9.9051723 -11.8468256 86.2077484
-9.0583248 -11.9857788 86.1938629
-8.1686087 -12.0317860 86.1750717
-7.2272825 -12.0132618 86.1299438
-6.2483788 -11.8999214 86.0816040
-5.2652278 -11.7030373 86.0103760
-4.2372384 -11.3992147 85.9233017
-3.0924022 -10.9414597 85.8338165
31.0223484 1.3578899 82.8313599
31.5203285 0.3601147 82.9509506
36.1381531 -4.1447201 83.4055786
36.8942375 -4.5882230 83.4288254
37.6830978 -4.9433250 83.4612198
38.4893150 -5.2297955 83.4658203
39.3252831 -5.4631739 83.4733810
40.2002106 -5.6563449 83.4577942
43.0480652 -5.7712851 83.3790512
44.0194359 -5.6737061 83.3205872
45.0635910 -5.4723377 83.2542038
46.1923294 -5.1432285 83.1621017
47.4393806 -4.6539960 83.0587158
79.6770630 9.8343716 79.8153076
80.1712189 8.7751808 79.9451218
83.1140594 4.7680764 80.3945694
83.8052444 4.1528907 80.4536743
86.8168106 2.2211435 80.6182098
87.6395721 1.9279009 80.6216278
88.4991150 1.6731591 80.6263885
95.5957336 1.7839801 80.3439026
96.9141693 2.2356575 80.2309113
128.8787384 18.5318012 76.7540054
129.2570953 17.1851292 76.9274292
129.6840515 16.0980244 77.0599060
130.1825562 15.1183643 77.1813812
130.7292175 14.2452831 77.2817612
131.3259735 13.4148045 77.3761520
131.9572449 12.6855383 77.4539185
132.6548615 12.0425911 77.5186310
133.3762360 11.4491596 77.5704575
134.0952606 10.8917379 77.6235275
138.2869873 9.0594082 77.7230148
139.2346344 8.8754978 77.7113724
142.2734985 8.6802835 77.6248322
143.3609619 8.7843676 77.5751648
144.5946808 9.0527143 77.4879074
145.9565582 9.5075016 77.3749695
-63.7648239 -15.7788687 87.9655304
-63.0946503 -16.3053246 88.0287323
-62.3919716 -16.8052998 88.0654373
-61.6800842 -17.2138138 88.0931702
-60.9324608 -17.5357380 88.1106567
-58.5043755 -18.0740757 88.1014252
-57.6330338 -18.0917416 88.0708618
-56.7384148 -18.0563354 88.0112000
-55.7930717 -17.8811302 87.9636536
-54.8352928 -17.6328259 87.8808594
-17.8452206 -6.7433476 84.9705734
-17.2964287 -7.6424651 85.0689621
-16.6978626 -8.4456968 85.1606903
-16.0799427 -9.1266222 85.2400436
-15.4240932 -9.7639694 85.3014526
-14.7332048 -10.3244133 85.3477020
-14.0232401 -10.7808628 85.3979492
-11.7663860 -11.9520130 85.4606171
-10.9674540 -12.1998119 85.4753571
-8.4186192 -12.6211033 85.4370422
-7.4956412 -12.6258564 85.4022903
-6.5258694 -12.5500231 85.3566513
-5.5564427 -12.3963881 85.2980804
-4.5272956 -12.1367102 85.2145538
-3.4457281 -11.7297926 85.1203537
30.8541737 0.9234337 82.0390091
31.3670559 -0.0157429 82.1555710
33.1688576 -2.3086448 82.4094162
33.8142509 -2.9493484 82.4754028
34.5188599 -3.5134740 82.5266342
35.2596626 -3.9980884 82.5717850
36.0065269 -4.4491997 82.6137695
36.7624855 -4.8880115 82.6408615
44.8903084 -5.8538356 82.4689789
45.9846001 -5.5644026 82.3807983
47.1947365 -5.1074672 82.2686081
79.6019287 9.7464409 78.9579239
80.1088181 8.6843996 79.0879059
81.7875366 6.0694461 79.3926468
82.4031372 5.3307199 79.4734497
83.0481339 4.6448426 79.5452728
86.7356873 2.0762706 79.7640381
89.3248138 1.3355327 79.7739182
90.2488174 1.1645602 79.7627029
91.2059708 1.0720599 79.7397003
92.2097931 1.0674875 79.7024994
95.5019760 1.6074544 79.5014648
96.8325958 2.0857563 79.3843536
128.9607239 18.6089153 75.8485718
129.3119354 17.2868881 76.0165024
129.7319641 16.1501560 76.1614685
130.2119751 15.1842279 76.2763596
131.9933777 12.7308578 76.5593567
132.6785889 12.0803232 76.6189423
133.3953552 11.4613810 76.6818695
134.1043243 10.9050589 76.7359695
136.5219727 9.6344185 76.8217468
137.3850555 9.3177280 76.8349533
138.3041229 9.0930529 76.8302536
139.2634583 8.9327097 76.8141403
140.2350769 8.7903185 76.7979279
141.2244873 8.6944704 76.7782974
142.2924652 8.7098217 76.7321091
143.4124603 8.8255148 76.6729202
144.6562958 9.1154137 76.5841751
146.0153656 9.5805149 76.4706802
-110.8200226 -22.1638947 89.8473587
-110.0770187 -22.4562702 89.8770676
-109.3181686 -22.7183971 89.8679199
-108.5366058 -22.8790436 89.8615799
-107.7086945 -22.9640560 89.8610840
-106.8479614 -22.8618641 89.8470535
-64.7237320 -16.0042191 87.2439041
-64.0740204 -16.6133976 87.3014221
-63.3986893 -17.1688957 87.3466492
-62.6875763 -17.6366768 87.3869858
-61.9668999 -17.9983997 87.4161148
-61.2212524 -18.3140392 87.4276428
-58.7813568 -18.8683662 87.4196472
-57.9031792 -18.8936996 87.3912888
-57.0191383 -18.8661022 87.3621445
-56.1449547 -18.8160019 87.2955017
-55.1859818 -18.6156445 87.2427292
-54.2246094 -18.3582840 87.1541824
-18.0716629 -7.3603067 84.2258377
-17.5152321 -8.1949215 84.3310318
-16.9163513 -8.9644175 84.4148865
-16.2933941 -9.6314449 84.4844666
-15.6238260 -10.2526970 84.5442886
-14.9241323 -10.8015079 84.5961990
-14.2204542 -11.2768974 84.6411133
-11.9684048 -12.4291382 84.7176132
-11.1734190 -12.6893253 84.7270050
-8.6187105 -13.1291237 84.6854172
-7.7102580 -13.1539879 84.6557236
-6.7656112 -13.1086369 84.6171799
-5.8112030 -12.9939146 84.5600433
-4.7913499 -12.7646942 84.4922256
-3.7469361 -12.4190760 84.3954163
-2.5903032 -11.8915253 84.2815475
30.2272797 1.7563903 81.1011200
30.7217159 0.6453788 81.2360840
31.2388706 -0.2986338 81.3515625
33.0473557 -2.5683134 81.6052246
33.7193718 -3.2217178 81.6686859
34.4095268 -3.7723191 81.7234802
35.1416130 -4.2842307 81.7632599
35.8761673 -4.7469749 81.8024979
36.6324501 -5.1578121 81.8355026
44.7507401 -6.1549773 81.6673737
45.8440514 -5.8778181 81.5856400
47.0651093 -5.4388461 81.4765854
48.3717232 -4.8544536 81.3451080
79.5776520 9.6735563 78.0964737
80.0855331 8.5934038 78.2293930
81.7633057 5.9968204 78.5335770
82.3825226 5.2305689 78.6192856
83.0070801 4.5240402 78.6950226
86.7147675 2.0285993 78.9005661
89.2949829 1.2606297 78.9158249
90.2092972 1.0751132 78.9095535
91.1621857 0.9813463 78.8867035
92.1758881 0.9828376 78.8487015
95.4425888 1.5048461 78.6502762
96.7585678 1.9827338 78.5326385
129.4032593 17.4608650 75.0964584
129.8160858 16.3217831 75.2375031
130.2912445 15.3152838 75.3623123
132.0633392 12.8342113 75.6517334
132.7418671 12.1581984 75.7154388
133.4351196 11.5332088 75.7804031
134.1451416 10.9809008 75.8326492
136.5719299 9.7107916 75.9197998
137.4489441 9.4168634 75.9269104
138.3789673 9.2106514 75.9172134
139.3402252 9.0317631 75.9018784
140.2854767 8.8707514 75.8936234
141.2985382 8.7916126 75.8617172
142.3717194 8.8285227 75.8210831
143.4913788 8.9638052 75.7647095
144.7262573 9.2521925 75.6735535
146.1264038 9.7455254 75.5492554
-112.6276321 -22.6136837 89.1929474
-111.9545517 -23.0960178 89.2569656
-111.2405853 -23.5406761 89.2829590
-110.5149002 -23.8555794 89.2967300
-109.7569580 -24.0824280 89.3085327
-108.9843750 -24.2783718 89.2934189
-108.1569672 -24.3455791 89.2768478
-107.3318253 -24.3286762 89.2301254
-106.4409637 -24.1713200 89.1872482
-105.5291672 -23.9818420 89.1418991
-66.2421494 -15.3684731 86.3889618
-65.6362076 -16.1296597 86.4769745
-65.0031052 -16.7828426 86.5486221
-64.3359299 -17.3800869 86.6071854
-63.6577759 -17.8956566 86.6512375
-62.9432030 -18.3249359 86.6887360
-59.0420761 -19.5964375 86.7107010
-58.1871948 -19.6450653 86.6892090
-57.3029327 -19.6387215 86.6678848
-56.4407272 -19.6156845 86.6285019
-55.5400658 -19.5102081 86.5659256
-54.5661926 -19.2650337 86.4909592
-53.5563164 -18.9054394 86.4059906
-18.8003502 -6.9033217 83.3692856
-18.2749844 -7.8351307 83.4795761
-17.7033119 -8.6760216 83.5734558
-17.1012936 -9.4059076 83.6561127
-16.4564323 -10.0488272 83.7230759
-15.7876148 -10.6461411 83.7857819
-6.9667974 -13.5779762 83.8596725
-6.0102935 -13.4732227 83.8068771
-5.0123882 -13.2768764 83.7472382
-3.9824939 -12.9751120 83.6592331
-2.8528855 -12.4930029 83.5420837
-1.5723356 -11.8346872 83.4172363
30.1312828 1.5306962 80.2842712
30.6211567 0.4266846 80.4212418
31.1416969 -0.5378611 80.5382614
31.7095203 -1.3547261 80.6359711
32.3240891 -2.0963275 80.7161331
44.6367378 -6.3969231 80.8558960
45.7257042 -6.1430292 80.7781601
46.9204788 -5.7376480 80.6726151
48.2343178 -5.1484046 80.5405426
79.5829315 9.6838665 77.2180481
80.0833359 8.5750942 77.3622665
80.6037598 7.6466069 77.4718857
81.1629028 6.7876515 77.5744629
81.7521973 5.9676709 77.6672668
82.3381042 5.2163873 77.7481537
82.9687881 4.4989676 77.8301544
83.6836319 3.8925526 77.8902969
84.3896484 3.3366096 77.9413681
85.1248703 2.8274252 77.9893570
85.9016724 2.3782618 78.0205002
86.7089462 2.0059536 78.0422974
89.2873917 1.2329938 78.0529099
90.2132950 1.0542717 78.0443497
91.1736526 0.9736313 78.0158386
92.1800690 0.9743525 77.9752045
95.4741440 1.5070597 77.7746735
96.8038788 1.9947486 77.6527176
129.9684448 16.5540390 74.3092957
130.4228516 15.5177727 74.4389343
130.9460754 14.6343489 74.5369797
131.5334625 13.7815847 74.6415710
133.5157318 11.6953239 74.8556137
134.2410126 11.1308632 74.9213562
135.0093079 10.6572819 74.9578781
135.8199005 10.2358675 74.9824142
136.6676636 9.8588905 75.0025253
137.5389252 9.5711880 75.0145569
138.4660797 9.3443222 75.0058365
139.3941040 9.1518459 74.9999008
140.3695068 9.0037737 74.9841537
141.3770905 8.9602709 74.9574127
142.5016479 9.0402565 74.8900070
143.6443481 9.1912155 74.8286972
144.8466644 9.4731035 74.7517548
146.2812805 9.9951019 74.6118851
-114.2766418 -22.5101185 88.4892044
-113.6432877 -23.2316780 88.5440292
-112.9956131 -23.8103256 88.5993118
-112.3108749 -24.2628708 88.6394730
-111.5927811 -24.6473618 88.6676102
-110.8567276 -24.9402256 88.6966324
-110.1018906 -25.1975822 88.6933517
-109.3184738 -25.3514099 88.6864548
-108.4979706 -25.4469223 88.6669769
-107.6896667 -25.4803791 88.6328430
-106.8379440 -25.4149265 88.5898895
-105.9564819 -25.2768936 88.5241776
-105.0311356 -25.0105000 88.4489136
-67.0659256 -15.2290764 85.5985565
-66.4977341 -16.0485725 85.6951599
-65.8877640 -16.7937641 85.7744293
-65.2320175 -17.4422913 85.8419189
-64.5713425 -17.9902782 85.9020309
-63.8799057 -18.4959965 85.9460373
-63.1574287 -18.9149475 85.9726715
-59.2765770 -20.1864643 86.0114822
-58.4399261 -20.2972641 85.9807663
-57.5617485 -20.3259754 85.9614563
-56.6955872 -20.3089333 85.9272232
-55.7696877 -20.1895370 85.8771362
-54.8067284 -19.9626923 85.8028793
-53.8445625 -19.6664581 85.7119064
-52.8237267 -19.2590523 85.6139145
-18.9821587 -7.3379369 82.6053848
-18.4470024 -8.2533150 82.7160721
-17.8691349 -9.0683641 82.8095627
-17.2420120 -9.7819824 82.8861237
-16.6112270 -10.3775997 82.9598923
-15.9250240 -11.0336819 83.0075989
-7.1158299 -13.9575062 83.1008911
-6.1780553 -13.8741035 83.0497894
-5.2056618 -13.7123356 82.9843369
-4.1421809 -13.4079370 82.9038010
-3.0457146 -12.9838619 82.7958527
-1.8373351 -12.3890543 82.6619797
30.0568600 1.3664093 79.4585876
30.5492306 0.2424888 79.5992432
31.0642643 -0.7110859 79.7164459
31.6334152 -1.5407219 79.8126602
32.2387276 -2.2777820 79.8949432
44.5631447 -6.5881662 80.0387573
45.6207161 -6.3621206 79.9648132
46.8037529 -5.9635625 79.8614273
48.1489372 -5.3419971 79.7207184
80.1089783 8.6525068 76.4771729
80.6211395 7.6837835 76.5946732
81.1721344 6.8186784 76.6941986
81.7698746 5.9777460 76.7969589
82.3609543 5.2146597 76.8799057
83.6750259 3.8915980 77.0231400
84.3946991 3.3461001 77.0686569
85.1538620 2.8348081 77.1169510
85.9273758 2.4077594 77.1473465
86.7259750 2.0521708 77.1653900
89.3142242 1.2721190 77.1774445
90.2331772 1.1009730 77.1691666
91.1936798 1.0160649 77.1438980
92.2036057 1.0103612 77.1046829
95.4873352 1.5680931 76.9004745
96.8401260 2.0769596 76.7684860
130.1669006 16.8745956 73.3742752
130.5945587 15.8328886 73.4922409
131.1038055 14.8910027 73.6132202
131.6685181 14.0443926 73.7070923
133.6506958 11.9185648 73.9308319
134.3698883 11.3690405 73.9874420
135.1375427 10.8821650 74.0237885
135.9454041 10.4467030 74.0531693
136.7734833 10.0714369 74.0845566
137.6510620 9.7605591 74.0899353
138.5618286 9.5203276 74.0889435
139.5191956 9.3434076 74.0760498
140.4898987 9.2130814 74.0609818
141.5316010 9.1946278 74.0228348
142.6426544 9.2887297 73.9549484
143.7888489 9.4612627 73.8962326
145.0639801 9.8162727 73.7927170
-115.2230682 -22.8808594 87.7669830
-114.6048965 -23.6054840 87.8455811
-113.9586105 -24.2227707 87.9140167
-111.8694839 -25.5469303 88.0235367
-111.1429825 -25.8699379 88.0401993
-107.1539307 -26.4071331 87.9552917
-106.2656097 -26.2638264 87.9010696
-105.3543472 -26.0451851 87.8410263
-67.2898788 -15.8649015 84.8917084
-66.7069931 -16.6666737 84.9803085
-66.0893936 -17.3544922 85.0594406
-65.4348679 -17.9703007 85.1241379
-64.7570496 -18.5361347 85.1689301
-64.0543747 -19.0172634 85.2096863
-63.3271751 -19.4125996 85.2627716
-62.6081886 -19.7867527 85.2801971
-61.8642845 -20.1201954 85.2895508
-61.0758476 -20.3723698 85.2964706
-60.2801323 -20.5484791 85.2946396
-57.7653542 -20.8838062 85.2400436
-56.9008102 -20.8765392 85.2103577
-55.9846344 -20.7542648 85.1470718
-54.9943771 -20.5207729 85.1007767
-54.0727692 -20.3103580 85.0198364
-53.0710831 -19.9326954 84.9175186
-51.9773788 -19.4036522 84.8130569
-19.1198444 -7.7080498 81.8291321
-18.5792580 -8.6081371 81.9413376
-16.7278976 -10.7135859 82.1821899
-16.0604057 -11.3673706 82.2366943
-5.3438978 -14.0585451 82.2139435
-4.3146625 -13.7907190 82.1347198
-3.2181861 -13.3951788 82.0353928
30.0187073 1.2685657 78.6219940
31.5864449 -1.6277966 78.9786377
32.1902657 -2.4075212 79.0685425
40.5882072 -6.8637586 79.3859253
41.5317841 -6.9020681 79.3536835
42.5175323 -6.8886862 79.3123322
43.4961929 -6.8410583 79.2683640
46.7540131 -6.0830603 79.0321884
48.0622292 -5.4728193 78.8927155
80.1780167 8.7573767 75.5894165
80.6702881 7.7731695 75.7130966
81.2141342 6.9047461 75.8084183
81.8239517 6.0723529 75.9052505
82.4180450 5.3123703 75.9930115
83.0336838 4.5928688 76.0802460
83.7109222 3.9771340 76.1369019
84.4319153 3.4317119 76.1894150
85.1846619 2.9366446 76.2284698
85.9803009 2.5051401 76.2609100
86.7871475 2.1519840 76.2822266
87.6207962 1.8458244 76.2946091
88.4838257 1.5798218 76.2893295
89.3542709 1.3552340 76.3001480
90.2903061 1.1799551 76.2814865
93.2955399 1.1877536 76.1652527
94.3963928 1.3813437 76.0942230
95.5736542 1.7171667 76.0040054
130.3946838 17.3015823 72.4029312
130.8187866 16.2068977 72.5429306
131.3004150 15.2592201 72.6480713
131.8551636 14.3651934 72.7588272
132.4713593 13.5639544 72.8472137
133.1283264 12.8343763 72.9337997
133.8309479 12.2119770 72.9985352
134.5390778 11.6713877 73.0495453
135.3024139 11.1499443 73.0958481
136.1089172 10.7127438 73.1223526
136.9424591 10.3460274 73.1340790
137.7919006 10.0090065 73.1689835
138.7165985 9.7704201 73.1603317
139.6808472 9.6139727 73.1323166
140.6552887 9.4954758 73.1270218
141.6925964 9.4853296 73.0875931
142.8183136 9.5990973 73.0219421
144.0010529 9.8329182 72.9475327
-117.1388779 -21.0137501 86.7952576
-116.6380920 -22.1528950 86.9273224
-116.1011581 -23.0505619 87.0386276
-115.5064545 -23.8122768 87.1283417
-114.8710709 -24.4547329 87.2082214
-114.2092896 -25.0571251 87.2580795
-112.1252747 -26.3518238 87.3689117
-111.3852539 -26.6608601 87.3737259
-107.3719482 -27.1547890 87.3066864
-106.4872818 -27.0321865 87.2660980
-105.6369324 -26.9570770 87.1820984
-104.7430649 -26.7515182 87.1216278
-103.7928467 -26.3598404 87.0287857
-102.7489166 -25.8008270 86.9465027
-67.4809113 -16.4251213 84.1675110
-66.8828049 -17.1843853 84.2542801
-66.2547989 -17.8437347 84.3290405
-65.5912247 -18.4377499 84.3880844
-64.9183121 -18.9536972 84.4429169
-64.2295532 -19.4440804 84.4822617
-63.4974861 -19.9044113 84.5117569
-62.7650681 -20.2796879 84.5435791
-62.0243835 -20.5679874 84.5552444
-61.2350807 -20.7959900 84.5620804
-60.4466286 -21.0111084 84.5599365
-57.9412460 -21.3534222 84.5180817
-57.0993233 -21.3608093 84.4755478
-56.1488647 -21.2311859 84.4319992
-55.2392044 -21.1015549 84.3597031
-54.3033638 -20.8973866 84.3002930
-53.2992897 -20.5388336 84.2079544
-52.2218399 -20.0425587 84.0967865
-19.2389050 -7.9778786 81.0477905
-18.6928673 -8.8555250 81.1550293
-16.8470459 -10.9703360 81.3981857
-16.1774845 -11.6230211 81.4572678
-5.4596772 -14.3456955 81.4352036
-4.4427519 -14.0990438 81.3587875
-3.3710449 -13.7252474 81.2592697
-2.1862490 -13.1994171 81.1390457
30.0039883 1.2350730 77.7751770
31.5782547 -1.6774181 78.1375351
32.1652565 -2.4521124 78.2268829
40.5783615 -6.9136686 78.5468369
41.5219078 -6.9536905 78.5139618
42.4752693 -6.9645915 78.4790039
43.4443703 -6.9204817 78.4369202
46.7309532 -6.1349320 78.1907578
80.2760620 9.0007687 74.6646576
80.7661591 7.9805889 74.8047867
81.3025284 7.0471315 74.9221573
81.8870544 6.2249751 75.0079880
82.4933472 5.4420276 75.1041183
83.1169357 4.7490067 75.1771240
83.8035736 4.1340170 75.2426987
84.5229111 3.5811636 75.3042984
85.2699661 3.0814915 75.3384705
86.0506134 2.6504526 75.3723145
86.8851242 2.3019021 75.3789673
87.6957016 1.9969842 75.3963699
88.5386887 1.7148657 75.4185791
89.4477997 1.4872470 75.4031601
90.3743896 1.3238888 75.3909607
93.3771744 1.3546258 75.2743073
94.4901047 1.5711572 75.1932068
95.6838837 1.9373666 75.1007462
131.0702209 16.6844120 71.5685883
131.5551453 15.6891441 71.6933670
132.0923767 14.7643194 71.8046341
132.6812134 13.9349012 71.9036179
133.3359833 13.2002754 71.9908676
134.7401886 12.0125856 72.0968552
135.4814758 11.4822292 72.1428986
136.2888336 11.0426912 72.1802063
137.1297455 10.6791019 72.1948166
138.0054474 10.3569069 72.2058487
138.9287567 10.1188869 72.2094574
139.8808899 9.9704323 72.1963501
140.8859406 9.8944569 72.1595612
141.9511566 9.9055328 72.1194687
143.0747223 10.0442467 72.0573196
144.3132477 10.3380690 71.9612808
-117.4438248 -22.0342350 86.1556244
-116.9275970 -23.0189877 86.2863312
-116.3496933 -23.8903332 86.3842239
-115.7404404 -24.5927658 86.4674530
-115.0976334 -25.2163124 86.5328827
-114.4271240 -25.7882347 86.5869675
-113.7505112 -26.2670555 86.6367950
-113.0646591 -26.6952267 86.6640244
-109.2513733 -27.8314304 86.6917648
-108.4508438 -27.8900986 86.6596985
-107.6211166 -27.8820820 86.6214905
-106.7531738 -27.8143501 86.5871735
-105.8676453 -27.7123737 86.5448303
-104.9916306 -27.5436268 86.4700165
-104.0604782 -27.2090778 86.3785400
-103.0904541 -26.7567368 86.2752151
-68.2103271 -16.0334435 83.3368225
-67.6377029 -16.8729839 83.4357071
-65.7424545 -18.8236408 83.6512833
-65.0636368 -19.3583889 83.7047272
-64.3712616 -19.8699188 83.7428665
-63.6506233 -20.3038445 83.7794342
-62.9149132 -20.6611748 83.7993469
-62.1518974 -20.9250927 83.8196411
-61.3849106 -21.1909142 83.8206482
-60.5949249 -21.4342480 83.8218002
-58.1060829 -21.7936440 83.7757568
-57.2558250 -21.7891521 83.7365799
-54.4686852 -21.3696384 83.5728989
-53.4962425 -21.0523529 83.4830627
-52.4365120 -20.5830479 83.3736496
-19.3244953 -8.1868229 80.2537460
-18.7745323 -9.0557251 80.3598404
-18.1701546 -9.8775635 80.4537430
-17.5545597 -10.5712271 80.5280762
-16.9288483 -11.1993971 80.5995636
-16.2573013 -11.8385096 80.6662140
-15.5677891 -12.3818073 80.7161789
-14.8558912 -12.8648787 80.7606506
-11.0004005 -14.4814920 80.8436508
-10.1505184 -14.6357613 80.8345108
-7.4738603 -14.7897997 80.7506943
-6.5369825 -14.7219658 80.7048798
-5.5767074 -14.5843410 80.6454163
-4.5503359 -14.3401899 80.5698853
-3.4653203 -13.9793272 80.4749222
-2.3253460 -13.4958248 80.3565598
30.0230770 1.2693373 76.9177933
30.5192871 0.1609583 77.0610580
31.0270481 -0.7950192 77.1810837
32.8048325 -3.1420200 77.4546509
33.4601517 -3.7727594 77.5212936
40.5724068 -6.9267926 77.7005539
41.5206146 -6.9878120 77.6675720
42.4610062 -6.9980717 77.6380997
43.4723663 -6.9215646 77.5815506
44.4838219 -6.7756076 77.5207596
45.5514412 -6.5320430 77.4476318
46.7363358 -6.1217914 77.3408585
80.9252090 8.2618208 73.8881836
81.4386597 7.2959018 74.0106735
82.0010529 6.4256253 74.1095047
82.6092453 5.6548967 74.1983490
83.2512741 4.9900646 74.2735901
83.9387360 4.4097114 74.3105698
84.6537323 3.8460853 74.3795624
85.3857193 3.3084688 74.4357834
86.1565704 2.8681061 74.4724808
86.9875259 2.5113187 74.4864807
87.8066406 2.1870213 74.4939423
88.6400604 1.9021906 74.5103989
89.5419235 1.6790404 74.5103531
90.4825745 1.5442705 74.4803925
91.4645844 1.4862792 74.4496765
92.4509811 1.4904250 74.4225845
93.5264130 1.6089445 74.3530579
94.6283417 1.8487082 74.2828674
95.8865204 2.2743800 74.1625137
131.8768616 16.2815151 70.7087784
132.3964386 15.3114004 70.8175964
132.9623871 14.4389658 70.9188690
133.5948944 13.6890926 71.0008087
134.2721252 13.0099669 71.0833435
134.9656067 12.4129438 71.1363907
135.7205963 11.8812037 71.1932907
136.5391083 11.4736185 71.2071457
137.3859253 11.1122246 71.2315826
138.2754822 10.8020344 71.2397308
139.1898499 10.5887728 71.2407227
140.1785126 10.4720936 71.2158813
141.1762695 10.3975897 71.1973877
142.2644348 10.4498491 71.1361847
143.4275818 10.6442986 71.0657272
144.7212677 11.0185318 70.9498520
-118.1931152 -21.7545986 85.3589096
-117.7001724 -22.8616753 85.5019379
-117.1569672 -23.7880096 85.6194229
-116.5674438 -24.5893688 85.7130508
-115.9384995 -25.2663803 85.7899475
-115.2897263 -25.8699417 85.8544617
-114.6294250 -26.4028587 85.9123306
-113.9355316 -26.8871078 85.9499283
-113.2418671 -27.2958851 85.9755402
-109.4432068 -28.4357395 85.9967499
-108.6327820 -28.5082798 85.9798203
-107.8296585 -28.5539932 85.9395218
-106.9769821 -28.5143719 85.9043579
-106.0922775 -28.4017868 85.8587799
-105.2174225 -28.2252502 85.7969055
-104.2829666 -27.9187374 85.7191086
-103.3432159 -27.5351925 85.6126556
-102.3431320 -27.0332260 85.5089188
-68.9040451 -15.5414829 82.4858322
-68.3441772 -16.4410572 82.5924835
-67.7680588 -17.2530041 82.6909790
-65.8657227 -19.2301807 82.9023590
-65.1879425 -19.7543106 82.9545517
-64.4901047 -20.2204990 82.9966202
-63.7601204 -20.6382103 83.0311356
-63.0379410 -20.9908390 83.0523376
-62.2843361 -21.2898941 83.0643921
-61.5185471 -21.5597458 83.0758057
-60.7264824 -21.7848244 83.0795898
-58.2459297 -22.1602440 83.0360031
-57.3880882 -22.1641273 82.9996567
-54.6052628 -21.7541676 82.8282547
-53.6479568 -21.4523773 82.7443695
-52.5950508 -21.0072212 82.6391144
-19.3833885 -8.3416281 79.4501190
-18.8332005 -9.2007227 79.5553436
-18.2350826 -9.9948597 79.6483841
-17.6287422 -10.6979513 79.7282410
-16.9887276 -11.3692446 79.8008728
-16.3135967 -11.9792395 79.8655090
-15.6148729 -12.5169258 79.9161530
-14.9190369 -13.0249100 79.9625015
-11.0548096 -14.6285448 80.0449219
-10.2036200 -14.7900019 80.0352020
-7.5268292 -14.9538155 79.9523697
-6.6025128 -14.8833952 79.9055405
-5.6324973 -14.7407598 79.8452377
-4.6222348 -14.5139027 79.7721481
-3.5554209 -14.1811562 79.6803131
-2.4089296 -13.6954908 79.5625305
30.0622025 1.3974483 76.0416718
30.5673199 0.2622661 76.1990509
31.0644360 -0.7125530 76.3179321
32.8387032 -3.0674431 76.5930939
33.4859200 -3.7100523 76.6618271
40.5927048 -6.9121122 76.8545303
41.5070305 -6.9773455 76.8277893
42.4828758 -6.9610181 76.7841415
43.4855347 -6.8723726 76.7296982
44.5132942 -6.7108707 76.6663284
45.6038475 -6.4433489 76.5856094
46.7786560 -6.0188036 76.4773865
48.1183586 -5.4114404 76.3244171
81.1290207 8.6879673 72.9350433
81.6307831 7.6838889 73.0730438
82.1738510 6.7525592 73.1916275
82.7677917 5.9895229 73.2593307
83.4030228 5.3047872 73.3457184
84.0883102 4.6983566 73.4057770
84.8119049 4.1394839 73.4479141
85.5236053 3.5972242 73.5231628
86.3195419 3.1519229 73.5416489
87.1362228 2.7800431 73.5660019
87.9388809 2.4415219 73.5961533
88.7940826 2.1780717 73.5938873
89.6958160 1.9648675 73.5936432
90.6290894 1.8343263 73.5771942
91.6139832 1.7883704 73.5390778
92.6413040 1.8217471 73.4944153
93.7120361 1.9620055 73.4354019
94.8565063 2.2611475 73.3427124
132.3114014 17.0668392 69.6792145
132.7875519 16.0089054 69.8184052
133.3276520 15.0507002 69.9352112
133.9345093 14.2679844 70.0162277
134.5926819 13.5794363 70.0853958
135.2677002 12.9475470 70.1658249
136.0226440 12.4449005 70.2012863
136.8505096 12.0172997 70.2263031
137.6971436 11.6429701 70.2543335
138.5768433 11.3628378 70.2696915
139.5610046 11.2128754 70.2356110
140.5517578 11.1169147 70.1954880
141.5473022 11.0441523 70.1881256
143.9127197 11.4583349 70.0351334
-117.9108353 -23.5621529 84.8259354
-117.3515396 -24.4260445 84.9333420
-109.6158066 -28.9674721 85.2974319
-108.8165283 -29.0480843 85.2728271
-107.9943619 -29.0759716 85.2582550
-107.1599884 -29.0769768 85.2126846
-106.2736435 -28.9793720 85.1678314
-105.4151764 -28.8192596 85.1054459
-104.4779129 -28.5468006 85.0338211
-103.5453796 -28.1982651 84.9416275
-102.5858154 -27.7476997 84.8255920
-101.4872513 -27.1026230 84.7149887
-69.0405197 -15.8827209 81.7343292
-68.4621582 -16.7731838 81.8386459
-67.8836441 -17.5704098 81.9354858
-67.2849503 -18.2947159 82.0178299
-66.6513596 -18.9663029 82.0924454
-63.1443481 -21.2922783 82.2963333
-62.3997040 -21.6094284 82.3121567
-56.5977478 -22.4234753 82.2028427
-55.6769104 -22.2868290 82.1459808
-54.7257080 -22.0799637 82.0783844
-53.7619286 -21.7998638 81.9961777
-52.7453194 -21.4082584 81.8931885
-51.6147499 -20.8760624 81.7741165
-19.4207993 -8.4396467 78.6385422
-18.8667736 -9.3179169 78.7456741
-18.2886448 -10.0838528 78.8365631
-17.6640701 -10.8293619 78.9214630
-17.0220718 -11.4798355 78.9930496
-16.3431778 -12.0368176 79.0446472
-14.9559278 -13.1411715 79.1570969
-12.7243719 -14.2536306 79.2315903
-11.9224291 -14.5310783 79.2395782
-5.6794596 -14.8577156 79.0384140
-4.6654563 -14.6317329 78.9638977
-3.5966065 -14.2981300 78.8718338
-2.4462960 -13.8071527 78.7532959
30.6510124 0.4626293 75.3096619
31.1454678 -0.5684308 75.4487305
31.6903896 -1.4565204 75.5558853
32.2730064 -2.2210743 75.6397552
34.2342796 -4.1801090 75.8537750
34.9475899 -4.7186370 75.9074249
35.6768341 -5.1823263 75.9383087
36.4414902 -5.6059351 75.9780426
38.8694725 -6.5017219 76.0092087
39.7407265 -6.6851296 76.0103836
42.5321083 -6.8578620 75.9213638
43.5387611 -6.7614694 75.8622894
44.5801697 -6.5718627 75.7941742
45.6765251 -6.2734895 75.7044754
46.8790245 -5.8192406 75.5954285
81.8693161 8.1752825 72.1159821
82.3978195 7.2202659 72.2284470
82.9717178 6.3581147 72.3420944
83.5868073 5.6430993 72.4239807
84.2575760 5.0260043 72.4907990
84.9818039 4.4585886 72.5390625
85.7000961 3.9286318 72.5848923
86.4771194 3.4757614 72.6304321
87.2954330 3.1049061 72.6440506
88.1148834 2.8022041 72.6539307
89.0013580 2.5543461 72.6444931
89.9033051 2.3310442 72.6543198
90.8341980 2.2147086 72.6328049
91.8223343 2.1847754 72.5997620
92.8701553 2.2539544 72.5405350
93.9715958 2.4386129 72.4729004
95.1403961 2.7957938 72.3800430
133.2669525 16.8719978 68.7468033
133.7849731 15.8789968 68.9020004
134.3571014 15.0200043 69.0128098
135.0039520 14.3000212 69.0721664
135.6824493 13.6458168 69.1538620
136.4275818 13.1578350 69.1770325
137.2301941 12.6982698 69.2228546
138.0956116 12.3456659 69.2309189
138.9918518 12.1105509 69.2367935
139.9870148 11.9758043 69.2071838
140.9535217 11.8469439 69.2181244
142.0292664 11.8816633 69.1621704
143.2129669 12.0992136 69.0697250
-118.0933228 -24.1283741 84.1407928
-117.5087814 -24.9748745 84.2382050
-109.7634277 -29.4188290 84.5890045
-108.9589996 -29.4887905 84.5747910
-108.1507492 -29.5580158 84.5414963
-107.3180466 -29.5668583 84.5087967
-106.4492722 -29.4764614 84.4645767
-105.5723953 -29.3244076 84.4049377
-104.6645508 -29.0961704 84.3293915
-103.7305527 -28.7755871 84.2455521
-102.7782898 -28.3555336 84.1417770
-101.7548904 -27.7837791 84.0156021
-68.5644531 -17.0540619 81.0790558
-67.9847336 -17.8454151 81.1749496
-67.3747864 -18.5717201 81.2586288
-66.7440109 -19.2216454 81.3304977
-63.2301788 -21.5380592 81.5344620
-62.4919739 -21.8685703 81.5501862
-56.7029037 -22.6978607 81.4423370
-55.7941437 -22.5780373 81.3849411
-54.8425140 -22.3769093 81.3219147
-53.8930893 -22.1220474 81.2413559
-52.8601570 -21.7349720 81.1414795
-51.7399979 -21.1926231 81.0176315
-19.4254017 -8.4708071 77.8158340
-18.8896255 -9.3678980 77.9280243
-18.3114548 -10.1672583 78.0219650
-17.6904354 -10.9015226 78.1089325
-17.0428333 -11.5225363 78.1727905
-16.3646393 -12.1114292 78.2335815
-14.9933472 -13.1931362 78.3383255
-12.7450142 -14.3055363 78.4157562
-11.9496117 -14.6038599 78.4296036
-5.7070508 -14.9394665 78.2251663
-4.6997538 -14.7011805 78.1493759
-3.6334703 -14.3581638 78.0568848
-2.4745436 -13.8588610 77.9348679
30.7693939 0.7337390 74.4102554
31.2596264 -0.2992174 74.5517426
31.7880268 -1.2216607 74.6637726
32.3588257 -2.0279169 74.7609177
34.3173866 -4.0112395 74.9794006
35.0223808 -4.5569892 75.0300522
35.7546616 -5.0410504 75.0810776
36.5099182 -5.4556718 75.1043243
38.9407082 -6.3526545 75.1420441
39.8267899 -6.5219865 75.1258545
42.6097260 -6.6846189 75.0478668
43.6334763 -6.5627699 74.9821396
44.6860428 -6.3479214 74.9063873
45.8139420 -6.0215740 74.8078995
47.0157127 -5.5445457 74.6957932
82.1699448 8.8010511 71.1355591
82.6786957 7.7413654 71.2830429
83.2144775 6.8596783 71.3852005
83.8298798 6.1293058 71.4656067
85.9284821 4.3471065 71.6427689
86.7101898 3.8970461 71.6840439
87.5207138 3.5482354 71.7022171
88.3581848 3.2370014 71.7248459
89.2323227 2.9673815 71.7226715
90.1290512 2.7596042 71.7184830
91.0758133 2.6614320 71.6907043
92.0630646 2.6682920 71.6555252
93.1607819 2.7877095 71.5961685
94.2790070 3.0391302 71.5164185
134.9159393 16.0175018 67.9360504
135.5392914 15.2999153 68.0101242
136.2241669 14.6263418 68.0855408
136.9304047 14.0463829 68.1571350
137.7169495 13.5972700 68.1868134
138.5691376 13.2352324 68.2179947
139.5138092 13.0597639 68.1844711
140.5259552 12.9255476 68.1755676
141.5937042 12.9249907 68.1073532
-118.2243652 -24.6607876 83.4328537
-117.6488342 -25.4567051 83.5285187
-117.0378647 -26.1695652 83.6109390
-116.4017715 -26.7951202 83.6803360
-106.5862885 -29.9127598 83.7479172
-105.6867523 -29.7440968 83.6975632
-104.7955093 -29.5304699 83.6243896
-103.8703156 -29.2484512 83.5426865
-102.9302597 -28.8709164 83.4444046
-101.9137421 -28.3200932 83.3183594
-100.7967148 -27.6092815 83.1736145
-69.2008133 -16.3670807 80.1978149
-68.6357574 -17.2855911 80.3104935
-68.0615540 -18.0613422 80.4042511
-60.2161179 -22.7444477 80.7881851
-59.3881302 -22.8975430 80.7765198
-58.5469513 -22.9661579 80.7527008
-57.6696129 -22.9561996 80.7164612
-52.9484367 -21.9676056 80.3756332
-51.8436317 -21.4392357 80.2507019
-19.4059105 -8.4116650 76.9793243
-18.8717327 -9.3385124 77.0958786
-18.3064957 -10.1559067 77.1947403
-17.6964130 -10.8824205 77.2774048
-17.0512619 -11.5491724 77.3530045
-16.3853855 -12.1694498 77.4195175
-15.6978931 -12.7063580 77.4684296
-14.9823313 -13.2017870 77.5185318
-5.7140779 -14.9487429 77.4020233
-4.6747122 -14.6807318 77.3151627
-3.6017578 -14.3219719 77.2209625
-2.4455900 -13.8233423 77.1006470
30.9194546 1.0952469 73.4904861
31.4086685 0.0369941 73.6443787
31.9297390 -0.9550892 73.7802963
32.4840088 -1.7718061 73.8682480
33.0932274 -2.4966149 73.9531479
33.7411995 -3.1617746 74.0251389
34.4274101 -3.7758207 74.0948792
35.1440697 -4.3053498 74.1484146
40.8339005 -6.4228439 74.2338638
41.7718925 -6.4616961 74.1970444
42.7442017 -6.4241438 74.1545868
43.7743607 -6.2862720 74.0822754
44.8088951 -6.0732107 74.0153961
45.9279175 -5.7305837 73.9235458
84.1520996 6.7888303 70.4839783
84.8060684 6.1392012 70.5391235
85.4944229 5.4492831 70.6335678
86.2153244 4.9023128 70.6870956
86.9865189 4.4782152 70.7170334
87.8078613 4.1147442 70.7328339
88.6454620 3.7930958 70.7340622
89.5010071 3.4986527 70.7680893
90.4201279 3.3232136 70.7446899
91.3875351 3.2573152 70.7237701
92.4324493 3.3560174 70.6579590
93.5661545 3.5471184 70.5894852
94.7247543 3.8603342 70.4822159
136.8922272 15.8452978 66.9618912
137.6219635 15.2683630 67.0205154
138.4200439 14.8132429 67.0519714
-118.3668289 -25.0471401 82.7157364
-117.7770386 -25.8457394 82.8130798
-117.1478882 -26.5656109 82.8921509
-116.5198822 -27.1617088 82.9591522
-106.6955948 -30.2908764 83.0312119
-105.8403702 -30.1571064 82.9640045
-104.9186707 -29.9425869 82.9088669
-104.0210648 -29.6848164 82.8247910
-103.0776215 -29.3176994 82.7340927
-102.0744781 -28.8043995 82.6107941
-69.2604294 -16.5016327 79.4134216
-68.6927185 -17.4072781 79.5264206
-68.1138458 -18.2021103 79.6225739
-60.2707558 -22.9034519 80.0116577
-59.4579353 -23.0448799 79.9985809
-58.5986404 -23.1129456 79.9744797
-57.7254448 -23.1145096 79.9393158
-52.9821777 -22.1214027 79.5947113
-51.9072609 -21.6162930 79.4738083
-19.3684711 -8.2939634 76.1303024
-18.8410797 -9.2213573 76.2467880
-18.2726936 -10.0761070 76.3519745
-17.6641312 -10.8364296 76.4444809
-17.0383377 -11.5026884 76.5181427
-16.3629780 -12.1134596 76.5844193
-15.6640625 -12.6559238 76.6321030
-14.9519854 -13.1587086 76.6860275
-5.6777616 -14.8703947 76.5633240
-4.6587119 -14.6061716 76.4802017
-3.5631707 -14.2348480 76.3793182
-2.4096317 -13.7296963 76.2589264
31.5895958 0.4323848 72.7204666
32.1051598 -0.5308300 72.8540039
32.6557999 -1.4129148 72.9620056
33.2382355 -2.1549258 73.0449295
33.8972626 -2.8494432 73.1260605
34.5897484 -3.4320662 73.1783600
35.2993584 -3.9565852 73.2189560
40.9768448 -6.1075859 73.3303833
41.9275818 -6.1322341 73.2869720
42.9149551 -6.0834608 73.2394867
43.9195251 -5.9492779 73.1871948
44.9962234 -5.6869073 73.0971146
46.1574593 -5.2699008 72.9953003
84.5559082 7.5854831 69.4877472
85.1821594 6.8414693 69.5781097
85.8577652 6.1665721 69.6374741
86.5812988 5.6039534 69.6964951
87.3568115 5.1760020 69.7157364
88.1537247 4.7703896 69.7577896
88.9845200 4.4328227 69.7673187
89.8627548 4.1795335 69.7629471
90.8001938 4.0484748 69.7526016
91.8214340 4.0803695 69.7174835
92.9385223 4.2682433 69.6118546
-118.4668274 -25.4093857 81.9878235
-117.8695221 -26.1910343 82.0815201
-114.5715942 -28.9411411 82.3629074
-113.8760681 -29.3284073 82.3947601
-113.1497803 -29.6753464 82.4196548
-112.4031982 -29.9745483 82.4320679
-111.6538162 -30.2058392 82.4336090
-110.8818436 -30.3740807 82.4275970
-110.0870819 -30.4848518 82.4190521
-109.3119202 -30.5847359 82.4041443
-108.5075073 -30.6734734 82.3752441
-107.6688919 -30.6750431 82.3444366
-105.0557327 -30.3079929 82.1800308
-104.1356125 -30.0323524 82.1003876
-103.1955490 -29.6714687 82.0069351
-102.1977005 -29.1830406 81.8912048
-101.1162109 -28.5499001 81.7499695
-69.2862930 -16.5931053 78.6211853
-68.7178574 -17.4972687 78.7361298
-68.1437836 -18.2986412 78.8334579
-56.8840332 -23.1813698 79.1102905
-55.9613495 -23.0503254 79.0523453
-55.0343742 -22.8671246 78.9884644
-54.0734062 -22.6137962 78.9087982
-53.0276489 -22.2344589 78.8078232
-51.9596596 -21.7334175 78.6889877
-19.3112259 -8.1429834 75.2768250
-18.7753391 -9.0832233 75.3998413
-18.2078876 -9.9599075 75.5111313
-17.6207123 -10.7062283 75.5952148
-12.6871557 -14.1938219 75.9215240
-11.8878460 -14.4675016 75.9303894
-7.5397129 -14.9959726 75.8280640
-6.5936418 -14.9043760 75.7757034
-5.6208158 -14.7380657 75.7154160
-4.5999432 -14.4776192 75.6323395
-3.5036595 -14.0811911 75.5260086
-2.3062508 -13.5218601 75.3883438
32.3372536 -0.0345265 71.9209442
32.8678551 -0.9458406 72.0401077
33.4427032 -1.7418764 72.1323166
34.0799828 -2.4369562 72.2103882
34.7676659 -3.0510831 72.2761002
35.4645195 -3.6078773 72.3287888
39.3630371 -5.4599462 72.4566040
40.2544022 -5.6040220 72.4195938
41.1728439 -5.7113361 72.4063568
42.1284637 -5.7374635 72.3790665
43.1185799 -5.6581707 72.3296356
44.1679230 -5.4632912 72.2472229
45.2546844 -5.1552610 72.1629486
46.4627304 -4.6385016 72.0329819
85.6497498 7.7975602 68.5129318
86.3228760 7.0757723 68.6161194
87.0341797 6.4816146 68.6889038
87.7953186 6.0355253 68.7096100
88.6024170 5.6303391 68.7297974
89.4299850 5.2785254 68.7560959
90.2902985 5.0469027 68.7713089
91.2895126 5.0136003 68.7267151
-118.5538025 -25.6554737 81.2463303
-117.9585648 -26.4319057 81.3413010
-114.6642532 -29.1940918 81.6287384
-113.9585800 -29.6072197 81.6540222
-113.2291718 -29.9388008 81.6831055
-112.4851532 -30.2142105 81.6907196
-111.7346344 -30.4415359 81.6966324
-110.9632797 -30.6351395 81.6904831
-110.1819534 -30.7685738 81.6763306
-109.3901520 -30.8654385 81.6653214
-108.5916824 -30.9206409 81.6380615
-107.7566528 -30.9201241 81.6024170
-105.1386642 -30.5737286 81.4408340
-104.2234879 -30.3022060 81.3633423
-103.2880402 -29.9710178 81.2711334
-102.3020706 -29.5112286 81.1589661
-101.2112122 -28.8879852 81.0200729
-69.2992325 -16.6205769 77.8193588
-68.7332458 -17.5239029 77.9332657
-68.1619492 -18.3342533 78.0346222
-56.9106369 -23.2407932 78.3188782
-55.9806557 -23.0922642 78.2536621
-55.0375290 -22.9000263 78.1837311
-54.0814285 -22.6552448 78.1101685
-53.0564842 -22.2835712 78.0107040
-51.9370956 -21.7466583 77.8813858
-19.2242374 -7.9183197 74.4046936
-18.6867695 -8.8612213 74.5300369
-18.1259632 -9.7353983 74.6450272
-17.5462894 -10.5041199 74.7305984
-12.6206713 -14.0497513 75.0695419
-11.8302145 -14.3154898 75.0743790
-7.4768796 -14.8358927 74.9826736
-6.5150547 -14.7202425 74.9181671
-5.5454650 -14.5453663 74.8561935
-4.5051007 -14.2579002 74.7679901
-3.3996198 -13.8350430 74.6611176
33.7002373 -1.2002977 71.1929016
34.3144951 -1.9218712 71.2683334
34.9791222 -2.5721040 71.3384857
35.6796837 -3.1629076 71.4065475
39.5845680 -4.9966688 71.5271988
40.4665642 -5.1518793 71.5139847
41.3900833 -5.2249832 71.4843979
42.3655319 -5.2031264 71.4381332
43.3965912 -5.0784860 71.3764801
44.4417496 -4.8621368 71.3057480
45.5952721 -4.4684734 71.1898193
90.0141754 6.4443655 67.6857452
90.9507065 6.3215690 67.6327438
-119.2030487 -25.0141487 80.3922424
-118.6101913 -25.8771229 80.4994965
-118.0160522 -26.6613064 80.5942001
-116.1049728 -28.4806213 80.7955780
-115.4132385 -28.9802151 80.8408661
-111.7952805 -30.6481686 80.9478073
-111.0385818 -30.8471355 80.9462967
-108.6569443 -31.1328659 80.8907852
-107.8168182 -31.1288071 80.8572540
-103.3673782 -30.2156620 80.5283127
-102.3868942 -29.7657986 80.4177170
-101.3077545 -29.1486473 80.2783127
-69.2904358 -16.5783062 77.0038681
-68.7190094 -17.4991913 77.1272888
-68.1466675 -18.3164310 77.2276382
-63.4297028 -22.0816975 77.6067581
-62.6941833 -22.4251022 77.6293716
-58.6546516 -23.2830887 77.5908508
-57.8104362 -23.3018894 77.5639191
-55.0448837 -22.9010410 77.3832397
-54.0797653 -22.6527500 77.3058929
-53.0362167 -22.2596760 77.1992645
-51.9314804 -21.7085800 77.0711060
-18.5695572 -8.6085091 73.6630478
-18.0101089 -9.4653788 73.7709732
-17.4414577 -10.2456837 73.8644562
-16.8271446 -10.9794531 73.9533234
-16.1697502 -11.6242266 74.0235062
-15.4722681 -12.1881456 74.0864334
-14.7702923 -12.6805983 74.1229019
-12.5457811 -13.8523512 74.2127380
-11.7581892 -14.1353159 74.2321091
-10.9304934 -14.3520288 74.2270203
-10.0757055 -14.5064373 74.2089691
-9.2205019 -14.6213703 74.1954727
-8.3244667 -14.6622267 74.1647797
-5.4284482 -14.2666502 73.9790192
-4.3757191 -13.9443436 73.8824234
-3.2588754 -13.5023823 73.7803192
34.0056229 -0.5402319 70.2271957
34.6078377 -1.2931587 70.3209152
35.2513962 -1.9711480 70.3926468
35.9407234 -2.5799417 70.4597702
36.6777954 -3.0545809 70.4823303
37.4300079 -3.5079784 70.5370941
38.2011948 -3.8835642 70.5577240
39.0060463 -4.1807938 70.5717239
39.8674164 -4.3834896 70.5494537
40.7549706 -4.5441084 70.5642319
41.7078400 -4.5879312 70.5181274
-119.2611771 -25.1984196 79.6385498
-118.6685104 -26.0642452 79.7460480
-118.0706406 -26.8367348 79.8412476
-116.1532516 -28.6569901 80.0413055
-115.4629593 -29.1420174 80.0880280
-111.8566895 -30.8105850 80.1933517
-111.0794601 -30.9965897 80.1904297
-108.7138901 -31.3098907 80.1387482
-107.8704987 -31.2942219 80.1009750
-103.4274063 -30.3811817 79.7730789
-102.4175720 -29.9208622 79.6593628
-101.3611374 -29.3188992 79.5213318
-68.6921997 -17.3854637 76.2988510
-68.1204987 -18.2154503 76.4043045
-63.4059029 -22.0538120 76.8039780
-62.6694832 -22.3821526 76.8193741
-58.6492081 -23.2276134 76.7824936
-57.7761955 -23.2334805 76.7415466
-55.0210457 -22.8591480 76.5701904
-54.0476875 -22.5866032 76.4884338
-53.0134201 -22.1723137 76.3810349
-51.8948402 -21.5991497 76.2455597
-17.8692970 -9.1108780 72.8857346
-17.2936554 -9.9162045 72.9798889
-16.6867542 -10.6467028 73.0609436
-16.0408478 -11.3067942 73.1437073
-15.3550014 -11.8760042 73.1957779
-14.6569815 -12.3996086 73.2610397
-12.4291000 -13.5783796 73.3424301
-11.6361151 -13.8509560 73.3524628
-10.7913780 -14.0587111 73.3425064
-9.9538660 -14.2171249 73.3301010
-9.1127768 -14.3430338 73.3277740
-8.2031488 -14.3566875 73.2867279
-5.2809615 -13.9188681 73.1015091
-4.2224512 -13.5516577 72.9986343
34.9683380 -0.4936743 69.3189316
35.6039619 -1.2031327 69.4203568
36.2903709 -1.8222536 69.4748306
36.9928513 -2.3531177 69.5178986
37.7348862 -2.8285291 69.5666351
38.5284195 -3.1920707 69.5870361
39.3364525 -3.4771447 69.6033554
40.1908150 -3.6794398 69.6003418
41.1105499 -3.7844999 69.5708160
-118.7074509 -26.1914845 78.9848709
-118.1117401 -26.9352036 79.0749893
-116.1774597 -28.7546043 79.2760696
-115.4992828 -29.2345600 79.3225174
-110.3505554 -31.2570896 79.4194946
-109.5536575 -31.3754196 79.4033203
-108.7407074 -31.4148388 79.3756866
-107.8892212 -31.3913078 79.3345184
-103.4523087 -30.4889565 79.0068130
-102.4795532 -30.0611610 78.8988495
-101.4120865 -29.4579773 78.7600403
-68.6277618 -17.2474976 75.4739456
-68.0747147 -18.0647030 75.5707092
-61.8561478 -22.5338039 76.0070190
-61.0835457 -22.7629261 76.0034409
-58.6019325 -23.1210251 75.9581375
-57.7365494 -23.1268082 75.9215164
-56.8408165 -23.0652561 75.8752899
-55.9282494 -22.9384632 75.8229599
-54.9709816 -22.7320843 75.7465515
-53.9950829 -22.4373531 75.6608810
-52.9509010 -21.9993382 75.5477142
-51.8041840 -21.3959827 75.3986893
-17.7080193 -8.6602011 71.9642563
-17.1204662 -9.5094967 72.0873260
-16.5183868 -10.2701950 72.1814041
-15.8834047 -10.9314451 72.2531662
-10.6571560 -13.7118568 72.4617844
-9.8054266 -13.8736858 72.4525452
-8.9375029 -13.9506550 72.4277496
-7.9981275 -13.9352140 72.3780823
-7.0624423 -13.8767242 72.3320770
-6.0807476 -13.7233982 72.2760086
-5.0582871 -13.4172192 72.1716919
-3.9763458 -13.0170097 72.0737000
36.0488510 -0.2164698 68.3855362
36.7161560 -0.8929421 68.4738159
37.3998947 -1.4979862 68.5444870
38.1391792 -1.9536670 68.5619736
38.9310493 -2.3023381 68.5855103
39.7449608 -2.5659409 68.5957565
40.6138344 -2.7486277 68.5797958
41.5687103 -2.8302810 68.5414810
-118.7267838 -26.2384911 78.2118225
-118.1253967 -26.9843445 78.3007965
-116.1913834 -28.8118839 78.5022430
-115.5201111 -29.3057365 78.5522308
-110.3705978 -31.3344288 78.6506424
-109.5797729 -31.4320831 78.6321793
-108.7602234 -31.4672871 78.6028442
-107.9171524 -31.4618015 78.5680084
-103.4829025 -30.5625496 78.2351685
-102.5196838 -30.1376476 78.1302185
-101.4150543 -29.4935246 77.9809799
-68.5693741 -17.0278606 74.6260529
-67.9992065 -17.8909206 74.7434998
-61.8096046 -22.3946705 75.1862946
-61.0195122 -22.6201878 75.1794968
-58.5433578 -22.9782658 75.1360779
-57.6718521 -22.9686584 75.0936508
-56.7754745 -22.8823547 75.0372086
-55.8475800 -22.7307262 74.9695969
-54.8934250 -22.5135174 74.8999710
-53.9075089 -22.1985245 74.8056183
-52.8429871 -21.7310314 74.6939392
-16.9055061 -8.9772472 71.1706467
-16.3127995 -9.7470446 71.2552109
-15.6840029 -10.4720192 71.3516998
-10.4855728 -13.2912664 71.5603409
-9.6178417 -13.4116621 71.5468292
-8.7193880 -13.4439821 71.5084076
-7.8080020 -13.4518976 71.4784546
-6.8557901 -13.3804207 71.4256287
-5.8521605 -13.1629963 71.3461533
-118.7289810 -26.2229958 77.4225769
-118.1375351 -26.9808521 77.5149307
-114.8460541 -29.7934017 77.8175735
-114.1403656 -30.1831760 77.8535233
-113.4112015 -30.5039063 77.8670044
-112.6626816 -30.7835903 77.8780136
-107.0738220 -31.4451160 77.7454071
-106.2014389 -31.3318005 77.6885834
-103.4772339 -30.5618000 77.4509354
-102.4950409 -30.1079464 77.3380814
-101.4042511 -29.4643440 77.1906357
-67.8941650 -17.6033440 73.8900757
-67.3125610 -18.3700008 73.9824295
-66.6951294 -19.0551186 74.0560455
-60.1539879 -22.5772781 74.3379440
-59.3249664 -22.6976280 74.3176727
-58.4658203 -22.7660217 74.2868958
-57.5845184 -22.7387810 74.2473602
-56.6859589 -22.6428814 74.1949387
-55.7462234 -22.4781628 74.1220474
-54.8022957 -22.2497673 74.0511627
-53.8175163 -21.9086342 73.9575882
-52.7096710 -21.3864040 73.8263397
-16.6394939 -8.3025541 70.2132721
-16.0546017 -9.1049461 70.3265686
-15.4411936 -9.8781662 70.4256134
-14.7895136 -10.5064716 70.4814072
-14.1157827 -11.0566769 70.5390701
-13.4045782 -11.5325775 70.5846634
-12.6480961 -11.9524431 70.6183014
-11.8910990 -12.3022413 70.6461182
-11.0903521 -12.5791416 70.6563263
-8.4812002 -12.8600111 70.5805588
-7.5434995 -12.8532972 70.5462875
-6.5682125 -12.7347412 70.4890366
-5.5494542 -12.4532509 70.3963623
-4.4668660 -12.0490923 70.2699509
-118.7084503 -26.1901360 76.6387329
-118.1193924 -26.9639606 76.7333450
-114.8364182 -29.7490253 77.0302200
-114.1293793 -30.1466846 77.0660477
-113.4018784 -30.4814987 77.0891418
-112.6452332 -30.7493763 77.0930405
-107.0653458 -31.4216290 76.9628143
-106.1933594 -31.2903538 76.9018326
-103.4679337 -30.5090313 76.6603546
-102.4904633 -30.0442886 76.5482254
-101.3653259 -29.3773575 76.3849106
-67.7748566 -17.1811180 72.9957199
-67.1806259 -17.9975739 73.1090927
-66.5688782 -18.7362518 73.2029648
-60.0411873 -22.2960072 73.4675140
-59.2255898 -22.4391747 73.4746094
-58.3650475 -22.4907055 73.4408569
-57.4739799 -22.4457989 73.3849945
-56.5743828 -22.3476486 73.3405457
-55.6402893 -22.1761703 73.2767105
-54.6693001 -21.9053173 73.1890564
-53.6628494 -21.5078564 73.0893021
-52.5370026 -20.9351215 72.9333954
-15.7356462 -8.2816839 69.3316193
-15.1364622 -9.1143551 69.4681015
-14.4963989 -9.8006191 69.5438080
-13.8260584 -10.3687029 69.5983963
-13.1292620 -10.8358040 69.6251297
-12.3896484 -11.2928944 69.6773300
-11.6217194 -11.6441755 69.6961365
-10.8106270 -11.9095001 69.7099304
-8.1823511 -12.1358395 69.6203842
-7.2220769 -12.0716553 69.5746994
-6.2055759 -11.8593283 69.4952545
-118.6813126 -26.0460739 75.8287201
-118.0808411 -26.8406200 75.9292908
-103.4153671 -30.3781967 75.8511047
-102.4145966 -29.8772736 75.7287903
-67.0329056 -17.5825348 72.2354279
-66.4335938 -18.3259125 72.3236313
-65.8004684 -19.0248184 72.4135666
-65.1404648 -19.6054611 72.4682770
-63.0278854 -20.9815884 72.5956039
-62.2903748 -21.3092842 72.6069565
-59.9165726 -21.9705257 72.6155777
-59.0913429 -22.1019039 72.6047592
-58.2344551 -22.1313610 72.5705261
-57.3567009 -22.0889549 72.5314560
-56.4297028 -21.9558449 72.4650269
-55.4757080 -21.7401810 72.3920441
-54.4810028 -21.4158306 72.2934494
-53.4557838 -20.9757175 72.1794357
-14.7558765 -8.1162796 68.4235458
-14.1257906 -8.8728323 68.5457993
-13.4642382 -9.4733858 68.6158295
-12.7852564 -10.0133495 68.6785889
-12.0539198 -10.4562378 68.7066727
-11.2853966 -10.8109207 68.7273254
-10.4684734 -11.0528755 68.7183456
-9.6244707 -11.2173443 68.7122574
-8.7448864 -11.2805672 68.6893463
-7.8054042 -11.2428160 68.6502457
-6.8129849 -11.0929585 68.5842209
-118.6230087 -25.8350563 75.0049057
-118.0284805 -26.6559124 75.1127014
-103.3692703 -30.1861496 75.0392685
-102.3505249 -29.6438751 74.9049835
-66.2504120 -17.8213654 71.4338150
-65.6300812 -18.5083809 71.5057068
-64.9750443 -19.1410713 71.5854797
-62.8840256 -20.5746231 71.7229462
-62.1568298 -20.9263649 71.7539597
-59.7648430 -21.5740128 71.7487564
-58.9269829 -21.6605797 71.7277679
-58.0755424 -21.6779251 71.6893997
-57.1919975 -21.6183777 71.6507874
-56.2357635 -21.4298820 71.5669022
-55.2594681 -21.1735249 71.4806061
-54.2689705 -20.8337460 71.3903122
-13.0186882 -8.3224192 67.5489655
-12.3178787 -8.8454170 67.6219635
-11.6027260 -9.3535461 67.7048874
-10.8302374 -9.7185984 67.7186813
-10.0341911 -9.9881306 67.7322311
-9.1795788 -10.1156435 67.7015457
-8.2469921 -10.1000910 67.6359863
