-117.9151917 -26.8050251 177.3103485
-99.6002502 -27.4166431 177.3088531
143.0430756 10.0732517 175.6091309
143.5290833 10.0857658 175.6225586
-119.2132568 -24.7905312 176.8689270
-118.8547363 -25.3432236 176.8951263
-118.5237350 -25.8444633 176.8939819
-118.1995850 -26.3270664 176.9026184
-117.8711243 -26.7208862 176.9114685
-99.5838165 -27.2944794 176.9057770
143.0870514 10.1985826 175.1827850
143.5727997 10.2213774 175.1948242
-118.8638077 -24.9817867 176.4303741
-118.5239792 -25.6554070 176.4682159
-118.1897583 -26.1946659 176.4915771
-117.8537369 -26.6100903 176.5068054
-99.5773239 -27.1646156 176.5020752
147.5592041 11.5398645 174.6958160
-117.8470535 -26.4817257 176.1028290
-99.5246277 -26.9772873 176.0847778
147.6780396 11.7757139 174.2368317
-117.8327484 -26.3320827 175.6909332
131.9275818 17.2710896 173.6180573
131.8049774 18.2149715 173.1212616
132.0676575 17.6100903 173.1642761
146.7067108 11.7832966 173.3584137
-100.4605560 -27.2980137 174.9084015
132.2084808 17.9806614 172.7136383
146.8789215 12.1529694 172.8876495
-100.4172745 -27.0323524 174.4919586
132.3555908 18.3678226 172.2391052
-117.0629196 -26.1508141 174.0670471
-100.3951569 -26.7453880 174.0879364
-99.8301392 -26.2010803 174.0300751
132.6984863 18.2460155 171.7608643
132.9948883 17.6309757 171.8158264
145.9897156 12.4684963 172.0460815
-116.9895782 -25.9535789 173.6754913
-100.3328552 -26.3912621 173.6625366
133.1330414 18.1218033 171.3249969
146.1842041 12.9373560 171.5837097
-117.3319244 -25.2756176 173.2214203
-116.9625549 -25.6805172 173.2589569
133.6059875 18.0495338 170.8848724
133.9009857 17.4942284 170.9480591
146.4326477 13.5157528 171.0831909
-116.9288025 -25.3932762 172.8264160
134.0812836 17.9701939 170.4547272
-116.5212402 -25.4864616 172.4481659
-116.1394882 -25.8524837 172.4795380
-101.0754929 -26.0875587 172.4431305
134.6070557 18.0041180 170.0275574
134.9164734 17.4918327 170.0811005
144.5886230 13.7398930 170.1793365
145.0486908 13.8192396 170.2416687
145.6793518 14.1177397 170.1914368
146.3363800 14.4555655 170.1418152
-116.1271439 -25.4741650 172.0291290
134.8380890 18.6171818 169.5306549
135.1349945 18.0590839 169.5815430
-115.7006226 -25.4721622 171.6274872
-115.3191299 -25.8253517 171.6684418
-101.8821793 -26.0437450 171.6494904
135.9790955 17.7474766 169.1719818
136.3171082 17.3180161 169.2207642
136.6573181 16.8841057 169.2696533
136.9771881 16.5690250 169.2874908
137.3287354 16.2821789 169.2776642
140.1079865 14.6968889 169.3425903
140.5476837 14.5779600 169.3411560
141.0101166 14.5065022 169.3148346
141.4767761 14.4203157 169.3141327
141.9346924 14.3144341 169.3658905
142.4553680 14.3851328 169.2973633
142.9462585 14.4551582 169.2592010
143.4416656 14.4894066 169.2580414
-115.2777481 -25.4457531 171.2255096
136.2596130 18.5055237 168.6476288
136.5903931 18.0465355 168.7025452
136.9266968 17.5927238 168.8042908
137.2723846 17.2732182 168.8184814
137.6110687 16.8910713 168.8358612
140.3488770 15.3320141 168.8467102
140.7754669 15.1745758 168.8499146
141.2316742 15.0459690 168.8449860
-114.8617630 -25.3532124 170.8064423
-114.4612274 -25.6889896 170.8587341
-103.5799789 -26.4729996 170.8744202
137.3739014 18.6863976 168.2052917
137.6469269 18.2257423 168.2131500
137.9052277 17.7414589 168.2824249
138.2453461 17.4131870 168.3097839
138.6126709 17.0517902 168.3639679
139.7537231 16.3809052 168.3619995
140.1744232 16.1872520 168.3533173
140.6111908 16.0226688 168.3307800
-114.4197388 -25.2314339 170.3965759
-103.4945602 -25.9241982 170.4416656
138.6086273 18.3292503 167.7715912
138.9529266 17.9379597 167.8134308
140.0791931 17.1822128 167.8303833
-113.5991974 -25.3068123 170.0273895
-104.3556366 -25.9683475 170.0670471
-103.8611755 -25.6345024 170.0236206
-103.4025192 -25.3209000 169.9900513
-113.5422974 -24.7442074 169.5601807
-104.2374268 -25.3194256 169.6044312
-111.9827805 -25.1914940 169.1955872
-105.9609528 -25.6096573 169.2449493
-105.5155334 -25.4189930 169.2154083
-105.0658340 -25.1948261 169.1878662
-104.6166382 -24.9594784 169.1768646
-105.8507538 -24.9100552 168.7860260
-111.0406418 -24.2450504 168.3223114
-110.6567612 -24.3868046 168.3527374
-110.2700729 -24.4972019 168.3705139
-109.8670654 -24.5895634 168.3962860
-109.4584885 -24.6661491 168.4174347
-109.0450363 -24.6847820 168.4021912
-108.6240997 -24.7082119 168.4014282
-106.9815979 -24.6107121 168.4053650
-106.5529556 -24.4421082 168.3515930
-106.1281586 -24.2727489 168.3105621
-109.7266846 -23.7239571 167.8875122
-109.3121872 -23.8602200 167.9257813
-108.9178238 -23.9297676 167.9461365
139.9741058 19.8833790 140.9130554
141.9724121 18.9350872 140.9673615
138.7896118 19.3562183 140.4098206
139.1318665 19.0175591 140.4567261
139.4756927 18.7353268 140.4667358
141.5453796 17.8759499 140.5587616
141.9574280 17.7675400 140.5624847
142.4341888 17.7474308 140.5680389
142.9843140 17.8892651 140.5687256
138.4129333 18.4472961 140.0706635
142.0722504 16.8154831 140.1159515
142.5502472 16.7781200 140.1159668
143.1321411 16.8664875 140.1141663
144.1995087 17.0466042 140.2112427
137.6905212 17.8945923 139.6687164
138.0500336 17.5748348 139.6874542
141.7895355 16.1422367 139.7683411
142.2980652 16.1354733 139.7710266
142.7440186 16.0549984 139.7312317
143.3059998 16.1538010 139.7710266
143.8357544 16.2183170 139.7907410
144.3841248 16.2972546 139.7895813
144.9662018 16.4793034 139.8045959
136.7311096 18.0021152 139.2744904
137.0628510 17.5478973 139.2748108
145.7938843 16.1663666 139.3841858
135.1970520 19.0758495 138.7511292
135.4978027 18.5847702 138.7707367
136.4662323 17.3144989 138.8623352
136.8150177 16.9107857 138.8701172
145.4142151 15.3497667 138.9609222
146.0109711 15.5781078 138.9850616
134.6728363 18.9823666 138.3165283
146.3210449 15.1093283 138.5791016
134.1805267 18.9081249 137.8838501
134.4553528 18.4075146 137.9110260
146.0084534 14.4421234 138.1403198
146.6271820 14.6829796 138.1668091
143.6300354 13.3411331 137.7787323
144.1420593 13.4378862 137.7731323
147.0296478 14.4417248 137.7455902
133.5063171 18.4284782 137.0511780
143.4569702 12.9707241 137.3834229
143.9995422 13.0703888 137.3864594
146.7621613 13.8663092 137.3065338
147.3840179 14.1373425 137.3228149
143.3690186 12.6683321 137.0307007
143.8959961 12.7491293 137.0292358
147.8303070 13.9995327 136.8902588
-110.3656693 -20.9804020 141.3186798
-109.9985199 -21.1637802 141.3295593
-109.6009293 -21.3687954 141.3209534
-109.2106094 -21.4249954 141.3386688
-108.7980042 -21.4764862 141.3470306
-108.3920364 -21.5570221 141.3402100
-107.9279251 -21.5986824 141.3462067
132.6125641 18.6210194 136.1708527
143.1750641 12.2541933 136.5840759
143.6590118 12.2747307 136.5591125
-110.9580994 -22.0132122 140.9267731
-110.5805435 -22.1615887 140.9378204
-107.6283875 -22.7595520 140.9487457
-106.4189529 -22.0944214 140.9761047
132.4603577 18.1831608 135.7538300
147.4092865 12.9747849 136.0948944
-111.1159439 -22.9394665 140.6136322
-110.7245255 -23.0954094 140.6130219
-107.8607559 -23.4198666 140.6649017
-107.4616928 -23.3101406 140.6638641
-107.0523148 -23.2103577 140.6124420
-106.5972061 -23.0660477 140.5925293
-106.1543884 -22.8917046 140.5934448
-105.7172318 -22.6660347 140.5891724
-105.2543030 -22.3547955 140.5859222
132.0438843 18.3419819 135.3098907
132.3302612 17.7644577 135.3293915
147.2351074 12.5831833 135.6740417
-111.6195145 -23.5874615 140.2752686
-106.3188553 -23.7320461 140.2208252
-105.8724823 -23.5418034 140.2080078
-105.4203186 -23.3228931 140.2192383
148.3588257 12.8311329 135.2177582
-113.2219009 -23.3917179 139.9121246
-112.8493958 -23.6623707 139.9163361
-112.4664078 -23.9312553 139.9085388
-112.0890579 -24.1176243 139.9169769
-111.7167511 -24.2637138 139.9261169
-106.4248199 -24.4723282 139.8765106
-106.0111847 -24.3372459 139.8609161
-105.5660477 -24.1664238 139.8625488
-105.1159744 -24.0018387 139.8520813
-104.6349640 -23.7264290 139.8737640
131.4921570 18.3037624 134.4580536
148.1791992 12.4979248 134.7850494
148.8904419 12.9090891 134.7650604
-114.0435944 -23.4440575 139.5091553
-103.8105087 -23.7568111 139.4774170
-114.8695755 -23.3541298 139.1036224
-114.5042572 -23.7241783 139.1074219
-114.1341324 -24.0710411 139.1156616
-103.9630203 -24.5105305 139.0865784
131.3197021 17.7220535 133.6095276
149.3396606 12.6971569 133.8963013
-114.9363480 -23.9552441 138.7237396
131.2408752 17.4665928 133.1816864
149.1756592 12.3960676 133.4703979
-115.7273483 -23.7550659 138.3285980
-115.3657379 -24.1263504 138.3461914
-115.0255280 -24.4390392 138.3782501
-103.2371292 -25.1819630 138.3624725
130.8684235 17.9174156 132.7173767
131.1621857 17.2885513 132.7584991
149.0907745 12.1689119 133.0501251
149.8329315 12.6200600 133.0195465
-116.1747971 -23.8557377 137.9556122
-115.7988434 -24.2718353 137.9581604
148.9554749 11.9174480 132.6245422
-115.8416367 -24.7872009 137.5924835
-102.4864731 -25.4816780 137.5661926
-101.9966736 -25.1168709 137.5514221
130.4840851 18.1709919 131.8123627
148.8694000 11.7028837 132.2089844
149.6461182 12.1424761 132.1806335
-101.6200333 -25.2655239 137.1403351
130.4271851 18.0215130 131.3867645
-116.7044754 -24.8013744 136.8170471
-101.7294388 -25.7448788 136.7621002
-101.1911469 -25.3149338 136.7565155
130.3661499 17.9134312 130.9612579
-100.7858124 -25.3172493 136.3548737
130.3541565 17.7560215 130.5298767
-100.8848038 -25.7665501 135.9729919
129.7936096 19.2042732 129.9687958
130.0707550 18.3946056 130.0340424
130.3379211 17.6670170 130.0939636
150.1051941 12.0518894 130.4194489
-117.5490494 -25.1046448 135.6579437
129.7658539 19.1304226 129.5349579
150.0586090 11.9745016 129.9852905
150.0775299 11.9490633 129.5491486
-117.6464005 -25.6510487 134.9077148
-100.0487137 -25.9137802 134.7869415
150.0733948 11.9118662 129.1128998
-117.6894150 -25.8829670 134.5406036
-100.1286545 -26.2681770 134.4049988
150.0321198 11.8683023 128.6810760
-117.6994553 -26.1595650 134.1545715
129.7721863 19.0805302 127.7685089
150.0621643 11.8998785 128.2381134
129.7919922 19.1316624 127.3225403
150.0549011 11.8992405 127.7952805
-117.7616806 -26.6009960 133.3841705
130.2877350 17.7129707 127.0087509
150.0769653 11.9236374 127.3495255
-117.7903824 -26.7689571 133.0050049
-99.1967392 -26.1882763 132.7884369
130.3190308 17.7567654 126.5648117
-117.8286819 -26.9032745 132.6208038
-99.2550049 -26.3994827 132.4007263
130.3385468 17.8513718 126.1093292
-117.8138504 -27.0642891 132.2264862
-99.3556366 -26.6235294 132.0093384
-98.7024460 -25.8799973 131.9481049
148.8081665 11.4183550 125.6565552
-118.5522537 -26.5379333 131.3775024
148.9076538 11.6115217 125.1961899
-99.4072647 -27.0762653 130.8516235
131.1180573 17.2177582 124.3985596
147.6714325 11.0600147 124.8214722
148.2838135 11.3949947 124.7944717
148.9712677 11.7933674 124.7492676
-99.4099503 -27.1972885 130.4632416
131.1870880 17.4003448 123.9379959
147.6756134 11.2178278 124.3870392
-99.4252319 -27.2860489 130.0710449
146.5086517 10.8551683 124.0037079
147.1876068 11.1629601 123.9436111
147.7905884 11.4526911 123.9204483
-99.4262619 -27.3284016 129.6750183
146.6624756 11.1230316 123.5235214
-99.4951172 -27.4074955 129.2837830
132.0534821 17.0166245 122.6596451
146.7806091 11.3888826 123.0499496
-99.4627151 -27.3764343 128.8786163
132.1394501 17.3347836 122.1637573
146.8836060 11.6406822 122.6145554
-99.4262466 -27.3268776 128.4703674
132.5265503 17.1459961 121.7363968
132.8289490 16.5925007 121.8138657
145.8460541 11.5166264 122.1861496
-99.4595108 -27.3264217 128.0722809
132.9459686 16.9525433 121.3122253
146.0019989 11.8761787 121.7005310
-105.8677444 -31.0146980 128.1031647
-105.4259720 -30.8677063 128.0769958
-99.4534760 -27.2664833 127.6668091
133.3953705 16.8106060 120.8955917
133.7086792 16.3224068 120.9744263
145.0339813 11.9086342 121.2671509
145.6016693 12.0835886 121.2325974
-105.8564835 -30.9450798 127.6989441
-105.3850098 -30.7805958 127.6620636
-99.4763107 -27.2046280 127.2677994
-98.7888565 -26.4608707 127.1667633
133.8738708 16.7701130 120.4789200
145.1748657 12.2809315 120.8074875
-118.9843597 -26.3185406 126.9724960
-118.6119385 -26.7608490 127.0173264
-118.2615662 -27.1476421 127.0519867
-117.9129410 -27.5060406 127.0823746
-99.4437637 -27.0727482 126.8512955
-98.7589645 -26.3064823 126.7507095
133.7533569 17.8363571 119.8847427
134.0478058 17.2950287 119.9725647
144.2458344 12.4288311 120.3749084
144.8108063 12.5676146 120.3403091
134.2557068 17.8715172 119.4386902
144.4911041 12.9433193 119.8576889
-100.4521332 -27.8680172 126.1394272
-99.9105835 -27.3757458 126.0766525
134.7620239 17.9188080 118.9828033
135.0721741 17.3511047 119.0644455
135.3917236 16.8482914 119.1487656
135.7165833 16.4236565 119.1923370
140.7209167 13.2523937 119.4438934
141.1799927 13.1917839 119.4595490
142.6267395 13.1419029 119.4715652
143.1624298 13.2044516 119.4341583
143.6610718 13.2728329 119.4167480
144.1863861 13.3772726 119.3753815
-100.4076309 -27.7149811 125.7188034
135.6201630 17.5391579 118.5763779
135.9196777 17.0510387 118.6283264
140.9589539 13.8571825 118.9364853
141.4427338 13.8448400 118.9248123
142.9292603 13.8374624 118.8938904
143.3899384 13.7550745 118.9543762
143.8745117 13.8096447 118.9316635
-100.3795242 -27.5577927 125.3029556
136.4729767 17.1396313 118.1588974
136.8070679 16.7637482 118.2077408
143.1654816 14.4476557 118.4122314
-117.8342514 -26.9731865 125.0278702
-100.3526688 -27.3553371 124.8806381
-99.7657852 -26.7590046 124.7903214
143.5149078 15.2045517 117.8355103
-117.8163910 -26.8105106 124.6058426
-100.3126907 -27.1198349 124.4522781
138.1220856 17.5792027 117.2172546
138.4602966 17.2555695 117.2403488
138.8074646 16.8817616 117.3080673
139.1729889 16.6274166 117.3196487
139.5487823 16.4061356 117.3366318
139.9445343 16.1767349 117.3876801
140.3954926 16.0841961 117.3652115
140.8406830 15.9544115 117.3985062
141.3033447 15.8915653 117.4023895
141.7600403 15.7982655 117.4397202
142.2437134 15.7779493 117.4284058
-100.2038269 -26.8021927 123.9985733
-117.0077438 -26.6254120 122.9718933
-101.0575485 -26.8135586 122.8120499
-116.9288330 -26.0227661 122.0910416
-101.9487381 -26.9762707 122.0716858
-101.4442825 -26.5337029 121.9948044
-101.8450851 -26.5352325 121.5921555
-116.1014328 -26.0726986 121.3067093
-102.7285080 -26.8981514 121.2546005
-115.6280823 -25.5649529 120.4450607
-115.2504044 -25.9010983 120.4971390
-103.5029297 -26.6114960 120.4253769
-115.5794220 -25.0749741 119.9678268
-115.1910019 -25.4661407 120.0306320
-113.6439819 -26.1072063 119.7679367
-113.2679291 -26.3758392 119.7959137
-112.8988953 -26.5995598 119.7844162
-105.1535950 -26.6299057 119.6503143
-104.6843643 -26.3684006 119.6035995
-113.4538727 -25.1643906 119.1411209
-113.1471710 -25.6262608 119.1881943
-112.7976532 -26.0373116 119.2425079
-105.0653458 -26.0510101 119.1666260
-112.0131378 -25.9615993 118.8367462
-107.5897446 -26.4097157 118.8715363
-107.1673279 -26.3761635 118.8770294
-106.7453461 -26.2568569 118.8333130
-106.3040314 -26.0757256 118.7801437
-105.8733597 -25.8882656 118.7432327
-107.4956436 -25.8298416 118.3975677
-110.6538239 -25.0401764 117.8888550
-110.2476883 -25.1555481 117.9122696
-109.8428574 -25.2344437 117.9287262
-109.4484482 -25.2760143 117.9499664
-109.0426178 -25.2755642 117.9714279
-108.6309280 -25.2465076 117.9586258
-108.2293701 -25.2288151 117.9336700
-108.9107819 -24.3612499 117.4013748
138.1264801 19.4881916 89.8242340
141.9829712 18.2206268 89.9212723
142.4996033 18.3034916 89.8915253
143.0991669 18.5526199 89.8597412
136.0328674 20.4546032 89.1816483
136.4152527 20.1359081 89.3177032
136.7075500 19.5918846 89.3435287
137.0111237 19.1952724 89.3799438
137.3888702 18.8930798 89.4360657
137.7516022 18.5262012 89.4411163
141.5455322 17.1941395 89.5296173
142.0455017 17.2163849 89.5073166
142.6258087 17.3503990 89.5438385
135.5019836 20.2733173 88.8804016
143.3164063 16.5363464 89.2498093
89.0028915 11.5078840 90.3488235
89.3634949 11.2070036 90.3469009
89.7792587 11.0069895 90.3760147
90.2108231 10.8520155 90.4022217
90.6258545 10.6658115 90.3934937
91.0935440 10.6687269 90.4315262
91.5217972 10.6458092 90.4271622
91.9696655 10.6202269 90.4175110
92.4629898 10.6413679 90.4138107
92.9591904 10.6717949 90.4016724
135.1416321 19.3334522 88.5069885
143.0026093 15.7832947 88.8591843
143.6185760 15.9690351 88.8722382
144.1908569 16.1359310 88.8501129
144.7064667 16.2883301 88.8039856
145.2919922 16.5516109 88.7748795
87.5990448 11.4946709 89.9326935
91.1670074 9.6485252 90.0569153
91.6274567 9.6166668 90.0525131
94.1399536 9.9673557 90.0414352
143.8226471 15.3352423 88.4416428
144.3444519 15.4639215 88.4013443
144.9138336 15.6532850 88.3964615
86.9525070 10.9556265 89.5413513
87.3114166 10.6032419 89.5628204
90.8735580 8.7803860 89.7247925
91.3095093 8.7205820 89.7182159
93.8129807 9.0470190 89.7105331
134.0086517 18.9079552 87.7050934
143.5014648 14.6409569 88.0867920
144.0387115 14.7644510 88.0594254
144.6091156 14.9330950 88.0480957
145.1704865 15.1490431 88.0368958
145.8258667 15.4949493 88.0150223
133.7666168 18.3137760 87.3569412
145.4483795 14.7399235 87.6058655
39.7216492 3.9432771 90.4317245
40.1077423 3.7124860 90.4569397
40.4995461 3.5097806 90.4741135
40.9028778 3.3474998 90.4855423
41.3301086 3.2291737 90.4899673
41.7602119 3.2097545 90.5018082
85.4522476 10.6926727 88.7390518
94.2425919 7.6976805 88.9743271
94.8288422 7.9241562 88.9800949
95.4055099 8.1515064 88.9598923
133.2801514 18.2070026 86.9240875
133.5567017 17.7683544 86.9938049
145.1935730 14.1213570 87.2586136
145.7763519 14.3414545 87.2240753
146.4498291 14.6669760 87.2449875
43.7110252 2.1302943 90.1932755
85.2327042 10.0416861 88.3816452
96.2873840 7.9571185 88.5365829
132.8074646 18.2248211 86.4891052
146.1295471 13.9822073 86.8536224
38.7454605 2.3081543 89.7684784
43.4435806 1.2642765 89.8374863
43.9176445 1.3468525 89.8157806
44.4609985 1.5900693 89.8112488
84.1091766 10.9722214 87.8929443
84.3939590 10.4098320 87.9388275
84.7282104 9.8716364 87.9725647
85.0421219 9.4961348 88.0245895
96.0488205 7.2842474 88.1850967
132.3793182 18.2811260 86.0418243
132.6272736 17.7046795 86.1046600
145.8655853 13.4271765 86.4852295
146.5404816 13.7132521 86.4835205
37.7836533 1.9938630 89.3782806
45.2009239 1.0292528 89.4666748
84.2291031 9.7964458 87.5481491
95.8103409 6.6386099 87.8241959
131.8973999 19.5360813 85.4938126
146.9692993 13.5553312 86.0609131
36.5290527 2.3557706 88.9594574
36.8768044 1.9678444 88.9831848
37.2170296 1.6766198 89.0351563
37.5782166 1.3287230 89.0645142
44.9151573 0.2081845 89.0790634
45.4907494 0.4333740 89.1084595
84.0598526 9.3104572 87.1888580
95.5875854 6.0604658 87.4667511
96.1244354 6.2457862 87.4518585
131.4992218 19.7423038 85.0164795
131.6118469 18.8110428 85.1304245
146.6877747 13.0338573 85.6572418
-9.2899580 -4.8378229 90.3346558
-8.0217733 -5.0879545 90.3498383
96.4660721 5.9529753 87.0483475
146.5814972 12.6652613 85.2813492
147.2590332 13.0174875 85.2475739
-11.0964899 -5.0776067 89.9255905
-10.7481699 -5.3227429 89.9688721
-10.3606653 -5.4885654 89.9953613
-9.9611130 -5.6583672 89.9943008
-9.5570269 -5.8206053 89.9837341
-8.3196983 -6.1097002 90.0001984
-7.8811951 -6.1386557 90.0223083
-7.4145741 -6.0976105 90.0411835
-6.9738135 -6.0700111 90.0294266
-6.5016294 -5.9754486 90.0274353
82.5362396 10.3515186 86.2205200
82.8285446 9.8238935 86.2837296
83.1104660 9.3893795 86.3572159
96.2962265 5.5083313 86.6686707
96.8495102 5.7633314 86.6278992
97.4859238 6.1196666 86.5994949
130.9229279 18.4111042 84.2966766
131.1857910 17.8059254 84.3721161
131.4521790 17.2508907 84.4476166
146.3873291 12.2567835 84.8792648
147.0299072 12.5536194 84.8442383
147.7028351 12.8616934 84.8177032
-11.3366442 -5.9950304 89.6062393
-5.8016987 -6.6229496 89.6859970
34.9424362 1.6608520 87.7899551
97.2767944 5.5923047 86.2176666
130.5104523 18.8244381 83.8423843
130.8040314 18.0683403 83.9141617
147.5417480 12.4783707 84.4297409
-11.5289001 -6.6909122 89.3187943
-6.0621033 -7.4637527 89.3257980
-5.5655560 -7.2869883 89.3237152
-5.0408158 -7.0667882 89.3129807
34.4636002 1.5755420 87.3858719
34.7964020 1.1506740 87.4322586
47.3061600 -0.9758841 87.5322266
81.6757355 10.6231136 85.3625870
97.1176758 5.1462746 85.8529816
130.6657715 17.7659340 83.5099487
-58.5898552 -12.3023758 90.5397644
-58.1762619 -12.3877316 90.5371170
33.9876213 1.5840000 86.9954681
47.1817818 -1.4288830 87.1963730
47.7281151 -1.1409439 87.1683426
147.2454834 11.7570629 83.6529617
-58.8798866 -13.5458536 90.2115860
-58.4714508 -13.6383543 90.2276382
-58.0372505 -13.6825151 90.2617035
-57.5763130 -13.6022015 90.2929916
-57.1841965 -13.6214256 90.2762451
-56.7311172 -13.5487270 90.2690964
-14.3681211 -5.8871169 88.4160156
-14.0260534 -6.2783518 88.4559860
-13.6864281 -6.6417918 88.4975739
-13.3366690 -6.9771638 88.5385742
-12.9915409 -7.2321587 88.5905228
-12.6196594 -7.5471959 88.6051636
-4.4163604 -8.1034851 88.5962677
-3.8942466 -7.8568873 88.5696716
33.8777847 1.0582749 86.6128006
46.9501762 -1.9912766 86.8163834
47.4839363 -1.7768691 86.7577438
81.4379120 9.8870125 84.5846863
129.9165192 18.4566021 82.5579605
147.1252136 11.4905510 83.2493362
-61.0324478 -13.6760235 89.9368134
-55.6326447 -14.2786665 89.9319077
-3.6076827 -8.3407907 88.1691895
-3.0413728 -7.9634671 88.1438828
-2.5232003 -7.6103926 88.0766678
47.9149132 -1.9464117 86.3865891
81.3425446 9.5882664 84.1897278
97.8639603 4.6158776 84.6083984
129.7948608 18.2633133 82.1557999
148.4030457 12.0299711 82.7220459
-61.1831703 -14.4758511 89.5832062
-55.7984047 -15.0645199 89.5865555
-55.3715553 -14.9028969 89.5769806
-54.8679466 -14.6718369 89.5637436
-54.3840141 -14.4521236 89.5349884
-15.0246277 -6.6682796 87.7225800
-3.7939379 -8.9673586 87.8027039
-3.1906440 -8.5761719 87.7977753
32.9887924 1.1888400 85.7711334
47.7648048 -2.3584025 86.0229874
48.3680267 -2.0237994 85.9957047
80.9432220 9.8769102 83.7339325
81.2650528 9.3191595 83.7915192
97.7409210 4.2871180 84.2243881
98.3975449 4.6133695 84.1872635
129.7238464 17.9736366 81.7543182
148.3102722 11.7667341 82.3214951
-54.1156044 -15.0329599 89.1755600
-53.5978279 -14.7173891 89.1394348
-2.8348551 -8.9078569 87.4395752
129.6286621 17.7935753 81.3460007
148.1506348 11.4788828 81.9120331
-109.3732300 -20.2882271 90.4517822
-109.0060501 -20.4365177 90.4982834
-108.6153107 -20.5655556 90.5263443
-63.2835770 -14.5126104 88.8244247
-62.9293251 -14.7816868 88.8639221
-54.2966614 -15.8439207 88.8116684
-53.7836189 -15.5767803 88.7944183
-3.0670104 -9.5314989 87.0677338
48.6773987 -2.5003278 85.2057114
80.4738922 9.9904470 82.8678513
98.8669052 4.4539700 83.3407059
129.5886078 17.5356236 80.9315033
148.0389709 11.2517128 81.5046692
148.8381805 11.7191038 81.4387054
-106.7241287 -21.5777855 90.2156601
-106.2861557 -21.4316273 90.2034531
-53.4160767 -15.9808264 88.4893494
-16.6912422 -6.4023876 86.4350510
32.0387726 1.0953348 84.5468521
48.5150299 -2.8987134 84.8105469
49.1640472 -2.4966424 84.7763138
80.4249268 9.7385864 82.4569168
98.7394409 4.1981926 82.9445190
-111.2667770 -21.7281456 89.8504333
-110.9189682 -21.8934669 89.8935394
-110.5589447 -22.0855789 89.9058609
-106.8965607 -22.5551167 89.8957367
-106.4614716 -22.4643803 89.8867722
-106.0288239 -22.3548641 89.8783951
-105.5993576 -22.1834011 89.8616257
-105.1529388 -21.9329357 89.8507538
-64.2654800 -14.9884720 88.0899734
-63.9047050 -15.3569145 88.1273193
-53.5747414 -16.6236057 88.1451645
-53.0627823 -16.3650703 88.1297989
-17.3918705 -5.6106043 85.9645844
-17.0879192 -6.3209605 86.0142822
-16.7858829 -6.8744230 86.0750885
-2.3091736 -10.0301790 86.3057861
48.3807755 -3.2672291 84.4224167
49.0045052 -2.9094675 84.3841705
80.3692703 9.5439110 82.0559540
98.6081467 3.9455664 82.5392914
99.3374863 4.3841290 82.4797974
-64.7011337 -15.1326427 87.7235641
-52.7517509 -16.6982498 87.7312546
-52.1977005 -16.3165436 87.7052765
-17.5006084 -6.1457329 85.6116104
-1.3246477 -9.7496252 85.8569946
31.8999271 0.4573908 83.7755966
49.5436134 -2.7813895 83.9475327
98.4977341 3.7076077 82.1355438
99.2135086 4.1177578 82.0767822
128.9193115 18.6538391 79.4721222
-114.7248459 -19.8738327 88.8616867
-114.3610535 -20.4322186 88.9296494
-114.0206757 -20.9469585 88.9767761
-112.9955902 -22.2409401 89.1784668
-112.6360474 -22.6041355 89.2108307
-112.2816086 -22.8824368 89.2470169
-65.1601715 -15.2116680 87.3592834
-64.8109360 -15.6563683 87.3678665
-52.8690948 -17.2610970 87.3679581
-52.3681831 -16.9648399 87.3351517
-51.8290749 -16.6038399 87.3237305
-1.4552102 -10.1614685 85.4705658
-0.8742203 -9.7719631 85.4338684
31.8260651 0.2249241 83.3844986
98.4744339 3.5244246 81.7400589
128.8695526 18.5970249 79.0433044
149.2837219 11.5073090 79.6998291
-115.1473083 -20.3241482 88.5185776
-51.9895973 -17.2189903 86.9575348
31.2079334 1.1849935 82.8556519
31.4695282 0.5755520 82.9244232
31.7570457 -0.0019349 82.9939804
49.3180466 -3.4022307 83.1838989
49.9748306 -2.9083159 83.1086273
129.0888672 17.7116585 78.7220993
129.3573608 17.0239105 78.8150177
149.2291870 11.4159718 79.2745590
-115.2739563 -21.1534595 88.2485428
-103.8497849 -24.1939430 88.5121078
-103.3987732 -23.9418697 88.4910355
-65.7004013 -15.8137579 86.6058655
-52.0993538 -17.6976910 86.6351166
-51.5910873 -17.3864346 86.6135483
-0.5285108 -10.1380968 84.6478348
31.1325169 0.9692626 82.4651108
31.3821640 0.3625452 82.5445557
31.6973591 -0.2378754 82.5989914
49.2089882 -3.6731014 82.7977600
79.5586166 10.3415899 80.2334595
129.3299866 16.9408131 78.3885651
149.1987915 11.3578367 78.8457489
-115.7398987 -21.3552532 87.9237061
-115.4166641 -21.9149494 87.9738235
-115.0919189 -22.4178257 88.0254364
-114.7415619 -22.8598175 88.0760269
-103.0456696 -24.2656231 88.1305161
-65.7640305 -16.2813187 86.2422791
-51.2372513 -17.5459690 86.1735001
-50.6516418 -17.0699501 86.1389694
-18.1824932 -7.1342983 84.0752869
-17.8820515 -7.7379684 84.1488342
-0.6850792 -10.5503845 84.2631760
-0.0564459 -10.1148586 84.2149353
49.1299934 -3.9376116 82.4092178
79.5187531 10.2609615 79.8134079
129.3259277 16.8669529 77.9611130
149.1745758 11.3396749 78.4112244
150.0457306 12.0244026 78.2908630
-115.1917877 -23.0611134 87.7268829
-114.8339386 -23.4580784 87.7653885
-103.1410828 -24.8597050 87.7916412
-102.6822815 -24.5885353 87.7620163
-66.2099762 -16.2528400 85.8522415
-65.8630066 -16.6298294 85.8939514
-51.3348122 -17.9610939 85.8262939
-50.8099480 -17.5987453 85.7816544
-17.9537430 -8.0538282 83.7824173
-0.7628623 -10.8690615 83.9008560
49.0676117 -4.1508789 82.0221786
49.7387161 -3.7478895 81.9629898
79.5078888 10.1275225 79.3979034
129.3176880 16.8794975 77.5190125
149.0984192 11.2851000 77.9854279
150.0430145 11.9941692 77.8547058
-115.2685623 -23.6370773 87.4184494
-114.9128723 -24.0039787 87.4535217
-66.6162872 -16.2403183 85.4548340
-50.3727303 -17.6490498 85.3938980
-0.8434099 -11.1828918 83.5307388
30.9078903 0.2310594 81.2858505
79.4779129 10.0590820 78.9752808
129.3397217 16.8866825 77.0792084
-115.0018158 -24.4625435 87.1321640
-101.4783936 -24.6688766 86.9456787
-66.6856766 -16.5862522 85.0976257
-0.9112955 -11.4558725 83.1577225
-0.3572257 -11.0928345 83.0946121
30.8693657 0.0944783 80.8830338
79.4583664 9.9905539 78.5531769
129.3650360 16.9343719 76.6304779
-66.7351074 -16.9235153 84.7338257
-50.5395203 -18.4328842 84.6925735
79.4492950 9.9178391 78.1315536
129.1133575 17.6863747 76.0821304
129.4039459 16.9541206 76.1926575
149.1586914 11.3464537 76.6580887
150.0161743 11.9822969 76.5403519
-100.7040710 -24.8728027 86.1585388
-67.1569595 -16.7918930 84.3288803
-66.8013840 -17.1859818 84.3697357
-50.6486931 -18.7920818 84.3193436
0.1169644 -11.1285009 82.2672958
50.1927910 -3.8848031 80.2742767
129.1264191 17.8051357 75.6194305
129.4027100 17.0502777 75.7356110
149.2003632 11.4016399 76.2037811
-115.8909607 -25.0439510 86.0179977
-100.7852783 -25.3307896 85.8098984
-18.2506733 -9.1248140 81.8768082
0.0595380 -11.3401518 81.8809586
50.1311035 -3.9971788 79.8686752
79.4687195 9.9370012 77.2610092
149.2442627 11.4889936 75.7514801
-116.3051682 -25.0454750 85.6315231
-115.9506989 -25.3818779 85.6765213
-100.8960114 -25.7963085 85.4603348
-100.3938904 -25.3855495 85.4127960
-67.5707321 -16.9396744 83.5272446
-49.6846123 -18.5614662 83.4625702
-18.6153145 -8.8485537 81.4271469
-18.3048306 -9.2762909 81.4884338
-0.0418890 -11.5821257 81.4941559
50.0970917 -4.0880208 79.4592514
79.4603653 10.0382748 76.8096313
149.3130798 11.6244307 75.2883682
-99.9478073 -25.3328991 84.9955902
-49.7804642 -18.8435726 83.0855789
50.0977898 -4.1498408 79.0442123
80.0613403 8.6064682 76.5911789
129.7521057 16.7121677 74.4453964
130.0488434 16.1020470 74.5473862
-117.0948944 -24.9683533 84.8367386
-116.7520752 -25.3403091 84.8820343
-100.0486221 -25.7317429 84.6381226
-99.4795914 -25.2039433 84.5701981
-49.8350334 -19.0817966 82.7099838
-49.2533875 -18.6185932 82.6401596
50.0663147 -4.2156000 78.6290894
80.0610504 8.6925592 76.1371689
130.0824585 16.2809105 74.0595551
-68.3912888 -16.7104473 82.2927551
-19.7007027 -7.5547695 80.0140533
50.0605621 -4.2384396 78.2092133
80.0859375 8.7617502 75.6907425
98.2231140 2.8296647 76.2574158
130.1557770 16.4064484 73.6066971
148.0046844 11.0983152 74.0983963
148.8184814 11.6301813 73.9799423
-117.5532837 -25.1434212 84.0814590
-99.0670319 -25.3125648 83.7685699
-68.4314651 -16.8968105 81.9139633
-48.8072243 -18.4774685 81.7855606
-19.6879692 -7.7119904 79.6154251
50.0343513 -4.2558093 77.7902451
80.1146851 8.8316536 75.2464066
98.2739487 2.9299710 75.8083572
148.1542206 11.3428011 73.6013565
-100.2428207 -26.7623596 83.5700684
-99.7283096 -26.2992725 83.4932404
-48.8580322 -18.6804218 81.4040070
-19.7042809 -7.8062830 79.2141037
50.0407219 -4.2379484 77.3642883
98.3454361 3.0612669 75.3496780
146.7887573 10.6733332 73.3203659
147.4671173 11.0614805 73.2412872
148.2624664 11.5651274 73.1198730
-117.5735779 -25.6805439 83.3365936
-100.2671967 -27.0320625 83.2249603
-99.7801590 -26.6271191 83.1474762
-68.8588943 -16.6902161 81.0779953
-68.4927979 -17.1863441 81.1401215
-48.9026794 -18.9036255 81.0286560
-19.7510433 -7.8240581 78.8061523
50.1021385 -4.1728301 76.9221649
98.3926468 3.1886373 74.9026642
146.9168243 10.9174232 72.8236771
-117.6115036 -25.8935127 82.9718857
-68.8771439 -16.8563805 80.6931458
-68.5224686 -17.3318062 80.7544174
-48.9361954 -19.1165962 80.6500549
-19.7749348 -7.8108201 78.4419632
-19.0422363 -9.0208750 78.5628738
-18.7518921 -9.4690523 78.6151123
-18.4410210 -9.9243641 78.6810226
-12.1993914 -14.3854332 79.2376480
-11.7834568 -14.5484848 79.2597198
30.5070496 0.3490753 76.1994934
30.8195095 -0.2116037 76.2829895
80.8849106 8.1286507 74.0582809
97.1919403 2.6833401 74.5864334
97.8152542 2.9988792 74.5150223
131.0630646 16.2231846 71.8490219
-117.9898376 -25.6912174 82.5433578
-117.6681137 -26.0919476 82.6085205
-68.5354233 -17.4821625 80.3677826
-48.9777756 -19.2900677 80.2725449
-18.7340927 -9.4964781 78.2079544
-18.4325657 -9.9791641 78.2755585
-12.1917868 -14.4664211 78.8391953
-11.7713394 -14.6222286 78.8566818
30.5565948 0.4711001 75.8178864
30.8808937 -0.1319812 75.8796997
80.9255066 8.3895769 73.5577240
97.2702637 2.8556988 74.1244888
-118.3851776 -25.4572353 82.1268616
-68.5583496 -17.5815315 79.9784088
-48.9710732 -19.3926907 79.8833542
30.9306660 0.2447984 75.3292847
48.8838921 -4.8022275 75.7838821
49.5407906 -4.3886204 75.6963043
97.3497238 3.0631220 73.6479111
131.3213501 16.9608059 70.8484344
146.0872803 11.2418909 71.4676208
-118.4142609 -25.6618023 81.7647934
-68.5831985 -17.6497555 79.5816956
-48.9837379 -19.4823742 79.4873047
30.7610435 1.1085900 74.7918472
30.9621029 0.2894524 74.9194641
48.8846741 -4.7195263 75.3512955
146.2490387 11.6135712 70.9657288
-118.4497147 -25.8151798 81.3920670
-68.5904770 -17.7208843 79.1851654
-48.9768753 -19.5276585 79.0844193
-19.0803585 -9.0031366 76.8841705
31.0008202 0.2544836 74.4842682
48.9846268 -4.5493445 74.8846512
81.7595291 7.9626818 72.3273163
97.5903778 3.6390054 72.6851730
132.1360321 16.4941254 70.0191193
145.1596832 11.4330282 70.6048889
145.7827301 11.7141771 70.5271149
-118.4742508 -25.9358482 81.0105667
-68.5994186 -17.7744675 78.7873993
-48.9971733 -19.5737858 78.6831665
-19.0839844 -8.9684534 76.4740524
49.0390816 -4.3846412 74.4350662
81.8458176 8.2639999 71.8275375
97.7374496 4.0029626 72.1815720
145.3265991 11.8529644 70.1047363
-118.4775009 -26.0546970 80.6270065
-68.6286697 -17.7795086 78.3803940
-49.0186424 -19.6063576 78.2826004
-19.0794773 -8.8926125 76.0443192
-0.2387412 -12.3165140 76.2102966
0.4417159 -11.7759590 76.0972290
31.3045158 0.0277019 73.6668243
31.6114902 -0.4689471 73.7504425
96.5972290 3.6411815 71.8703995
97.2060165 3.9792473 71.7856674
133.0552979 16.3754349 69.1384888
145.5589294 12.3870287 69.5532608
-118.8555832 -25.6797619 80.1764603
-118.4881744 -26.1562920 80.2419815
-68.6199875 -17.7870617 77.9695053
-49.0085068 -19.6023540 77.8707657
-19.4226170 -8.2529650 75.5187149
-19.0790138 -8.7969189 75.6053009
-0.2017130 -12.2204990 75.7775726
31.6818752 -0.2857346 73.2940674
82.1202087 9.1091547 70.8241730
96.7616653 4.0304670 71.3744888
-119.2394409 -25.2712879 79.7216263
-68.6157913 -17.7676964 77.5582504
-49.0073433 -19.5958462 77.4607391
-18.6964893 -9.2122726 75.2611160
-18.3828030 -9.6592722 75.3235397
-0.1498919 -12.0994024 75.3395386
31.7435684 -0.0681451 72.8310776
48.0460968 -4.4660983 73.2268982
48.6420708 -4.1000657 73.1447983
82.5452957 8.9568882 70.4060287
82.8399963 8.3855972 70.5280151
96.9170914 4.4617076 70.8662949
134.3467560 15.9398956 68.2998352
134.6606445 15.4904890 68.3973923
143.7023773 12.5766077 68.7073059
144.3051147 12.8148756 68.6213226
144.9109344 13.0556717 68.5562439
-119.2630386 -25.3381557 79.3324966
-98.3541946 -26.7118931 79.1361771
-68.5952377 -17.7567902 77.1536255
-49.0248222 -19.5892963 77.0525818
-18.6384411 -9.0871611 74.8313446
-18.3397312 -9.5463800 74.8949356
-0.1549738 -11.9976969 74.9186630
48.1594849 -4.1673222 72.7383575
82.9701767 8.8561325 69.9804840
134.8718262 15.9992285 67.8421326
-119.2633591 -25.4259167 78.9462280
-98.4121780 -26.8158035 78.7544327
-68.5912323 -17.7116375 76.7363129
-48.9631691 -19.4830875 76.6241608
-18.2974854 -9.4405718 74.4608841
32.1851158 -0.0001637 71.9447021
32.5160103 -0.5330346 72.0569916
46.0553818 -5.0798459 72.5186539
46.5739288 -4.8419905 72.4700470
47.0709610 -4.5795503 72.4257660
47.6753654 -4.2160859 72.3294830
83.9982834 7.7565923 69.7296677
84.3260727 7.3621621 69.7994003
96.1162567 4.8184237 69.9722214
137.1794434 14.5803185 67.6257935
141.0853882 13.2947302 67.7627335
141.5707855 13.2695999 67.7667160
142.0997467 13.3299513 67.7206421
142.6143188 13.4142189 67.6819839
-119.2753220 -25.4804878 78.5559616
-98.4088669 -26.8589535 78.3585815
-68.5937424 -17.6401939 76.3132706
-48.9679337 -19.4077721 76.2043304
-18.2852688 -9.2900305 74.0092010
32.5826721 -0.2280632 71.5619049
46.1501274 -4.8239760 72.0914154
46.6914444 -4.5792646 72.0584030
84.4539642 7.8085680 69.2484741
141.3645935 13.9566307 67.1694717
-119.2809677 -25.5127487 78.1604462
-98.3993912 -26.8886242 77.9564743
-68.5811539 -17.5741215 75.8938675
-48.9103241 -19.2581692 75.7638474
-18.2666969 -9.1268063 73.5536728
-1.1198717 -12.2845592 73.7271652
32.9663582 -0.3244580 71.1278381
33.3084602 -0.8370813 71.2341461
45.2247963 -4.8564801 71.6378555
45.6591835 -4.7234406 71.6338577
85.6229248 7.0661201 68.9287949
85.9827728 6.7204876 69.0148468
86.3473511 6.4087076 69.0670471
86.7202301 6.0763817 69.1373062
94.3270187 4.9876652 69.0982513
138.1947021 15.7555943 66.5154572
138.5494690 15.4756718 66.5599670
138.9392700 15.2759571 66.5730515
139.3549500 15.1032801 66.5958710
139.8016357 14.9494524 66.6212082
140.2572937 14.8624630 66.6126251
140.7444763 14.8231525 66.5838547
-119.2890091 -25.5026550 77.7598343
-48.8708382 -19.1169338 75.3282852
-1.0528778 -12.0594339 73.2611389
33.3968849 -0.4917452 70.7226334
45.3387489 -4.5077109 71.1559830
86.1844025 7.2971148 68.4815521
86.5473633 6.9388866 68.5544586
86.9166031 6.6095657 68.6013718
94.5575638 5.5942922 68.5302582
-118.2037506 -26.9329929 77.5596161
-117.8437119 -27.3507957 77.6251602
-17.5039787 -9.6547384 72.8041306
33.8362846 -0.5362916 70.2945862
34.1908417 -1.0472683 70.4147186
45.4608612 -4.1312356 70.6604767
86.0525894 8.3411016 67.8281860
86.4015198 7.9451461 67.9195480
86.7579727 7.6003513 67.9638824
87.1275711 7.1612515 68.0489731
87.4616241 6.9395947 68.0408936
87.8582306 6.6007557 68.1434326
92.6430359 5.6398087 68.2058105
93.1653214 5.7502046 68.1481247
-118.1925583 -26.8994846 77.1633835
-117.8452911 -27.3313541 77.2252579
-17.4504738 -9.4279394 72.3397369
86.6496124 8.6924629 67.3329620
92.9462051 6.4153376 67.5671387
-67.7934723 -18.0583172 74.3429108
-50.0052223 -19.7692089 74.2528839
-17.0659790 -9.5580692 71.9291840
-16.7039814 -9.9708204 72.0092926
-1.9263927 -11.9935169 72.0265427
90.7884521 6.9942741 67.0922928
91.2501907 6.9802227 67.0792160
-118.5094757 -26.2869244 76.2661057
-67.7911835 -17.8625469 73.8830948
-49.9408760 -19.5408401 73.7990723
-16.6383476 -9.7134905 71.5479965
-118.8053360 -25.7539101 75.7700272
-118.5133743 -26.2593136 75.8697205
-99.5020981 -27.7158947 75.7137527
-67.7734299 -17.6611538 73.4277725
-16.5761051 -9.4095078 71.0634460
-2.8217227 -11.9616880 71.2255402
36.0783691 -0.6332712 68.5907135
36.4380531 -1.0017452 68.6683273
36.7845535 -1.3142544 68.7102051
37.1459846 -1.6488851 68.7640915
37.5323296 -1.9045057 68.7899399
40.3222733 -3.1049116 68.9511261
40.7410545 -3.1951094 68.9711914
41.1676750 -3.2233644 68.9756699
41.6313972 -3.2142038 68.9421768
42.1029358 -3.2107451 68.9211349
42.5927010 -3.1352310 68.8733597
-118.8428345 -25.6637096 75.3836288
-118.4958954 -26.2011108 75.4650803
-99.4880142 -27.6170044 75.2953033
-2.6749637 -11.5206976 70.7126236
37.6990623 -1.3642833 68.3033752
40.4773674 -2.5977080 68.4506454
40.8904915 -2.6863034 68.4558792
41.8559914 -2.7190514 68.4012604
42.2618217 -2.6981859 68.3983078
42.7487183 -2.5931494 68.3644867
-117.7938538 -26.9833546 75.1817398
-99.4731445 -27.4950104 74.8756104
-66.9962692 -18.0285816 72.6700439
-51.8655891 -20.4748745 72.7829590
-15.7146292 -9.4848614 70.2371902
-3.6011331 -11.6963062 70.3638000
-3.1008863 -11.4186153 70.3049316
37.9696388 -0.7005332 67.7346573
39.0058136 -1.3942447 67.8429565
39.4169655 -1.6444874 67.8931961
39.8167191 -1.7612209 67.8645248
40.2384834 -1.8988305 67.8903503
40.6140671 -1.9708358 67.8759613
42.0392570 -2.4384127 68.0048599
42.9264145 -1.9847825 67.8132629
43.4477234 -1.8352618 67.7552567
-117.7964859 -26.8251991 74.7471466
-99.3817215 -27.2699108 74.4163818
-66.9432755 -17.7909203 72.2205734
-51.7908478 -20.1760254 72.3023682
-15.6379137 -9.0888491 69.7431335
-3.5021088 -11.2766685 69.8919907
38.0997086 0.0618703 67.1313324
39.2295990 -0.6534585 67.2231064
40.4650841 -1.2115633 67.2911911
40.8577881 -1.2361999 67.2960358
-117.7802811 -26.7086544 74.3285522
-66.5600967 -17.8982754 71.8145218
-66.2178268 -18.2741718 71.8848419
-15.1621799 -8.9860001 69.3116150
-14.8094959 -9.3686018 69.4004669
-4.3784170 -11.2963257 69.4869537
-3.8727527 -11.0478210 69.4396744
-118.1445847 -26.1097012 73.8110962
-117.7981339 -26.5234470 73.8792725
-66.1579666 -18.0009155 71.4230957
-15.0419436 -8.4485598 68.7764969
-14.6990099 -8.8711357 68.8653183
-4.2182436 -10.7585669 68.9765396
-100.4004745 -27.6889153 73.3409500
-66.1099243 -17.6777382 70.9392776
-65.7584534 -18.0686817 71.0164719
-65.4043121 -18.4422874 71.0935440
-52.5711899 -19.8049831 71.0495758
-13.8947544 -9.0599356 68.4355774
-13.5217056 -9.4003763 68.5031204
-13.1617746 -9.6954165 68.5451889
-12.8031979 -9.9782801 68.5906448
-12.4294558 -10.2574558 68.6529312
-12.0496597 -10.4671068 68.6839371
-11.6572714 -10.6249733 68.6921768
-5.1151752 -10.7112150 68.6025620
-4.5786581 -10.4087620 68.4901352
-100.3341293 -27.4041080 72.8685379
-65.3509979 -18.1240215 70.5982056
-52.4799843 -19.3911037 70.5621872
-11.5224066 -10.1177387 68.1768951
-4.8861427 -9.9949360 67.9898148
-116.9836960 -26.7367020 72.7070694
-109.0014572 -30.5987034 73.2136383
-108.6050949 -30.6102886 73.2076797
-64.9107285 -18.1607704 70.1953659
-64.5418854 -18.4838009 70.2600327
-53.3682976 -19.5660686 70.2008514
-52.8495331 -19.2448483 70.1235199
-11.3881989 -9.5790892 67.6539536
-10.9869566 -9.7589760 67.7090378
-10.6000977 -9.8964128 67.7496109
-9.3364191 -10.1860542 67.7762146
-8.9074783 -10.1867666 67.7485352
-7.5736618 -10.1278477 67.7062988
-7.1226273 -10.0882311 67.6891785
-6.6670380 -9.9975662 67.6432190
-6.1820927 -9.8620291 67.5812225
-108.9883957 -30.4032040 72.7653427
-108.5858536 -30.3774242 72.7500916
-64.4851151 -18.1036358 69.7615204
-10.3741388 -9.1191845 67.1202316
-9.1577826 -9.4959946 67.2123108
-8.7263651 -9.4819031 67.1991653
-7.3795590 -9.3869257 67.1192169
-116.9599609 -26.1822166 71.7888794
-108.9331741 -30.1632500 72.3207016
-108.5093842 -30.0966053 72.2553253
-101.1541138 -27.3485889 71.6812210
-55.0914040 -19.6243896 69.4580841
-54.6214943 -19.4344406 69.4086609
-54.1380043 -19.2034245 69.3496475
-8.5098152 -8.6257162 66.5801392
-108.8787231 -29.9160919 71.8607254
-108.4864120 -29.9156780 71.8764496
-54.9681053 -19.1011810 68.9375229
-116.1583252 -26.3547096 71.0153580
-108.8690186 -29.7162609 71.4591980
-108.4597321 -29.7093468 71.4377899
-108.0690536 -29.7202206 71.4303818
-107.6572266 -29.7334137 71.4213486
-101.9199677 -27.2754784 70.8596878
-63.0974960 -17.5381794 68.3928986
-62.7172432 -17.8421211 68.4537277
-62.3682404 -18.0937309 68.4951553
-61.9932251 -18.3645973 68.5649719
-55.7913818 -18.8762951 68.5196152
-55.3099594 -18.6912842 68.4384766
-108.8420410 -29.5013924 71.0323563
-108.4486084 -29.5082302 71.0174484
-108.0386353 -29.5300236 71.0350113
-107.6285553 -29.4976692 71.0009842
-61.8896065 -17.8117275 68.0045624
-115.3207626 -26.3492298 70.1875610
-103.6169586 -27.6939812 70.1740112
-103.1769943 -27.4212265 70.1106262
-102.6960297 -27.0777664 70.0396423
-60.9876404 -17.5324230 67.5268250
-60.6160774 -17.6697617 67.5624924
-60.2110176 -17.8560123 67.6480484
-57.3015480 -18.0627232 67.6345673
-56.8530655 -17.9637737 67.5795898
-56.3957329 -17.8181591 67.5115128
-55.9159622 -17.6122665 67.4326172
-103.5868530 -27.3343983 69.7417679
-103.1495895 -27.1406441 69.7413940
-60.0744209 -17.0528603 67.0316010
-57.1028938 -17.1994686 66.9781723
-113.7648926 -26.8186169 69.4341660
-104.4381256 -27.4037094 69.3828583
-103.9955902 -27.1745720 69.3303070
-59.4681511 -16.1854401 66.4506531
-59.0576096 -16.2722435 66.4559708
-58.6476440 -16.3959904 66.4767075
-104.3509140 -26.9231300 68.8788300
-112.8809967 -26.3475380 68.5157928
-112.4885712 -26.5981541 68.5990906
-112.1335068 -26.7692719 68.6251602
-106.0934677 -27.2103310 68.5890503
-105.6597748 -27.0860329 68.5593948
-105.1831207 -26.8597965 68.4722595
-104.7179260 -26.6235294 68.3992157
-112.0379410 -26.2060833 68.1054306
-105.9860382 -26.6575680 68.0596771
-111.9520111 -25.5737915 67.5589371
-111.5783997 -25.7440910 67.5928421
-111.2031326 -25.9480877 67.6556168
-109.9951096 -26.3307724 67.7108917
-109.5964508 -26.4291649 67.7283478
-109.2310562 -26.5651798 67.7783813
-108.8087921 -26.6131706 67.7618942
-108.4123459 -26.5787315 67.6706543
-107.9499207 -26.7307930 67.7902756
-107.5560989 -26.5615273 67.7056046
-107.1439743 -26.3325481 67.5889740
-106.7128677 -26.2411842 67.5607529
-109.9027023 -25.6215420 67.1315231
-110.6293869 -25.6711273 342.1107483
-109.8429565 -25.7795563 342.1130066
-109.0307236 -25.8826103 342.0917053
-108.2142715 -25.8424664 342.1118469
-107.3667374 -25.6250820 342.2093506
-113.1018982 -25.8199501 341.1966248
-112.3573608 -26.2738266 341.1388855
-111.5917969 -26.6098804 341.1118164
-110.8049088 -26.8368397 341.0986023
-108.3841095 -26.9507923 341.1626587
-107.5600281 -26.8259563 341.1891174
-106.7051544 -26.5681896 341.2620850
-105.8215256 -26.2282200 341.3548279
-113.2417755 -26.7818947 340.2492981
-112.4951935 -27.1830349 340.2011414
-111.7192764 -27.4848404 340.1822205
-110.9320831 -27.6903229 340.1768188
-108.5264282 -27.8347416 340.2316895
-107.7090759 -27.7859039 340.2389221
-106.8755646 -27.5674171 340.3036804
-105.9886322 -27.2505112 340.3833008
-105.0980301 -26.8879948 340.4432983
-114.8549423 -26.5690880 339.4288940
-114.1058197 -27.1147594 339.3655396
-113.3515701 -27.5430546 339.3224487
-112.6073074 -27.8875484 339.2963867
-110.2447968 -28.4952030 339.2720947
-109.4555206 -28.5681648 339.2738342
-106.9759216 -28.3516827 339.3806458
-106.1172409 -28.0967579 339.4483948
-105.2268372 -27.7384720 339.5254517
-104.3425293 -27.2831459 339.6108093
-103.4157791 -26.6712952 339.7651062
-59.5073090 -17.1179790 342.5764160
-58.6478844 -17.1245079 342.5972290
-115.6568909 -26.6390667 338.5876465
-114.9259872 -27.2717113 338.5112000
-114.1976242 -27.7495327 338.4662781
-113.4430084 -28.1450272 338.4230957
-112.6846466 -28.4716415 338.3958435
-110.3352737 -29.0747738 338.3755493
-109.5419617 -29.1629772 338.3756409
-107.0739365 -28.9759178 338.4787292
-106.2206955 -28.7470589 338.5451050
-105.3377686 -28.4151649 338.6260986
-104.4477158 -27.9917259 338.7195435
-103.5586700 -27.4986095 338.8019714
-102.6005936 -26.8232727 338.9679565
-61.3738289 -17.9679832 341.5462036
-60.5875015 -18.2299862 341.5237122
-59.7546349 -18.3563690 341.5276184
-58.9183006 -18.3631496 341.5588684
-58.0738335 -18.3446598 341.5671997
-57.1949348 -18.1992683 341.6369629
-56.2888031 -17.9930401 341.6970520
-116.4510345 -26.4837723 337.7967529
-115.7508698 -27.1456623 337.7181702
-115.0059967 -27.7753487 337.6346130
-114.2628250 -28.2427635 337.5862732
-107.1621170 -29.4513760 337.6047363
-106.3003998 -29.2589035 337.6690369
-105.4288025 -28.9825020 337.7324524
-104.5494003 -28.6220856 337.8130798
-103.6575012 -28.1670170 337.8995972
-102.7286911 -27.5362186 338.0279236
-64.5194702 -17.0336552 340.7767334
-63.8140602 -17.6674976 340.7032776
-63.0866852 -18.2009029 340.6436462
-62.3329086 -18.6273308 340.6027832
-61.5635452 -18.9642353 340.5681152
-60.7872925 -19.1850014 340.5611267
-59.9633598 -19.3173199 340.5551453
-59.1001511 -19.3458481 340.5904541
-58.2724304 -19.3172359 340.6120911
-57.4100838 -19.2033730 340.6615601
-56.5189857 -19.0462589 340.6957092
-55.6092606 -18.7289352 340.7716370
-54.6599884 -18.2885799 340.8911438
-117.2393494 -26.2723236 336.9995117
-116.5223465 -26.9509392 336.9262695
-115.7985687 -27.6196384 336.8390198
-115.0709305 -28.1937809 336.7721558
-114.3167496 -28.6458569 336.7280579
-107.2090073 -29.8240681 336.7574768
-106.3718033 -29.6827812 336.7954102
-105.4936752 -29.4216194 336.8615417
-104.6064072 -29.0702133 336.9553528
-103.7268677 -28.6691513 337.0299377
-102.8220062 -28.1126709 337.1375427
-101.8780823 -27.4637527 337.2845459
-65.4200897 -17.2268715 339.9021301
-64.7119904 -17.9482174 339.8193665
-63.9845009 -18.5342388 339.7502441
-63.2537651 -18.9884720 339.7079468
-62.4865532 -19.3740406 339.6717834
-61.7149887 -19.6814308 339.6492310
-60.9333344 -19.8778915 339.6525574
-60.1013145 -20.0221596 339.6486816
-59.2621078 -20.1389103 339.6311951
-58.4187088 -20.1123085 339.6833801
-57.5806999 -20.0468140 339.7109680
-56.7011261 -19.8932686 339.7594604
-55.8048706 -19.6433849 339.8124390
-54.8869667 -19.2555542 339.9023132
-53.9148026 -18.7409630 340.0175171
-117.3096771 -26.6542377 336.1431580
-116.5865021 -27.3280296 336.0673218
-115.8484573 -27.9895287 335.9765015
-112.0746155 -29.8870773 335.7970581
-111.2732239 -30.0525970 335.8061829
-107.2643204 -30.1405983 335.9007874
-106.4056091 -29.9863510 335.9529419
-105.5267181 -29.7504330 336.0166626
-104.6797943 -29.4557610 336.0860596
-103.7974625 -29.0701180 336.1666870
-102.9008560 -28.5658264 336.2637634
-101.9876251 -27.9655819 336.3878479
-66.2697220 -17.2010498 339.0746765
-65.5844116 -17.9715252 338.9814148
-64.8562164 -18.6357746 338.9025269
-61.0361290 -20.4815292 338.7203369
-60.2233696 -20.6192818 338.7446594
-55.9631577 -20.3401012 338.8974915
-55.0503654 -20.0128841 338.9720764
-54.0972481 -19.5735073 339.0565491
-53.1146660 -19.0045891 339.1844482
-12.9449959 -7.9124756 342.0579834
-12.2414904 -8.4876661 341.9896545
-11.4702673 -8.9245176 341.9314575
-10.6659918 -9.2280273 341.8992004
-8.1190081 -9.4638987 341.9237976
-7.1821747 -9.3009481 341.9925537
-118.0478439 -26.2650070 335.3798523
-117.3425064 -26.9640503 335.2981262
-116.6191788 -27.6325016 335.2215271
-115.8978271 -28.2454014 335.1465149
-112.1162491 -30.0838032 334.9755249
-111.2968750 -30.2702942 334.9687195
