-5.8026519 -13.3830042 336.5226746
-4.9128695 -13.1178932 336.5772400
-4.0100265 -12.7604008 336.6412354
-3.1046331 -12.3078098 336.7154541
-2.2022436 -11.7602625 336.7983398
-1.2491124 -11.0591812 336.9069519
33.5009995 -0.6100807 338.7418213
34.2473030 -1.4894080 338.6195679
35.0064697 -2.2453747 338.5124512
35.7771721 -2.8714926 338.4218445
36.5484810 -3.3743265 338.3545837
37.3576736 -3.7884135 338.3002625
38.1852913 -4.1192193 338.2424622
39.0191078 -4.3443971 338.2318726
39.8647690 -4.5628533 338.1927490
40.7074242 -4.6920352 338.1789246
41.5594597 -4.7222075 338.1960754
42.4256897 -4.7009225 338.2013245
43.3018227 -4.6027722 338.2143860
44.2161026 -4.4057002 338.2544250
45.1365128 -4.1169434 338.2989502
46.1117630 -3.6841655 338.3826904
47.0442238 -3.1873081 338.4462891
48.0421486 -2.5003588 338.5841675
85.7101364 7.2182226 340.3061829
86.4546509 6.4796619 340.1938171
87.2334518 5.8979788 340.1250916
89.6958237 4.8033094 339.9816284
90.5261078 4.5864043 339.9518738
91.3740158 4.4857874 339.9479675
92.2609406 4.4885893 339.9504395
93.1882706 4.5924697 339.9765625
94.1176910 4.7606745 339.9945679
95.0907059 5.0804276 340.0469360
96.1084366 5.5583315 340.1320496
138.0124969 16.0183849 342.0330811
138.7929993 15.5205612 341.9443665
139.6279907 15.1599207 341.8991089
140.4690857 14.8392735 341.8435669
141.3305054 14.6754398 341.8319702
142.2000122 14.6146545 341.8139954
143.1389923 14.7009001 341.8384705
-117.6554489 -27.3188457 332.7883911
-116.8272781 -28.0683422 332.6838989
-116.0156326 -28.6619339 332.6017761
-108.6666336 -30.9085941 332.3226624
-107.8651962 -30.9033222 332.3299255
-105.4115067 -30.3947334 332.4280090
-104.6020889 -30.1364269 332.4691467
-100.4643250 -27.7795582 332.8518982
-99.6158142 -26.9695301 332.9760742
-98.7320786 -25.9877491 333.1304016
-67.3759613 -18.8007698 334.4386292
-66.5623398 -19.5685558 334.3251038
-54.2347565 -21.7960377 334.0878601
-53.3651810 -21.3950768 334.1597290
-52.5080681 -20.9625740 334.2249146
-51.6597633 -20.4574184 334.3090515
-50.7731056 -19.7963219 334.4161682
-49.8572311 -19.0010643 334.5289307
-48.8699608 -17.9794903 334.7053833
-16.5769806 -10.8227053 336.0005493
-15.8052435 -11.4926214 335.9136658
-14.9767599 -12.1090765 335.8224182
-14.1839991 -12.5834656 335.7666321
-13.3744345 -12.9912672 335.7047729
-12.5564423 -13.3239546 335.6643066
-6.6805220 -13.8529711 335.6403198
-5.8259640 -13.6839914 335.6688232
-4.9619818 -13.4648561 335.7021790
-4.0465207 -13.1309977 335.7569580
-3.1263912 -12.6966591 335.8316040
-2.2395372 -12.2082729 335.9020081
-1.3108586 -11.5490894 336.0039368
-0.3003332 -10.6985159 336.1550293
33.3957634 -1.3208926 337.7958679
34.1506042 -2.1504862 337.6710815
34.9080086 -2.8306918 337.5843811
35.7026787 -3.4322462 337.4956055
36.4746628 -3.9056101 337.4321899
37.2842216 -4.3032060 337.3770142
38.1138878 -4.5911503 337.3471069
38.9415131 -4.8217487 337.3271790
39.7828484 -5.0396376 337.2810669
40.6290665 -5.1420975 337.2867126
41.4798431 -5.1851044 337.2780151
42.3416100 -5.1616569 337.2865295
43.2362480 -5.0535932 337.3200073
44.1337814 -4.8921609 337.3439026
45.0608902 -4.6399598 337.3914185
45.9901237 -4.3004212 337.4377441
46.9426460 -3.8168008 337.5182495
47.8872185 -3.1904197 337.6142883
86.2670288 5.6818695 339.2375793
87.0662384 5.1373076 339.1583252
89.5380096 4.0808239 339.0135803
90.3692856 3.8992846 339.0037231
91.2274246 3.8009810 338.9885254
92.1119614 3.7879055 338.9919739
93.0279236 3.8680909 339.0181580
93.9680328 4.0246906 339.0466003
94.9254379 4.2611041 339.0821228
95.8921585 4.6375179 339.1344299
96.8911667 5.1664891 339.2335205
136.2276611 16.1643772 341.1633606
136.9373322 15.4189110 341.0569763
137.6969452 14.8115940 340.9700623
138.4955750 14.3587332 340.9169006
139.3165131 13.9815607 340.8666077
140.1694336 13.6982059 340.8241882
141.0474091 13.5702257 340.8244934
141.9164276 13.4992609 340.8160400
142.8181152 13.5032139 340.8059387
-117.6411819 -27.3868237 331.9623718
-116.7956543 -28.1201859 331.8599243
-116.0146637 -28.6795006 331.7876892
-107.0691299 -30.7972965 331.5401917
-106.2376251 -30.6241112 331.5712585
-98.7436295 -26.0670109 332.3012085
-67.3750305 -18.9804058 333.5834656
-66.5664368 -19.7299156 333.4772339
-62.5461922 -21.9803295 333.1739197
-61.7404022 -22.2249451 333.1495361
-57.6124611 -22.6133633 333.1195679
-56.7830276 -22.5256367 333.1416321
-54.2351570 -21.8777924 333.2530212
-53.3624802 -21.4925194 333.3298950
-52.5210152 -21.1169643 333.3737488
-51.6674538 -20.6292496 333.4574280
-50.7919159 -20.0041981 333.5556946
-49.8748589 -19.2138844 333.6787415
-48.9060707 -18.2296734 333.8378906
-17.3746204 -10.4311218 335.2278748
-16.5924206 -11.1848240 335.1095581
-15.8212166 -11.8246727 335.0327148
-10.1064405 -14.1740065 334.7281799
-9.2547112 -14.2606735 334.7169495
-6.7164898 -14.1258612 334.7543640
-5.8661280 -13.9744740 334.7826233
-4.9925342 -13.7678909 334.8190308
-4.0623679 -13.4049530 334.8908997
-3.1672583 -12.9881220 334.9580383
-2.2740142 -12.5264330 335.0229187
-1.3433053 -11.9070168 335.1271057
-0.4011564 -11.1365013 335.2380371
33.3179169 -1.9001101 336.8630066
34.0648422 -2.6418846 336.7576904
34.8439407 -3.2837143 336.6718750
35.6361465 -3.8418281 336.5956116
36.4157677 -4.3084283 336.5288696
37.2197075 -4.6804700 336.4859314
38.0489044 -4.9768367 336.4457703
42.2758141 -5.5428123 336.3928528
43.1701508 -5.4426637 336.4279480
45.9451981 -4.7049298 336.5595703
46.8676300 -4.2832742 336.6157227
47.7930717 -3.7280347 336.6994934
48.7910767 -3.0269873 336.8137512
84.6446381 6.3019238 338.4614258
85.3799210 5.6274447 338.3713074
86.1521988 5.0254569 338.2840576
86.9470291 4.5411639 338.2193298
87.7506104 4.1556325 338.1756592
88.5743179 3.8122537 338.1245728
91.1086884 3.2794139 338.0624084
92.0029221 3.2506032 338.0690918
92.9178391 3.3148220 338.0905457
93.8390961 3.4437795 338.1125793
94.7805557 3.6370161 338.1426392
95.7567139 3.9829028 338.2109375
96.7149353 4.4169469 338.2691650
97.7046738 4.9490433 338.3537292
133.9556274 18.1220932 340.5881042
134.5829010 16.9247818 340.4154053
135.2350464 15.8924360 340.2614441
135.9431458 15.0621758 340.1356201
136.6956787 14.4134483 340.0501709
137.4687195 13.9079571 339.9922791
138.2619324 13.4548101 339.9206848
139.0694885 13.1191626 339.8864746
139.9474030 12.8672304 339.8493042
140.8221283 12.7215490 339.8396606
141.6930695 12.6373081 339.8344116
142.5859528 12.6338978 339.8329163
143.5221863 12.7272415 339.8428650
144.4777527 12.9146481 339.8539429
145.5383606 13.3147144 339.9584656
-117.6404724 -27.3571072 331.1532288
-116.8002625 -28.0813141 331.0534668
-115.9842606 -28.6728077 330.9724426
-107.0598679 -30.7332935 330.7384644
-106.2503281 -30.5841942 330.7659912
-98.7488327 -26.0295410 331.4898987
-67.3836746 -19.0696144 332.7463684
-66.5896606 -19.7891808 332.6479492
-62.5535851 -22.0337772 332.3482056
-61.7364731 -22.2854614 332.3148499
-57.6120453 -22.6562424 332.2953491
-56.7942352 -22.5789928 332.3118896
-54.2413750 -21.9231262 332.4248657
-53.3841286 -21.5655670 332.4910278
-52.5265427 -21.1818638 332.5466003
-51.6595154 -20.6966457 332.6286621
-50.7824326 -20.0830803 332.7254944
-49.8824768 -19.3215809 332.8407593
-48.9220810 -18.3729324 332.9886169
-16.6333008 -11.4126186 334.2522888
-15.8363647 -12.0485592 334.1632385
-10.1231775 -14.3402481 333.8742065
-9.2867880 -14.4362555 333.8693237
-6.7406869 -14.3196144 333.8998413
-5.8829384 -14.1735077 333.9328613
-5.0124178 -13.9665661 333.9590149
-4.0966487 -13.6326752 334.0188599
-3.1991005 -13.2430649 334.0858154
-2.3099997 -12.7874022 334.1587524
-1.3741865 -12.1882010 334.2540588
-0.4146404 -11.4160795 334.3728027
32.5195045 -1.5415277 336.0677795
33.2568283 -2.3292594 335.9586792
34.0226822 -3.0295324 335.8617859
34.8041534 -3.6317172 335.7869263
35.5914078 -4.1642427 335.7091980
36.3646889 -4.6028919 335.6529846
37.1814499 -4.9862938 335.5903625
38.0075188 -5.2636876 335.5697021
42.2285957 -5.8538380 335.5051575
43.1094856 -5.7781334 335.5309143
45.8694229 -5.0683193 335.6512451
46.8142242 -4.6497703 335.7241211
47.7271805 -4.1343775 335.8004761
48.7010765 -3.4641991 335.9054871
49.7842712 -2.6279397 336.0487366
83.0835495 7.4051180 337.7651978
83.7885818 6.4867649 337.6333008
84.5246048 5.7238402 337.5277100
85.2685318 5.0855718 337.4377136
86.0408020 4.5433722 337.3719177
86.8476639 4.0683279 337.3036499
87.6487350 3.6873682 337.2529907
88.4765930 3.3775785 337.2065735
91.0164413 2.8552043 337.1501465
91.9066544 2.8040099 337.1530457
92.8067169 2.8274672 337.1577759
93.7258377 2.9417844 337.1921997
94.6588745 3.1205757 337.2138367
95.6320190 3.4262259 337.2775269
96.5724792 3.7963204 337.3296509
97.5429840 4.3008785 337.4020386
133.0487213 18.1985340 339.7268372
133.6560364 16.8830109 339.5183105
134.3068237 15.8129597 339.3683777
134.9975891 14.9815950 339.2648315
135.7268219 14.2748680 339.1648560
136.4871979 13.6888752 339.0885010
137.2824097 13.1586676 339.0076599
138.0667267 12.7701120 338.9730835
138.9020386 12.4519329 338.9253845
139.7723846 12.2021513 338.8911743
140.6283875 12.0239677 338.8669128
141.4970703 11.9302053 338.8616943
142.4015961 11.9409685 338.8834839
143.3449097 12.0117550 338.8878784
144.3187103 12.2049694 338.9259644
145.3185272 12.5136404 338.9725952
146.3401947 12.9208679 339.0248108
147.4434204 13.4822721 339.1531372
-117.6418839 -27.2781715 330.3502808
-116.7871704 -27.9978085 330.2522278
-115.9879227 -28.5698414 330.1747131
-98.7411118 -25.9214478 330.6903687
-67.3945313 -19.0887413 331.9205933
-66.5803833 -19.8127136 331.8210144
-54.2453957 -21.9350910 331.6029968
-53.3783836 -21.5666275 331.6688843
-52.5205002 -21.1839390 331.7266235
-51.6729050 -20.7166958 331.8010864
-48.9126434 -18.4039955 332.1612854
-17.3919430 -10.9238815 333.4807434
-16.6537094 -11.5817385 333.3954468
-15.8603401 -12.1955099 333.3104858
-15.0520973 -12.7427835 333.2406311
-14.2315607 -13.2056370 333.1723938
-10.1461163 -14.4700708 333.0296326
-9.2920446 -14.5704327 333.0136414
-6.7581577 -14.4565220 333.0494995
-5.8941107 -14.3039970 333.0780945
-1.4006293 -12.3769255 333.3919678
-0.4296061 -11.6127558 333.5108032
0.5664464 -10.7365789 333.6496582
32.4699097 -1.8772682 335.1762085
33.1957970 -2.6243606 335.0818481
35.5426140 -4.4305067 334.8308716
36.3267632 -4.8490963 334.7770691
37.1415215 -5.2126436 334.7278442
37.9804916 -5.5065203 334.6824951
38.8017082 -5.7432747 334.6581726
39.6428185 -5.9192600 334.6407471
45.8295517 -5.3436098 334.7736206
46.7491531 -4.9606695 334.8316040
47.6947937 -4.4568691 334.9221802
48.6432800 -3.8515618 335.0031738
49.7103920 -3.0375981 335.1400146
82.2963333 7.8402104 336.9627075
82.9703140 6.8496127 336.8281860
83.6920013 5.9831042 336.7042236
84.4332275 5.2735858 336.6077881
85.1815262 4.6665678 336.5245667
85.9633408 4.1297879 336.4481201
86.7706909 3.6848745 336.3941956
94.5745544 2.7329626 336.3168640
95.5226593 2.9918714 336.3542480
96.4843750 3.3483803 336.4277649
97.4533997 3.8181384 336.4945679
98.5021133 4.4380546 336.5951843
133.4260712 15.9826832 338.5346680
134.1023102 15.0781393 338.4209900
134.8312683 14.2824802 338.3062744
135.5733948 13.6399565 338.2158203
136.3320007 13.0757236 338.1333618
137.1327972 12.5689974 338.0614929
139.6175079 11.6431322 337.9556580
140.4764099 11.4737234 337.9290466
141.3469238 11.3790550 337.9174805
142.2561798 11.3657055 337.9291077
143.1997986 11.4354229 337.9406128
144.1647491 11.6088591 337.9870300
145.1425018 11.8528013 338.0218506
146.1614380 12.2124672 338.0805664
147.1943512 12.7158985 338.1616211
148.2750244 13.3790798 338.2743835
-116.7905045 -27.8207359 329.4637756
-115.9882278 -28.3905411 329.3869934
-98.7332764 -25.7309895 329.9019165
-67.3564148 -19.0757332 331.0999756
-66.5569839 -19.7568569 331.0075378
-54.2324295 -21.8921242 330.7899780
-53.3728294 -21.5387440 330.8469238
-52.4917831 -21.1216774 330.9158325
-51.6554222 -20.6574097 330.9888000
-48.9221840 -18.3888302 331.3361511
-18.1901627 -10.2501326 332.7478027
-17.4154739 -11.0245771 332.6379089
-16.6647816 -11.6820869 332.5505371
-15.8667536 -12.2934427 332.4688721
-15.0405998 -12.8432617 332.3916626
-14.2455864 -13.2663956 332.3391113
-10.1538105 -14.5558748 332.1800842
-9.3138695 -14.6428232 332.1728821
-6.7441864 -14.5343475 332.2103882
-5.8991437 -14.3690929 332.2413635
-1.4051046 -12.4648027 332.5501709
-0.4410707 -11.7493143 332.6615601
0.5540293 -10.8795967 332.7952881
31.6556168 -1.2070701 334.4327087
32.4319878 -2.1290679 334.2959290
33.1711693 -2.8800220 334.1991577
35.5078888 -4.6341653 333.9597473
36.3067017 -5.0430875 333.9057617
37.1168251 -5.3954153 333.8588562
37.9476852 -5.6735320 333.8340759
38.7713852 -5.8993683 333.8070984
39.6204300 -6.0779009 333.7844543
45.7914391 -5.5293574 333.9060974
46.7258415 -5.1656904 333.9670715
47.6421089 -4.7136226 334.0348816
48.6085014 -4.1136894 334.1316833
49.6627312 -3.3158715 334.2558289
82.1924667 7.3723521 336.0479126
82.9011536 6.4170470 335.9100037
83.6137543 5.6265182 335.8101196
84.3709412 4.9405384 335.7197266
85.1176453 4.3567133 335.6356201
85.9021301 3.8481789 335.5663757
86.7087326 3.4191947 335.5171204
94.5183029 2.4528441 335.4332581
95.4707565 2.6978312 335.4735413
96.4120712 3.0004244 335.5133667
97.3615189 3.4176314 335.5834961
98.4030991 4.0191746 335.6816711
132.6009064 16.3497753 337.7240601
133.2636871 15.3161030 337.5759888
133.9632111 14.4492369 337.4570923
134.6989594 13.7037191 337.3482666
135.4350281 13.1359243 337.2863159
136.2035828 12.6099520 337.2207336
137.0009766 12.1304970 337.1452332
139.5148010 11.2122211 337.0285034
140.3848419 11.0799494 337.0447998
141.2386017 10.9636459 337.0227966
142.1371002 10.9093914 337.0073547
143.0721130 10.9640827 337.0282898
144.0270538 11.0937996 337.0463867
145.0075684 11.3194046 337.0848389
146.0108948 11.6452408 337.1412354
147.0132141 12.0879517 337.1988220
148.0888214 12.7004938 337.3006592
-117.6426620 -26.8540077 328.7795105
-116.7713470 -27.5784454 328.6865845
-115.9761353 -28.1675262 328.6052856
-111.8966141 -29.9688721 328.3778381
-111.0783920 -30.1139431 328.3623047
-108.6439285 -30.3553867 328.3466797
-107.8521881 -30.3348579 328.3589478
-100.4481201 -27.2942734 328.8493347
-99.5894241 -26.4657841 328.9733276
-98.7226791 -25.4582844 329.1231689
-67.3747330 -18.9000111 330.3001404
-66.5628662 -19.5926666 330.2069092
-50.7804985 -19.9783192 330.2705688
-49.8663139 -19.2033348 330.3888855
-48.9059029 -18.2564087 330.5308228
-16.6614494 -11.7423735 331.7097168
-15.8651676 -12.3410835 331.6295471
-10.1573238 -14.5740347 331.3518982
-9.3067379 -14.6484165 331.3467102
-5.0357265 -14.1802435 331.4461670
-4.1330094 -13.8793945 331.4950867
-1.4090123 -12.5043583 331.7130127
-0.4619984 -11.8372068 331.8150024
0.5305603 -10.9532080 331.9509277
31.6383495 -1.4017493 333.5582886
33.9143524 -3.7015295 333.2436218
34.7156143 -4.2898345 333.1623230
45.7772560 -5.6192794 333.0585938
46.6997414 -5.2774677 333.1108398
47.6223564 -4.8381381 333.1850281
48.5742950 -4.2823644 333.2694397
49.6198349 -3.5261610 333.3816223
82.1320496 7.0461664 335.1470337
82.8380508 6.1463094 335.0264893
83.5883636 5.3262930 334.9025269
84.3196030 4.6761670 334.8184814
85.0633621 4.1385322 334.7566528
85.8606873 3.6502495 334.6914368
86.6760330 3.2003379 334.6255798
87.4988251 2.8249345 334.5768433
88.3200607 2.5432916 334.5470581
98.3171310 3.6963191 334.7818604
99.4216919 4.4176965 334.9033508
132.4584503 15.7658997 336.7743835
133.1300354 14.8316154 336.6484375
133.8507996 13.9940891 336.5302124
137.7163239 11.3709278 336.1849365
138.5561523 11.0878544 336.1552734
139.4204559 10.8584433 336.1216431
140.2793274 10.6926765 336.1029053
141.1387177 10.5792294 336.0952148
142.0507050 10.5427608 336.1017761
142.9780884 10.5852652 336.1117859
143.9303741 10.7041464 336.1436462
144.9048920 10.9148664 336.1835938
145.9078369 11.2209339 336.2406616
146.9004059 11.6147680 336.2927246
147.9396667 12.1687975 336.3699951
149.0648499 12.9069309 336.4801636
-116.7669601 -27.2703552 327.9168701
-115.9721298 -27.8780079 327.8356018
-111.9046936 -29.7013264 327.6050110
-111.0766144 -29.8484974 327.5881348
-108.6292496 -30.0744400 327.5673218
-107.8436813 -30.0513706 327.5834656
-100.4211960 -26.9400578 328.0816345
-99.5820541 -26.1045437 328.2110596
-67.3427811 -18.7252693 329.5040588
-66.5349960 -19.4180145 329.4098206
-50.7708778 -19.7932911 329.4753113
-49.8396492 -18.9901543 329.5955200
-48.8824806 -18.0413971 329.7364502
-16.6474361 -11.7441673 330.8768616
-15.8590469 -12.3212986 330.8008423
-10.1493692 -14.5271597 330.5288696
-9.2896147 -14.6094961 330.5243225
-5.0320859 -14.1322966 330.6242065
-4.1172762 -13.8290253 330.6745605
-1.3979752 -12.4744205 330.8888855
-0.4600610 -11.8334637 330.9860535
0.5164960 -10.9683046 331.1148682
31.6401005 -1.5321596 332.6936646
33.8982773 -3.7686169 332.3949585
34.6933060 -4.3300238 332.3196106
45.7827606 -5.6469636 332.2179871
46.6952972 -5.3151312 332.2680664
47.6090164 -4.9054942 332.3336487
48.5758057 -4.3529372 332.4209290
49.5945244 -3.6278241 332.5273132
50.7579842 -2.6398988 332.6869507
82.0701981 6.8189201 334.2666321
82.7898712 5.9471493 334.1496887
83.5375290 5.1656346 334.0405579
84.2945938 4.5027628 333.9452209
85.0469971 3.9768763 333.8787537
85.8237762 3.5070095 333.8213196
86.6354065 3.0728755 333.7649231
87.4728928 2.7182090 333.7181702
88.2872925 2.4250216 333.6902161
98.2838745 3.5052950 333.9095459
99.3513947 4.1815681 334.0118103
132.3436127 15.3430920 335.8557739
133.0268707 14.4642248 335.7407227
133.7608490 13.6781569 335.6320801
137.6399231 11.0830011 335.2884827
138.4907074 10.7983303 335.2446594
139.3430939 10.5673780 335.2251892
140.2044830 10.3944473 335.2103271
141.0668640 10.2955942 335.2036438
141.9637909 10.2605429 335.1961365
142.9034882 10.3023539 335.2244873
143.8295288 10.3808613 335.2210083
144.8080444 10.5668888 335.2698669
145.7748871 10.8230152 335.2978210
146.7874146 11.2160778 335.3749390
147.8120270 11.7398224 335.4547119
148.9377747 12.4468470 335.5544128
-116.7763290 -26.8856850 327.1557312
-115.9752655 -27.4986916 327.0686646
-115.1639709 -28.0371094 327.0032043
-114.3499451 -28.4740887 326.9469910
-111.8924942 -29.3796196 326.8384705
-111.0654221 -29.5432606 326.8150635
-100.4308319 -26.5488434 327.3242798
-99.5682831 -25.6531200 327.4588623
-67.3400803 -18.4751797 328.7166748
-66.5377274 -19.1581631 328.6225891
-65.7327728 -19.7806835 328.5400696
-64.9285736 -20.3180466 328.4694519
-50.7455826 -19.5117264 328.6915283
-49.8234177 -18.7198963 328.8111572
-48.8568993 -17.7578049 328.9502258
-18.1736088 -10.1606407 330.2591858
-17.3985062 -10.9578247 330.1523438
-15.0224266 -12.7582607 329.9143372
-14.2297974 -13.1854935 329.8601685
-13.4088326 -13.5651264 329.8136292
-12.5890913 -13.8753033 329.7756958
-11.8019409 -14.1073895 329.7470093
-10.9832840 -14.3018923 329.7253723
-8.4499922 -14.5679617 329.7073364
-7.5956321 -14.5187216 329.7205505
-6.7280364 -14.4132233 329.7422485
-5.8891916 -14.2533369 329.7707520
-5.0165830 -14.0296526 329.8093262
-4.1125417 -13.7412882 329.8564148
-1.3882105 -12.3873825 330.0678711
-0.4492891 -11.7399254 330.1678467
0.5306646 -10.8694191 330.2981567
31.6259766 -1.5659598 331.8477478
43.9282036 -6.1467214 331.2914429
44.8286552 -5.9344583 331.3269043
47.6110039 -4.9182343 331.4927063
48.5753746 -4.3601370 331.5797424
49.6016693 -3.6401522 331.6876526
50.7208443 -2.6954474 331.8300781
80.6421204 8.9246950 333.6959534
81.3234100 7.6110988 333.5162048
82.0500107 6.5974145 333.3771362
82.7634201 5.7894998 333.2727966
83.5141602 5.0511813 333.1729736
85.8154831 3.4102163 332.9549561
86.6195450 3.0018973 332.9096375
87.4541397 2.6539309 332.8654480
88.2787018 2.3285384 332.8234253
96.3001022 2.5044539 332.9096985
97.2520981 2.9070508 332.9762878
98.2644196 3.4013820 333.0471802
99.3396530 4.0672994 333.1500244
131.5898132 16.0478611 335.0886536
132.2700348 15.0038786 334.9437256
135.9642487 11.6482477 334.4935303
136.7622528 11.2290144 334.4513550
141.0101166 10.0829477 334.3124695
141.9111633 10.0480976 334.3193665
142.8362732 10.0745087 334.3335571
143.7817383 10.1615582 334.3502197
144.7456970 10.3382835 334.3802490
145.7333832 10.5922565 334.4237671
146.7076111 10.9411259 334.4787598
147.7414551 11.4454699 334.5564880
148.8737183 12.1315260 334.6613464
150.0918732 12.9968882 334.8002319
-116.7723999 -26.4240570 326.4054871
-115.9654694 -27.0571251 326.3221741
-115.1570740 -27.6116943 326.2519531
-114.3543625 -28.0594063 326.1883850
-111.8908691 -29.0069962 326.0818481
-111.0604630 -29.1919651 326.0573730
-100.4169235 -26.0707607 326.5747986
-99.5430145 -25.1187668 326.7139282
-67.3195114 -18.1658897 327.9349976
-66.5094604 -18.8692455 327.8411865
-65.7172394 -19.4828892 327.7601013
-64.9074554 -20.0332565 327.6942139
-50.7359848 -19.1833687 327.9192200
-49.7940788 -18.3635159 328.0390320
-18.1443443 -10.0161743 329.4473877
-17.3908806 -10.7949114 329.3425598
-15.0079727 -12.6095152 329.1048584
-14.2057457 -13.0245409 329.0521240
-13.3975172 -13.3684034 329.0070190
-12.5768042 -13.6784105 328.9722595
-11.7749090 -13.9353609 328.9420166
-10.9591885 -14.1493559 328.9203186
-8.4331617 -14.4131460 328.9007263
-7.5732646 -14.3468647 328.9143372
-6.7154546 -14.2477417 328.9367371
-5.8703489 -14.1037798 328.9630737
-4.9910436 -13.8894110 329.0001526
-4.0882130 -13.5858173 329.0495911
-1.3716329 -12.2148561 329.2626648
-0.4225454 -11.5377455 329.3648987
0.5686967 -10.6642523 329.4938660
31.6250420 -1.5217885 331.0126038
43.9393654 -6.0762944 330.4630127
44.8603821 -5.8700571 330.4999695
47.6042480 -4.8768897 330.6589661
48.5826035 -4.3095250 330.7466736
49.6101875 -3.5882702 330.8553772
50.7447395 -2.6434393 330.9978943
79.9447479 10.4039907 333.0538025
80.6087570 8.7777281 332.8244324
81.2903748 7.5084186 332.6527710
82.0113678 6.5246119 332.5207520
82.7542267 5.7098389 332.4105835
83.5032501 5.0003886 332.3162842
85.7954941 3.3806808 332.1051331
86.6244659 2.9546914 332.0495911
87.4466782 2.5984604 332.0107117
88.2732239 2.2815499 331.9692078
96.2801132 2.4745746 332.0538025
97.2436905 2.8820720 332.1247559
98.2498703 3.3600960 332.1947327
99.3162308 4.0137506 332.2930603
100.5182037 4.9064808 332.4331970
131.5220795 15.7578926 334.1882629
132.2150421 14.7611198 334.0491943
135.9224091 11.4983044 333.6185608
136.7420654 11.0928307 333.5710754
140.9612885 9.9433661 333.4395142
141.8579865 9.8855419 333.4352417
142.7827606 9.9026976 333.4429016
143.7297668 10.0102901 333.4694824
144.7112274 10.1951427 333.5049744
145.6887665 10.4282408 333.5407715
146.6461182 10.7497101 333.5932922
147.6898041 11.2335978 333.6763611
148.7913055 11.8645439 333.7632141
150.0015106 12.7562237 333.9019165
-116.7756653 -25.8702850 325.6651611
-115.9625015 -26.5175323 325.5784912
-115.1483765 -27.1152611 325.5047302
-114.3301392 -27.6044960 325.4460754
-113.5199509 -27.9871922 325.4003601
-112.7211609 -28.2843857 325.3529358
-111.8759613 -28.5754395 325.3315125
-111.0554733 -28.7636204 325.3034973
-103.7041092 -27.7896767 325.4990540
-102.8795853 -27.3665829 325.5613708
-102.0663147 -26.8818665 325.6312561
-101.2520599 -26.2994423 325.7261963
-100.4041290 -25.5045204 325.8413696
-67.3031387 -17.7910557 327.1649475
-66.4787369 -18.5158596 327.0697021
-65.6946564 -19.1167183 326.9872742
-64.9031677 -19.6435986 326.9134827
-55.8373871 -21.1932430 326.7740784
-54.9762192 -20.9916325 326.8034058
-52.4134636 -19.9054585 326.9728394
-51.5699463 -19.3963451 327.0511780
-50.6870117 -18.7374802 327.1491394
-49.7598152 -17.8998852 327.2783508
-17.3409786 -10.5971985 328.5390930
-14.9722233 -12.3977213 328.3069153
-14.1764612 -12.8142252 328.2522888
-13.3625994 -13.1651468 328.2083740
-12.5552940 -13.4731894 328.1722107
-11.7521744 -13.7310648 328.1412048
-10.9352226 -13.9373999 328.1192322
-6.6939631 -14.0428219 328.1359253
-5.8453331 -13.8880844 328.1623535
-1.3383148 -11.9672852 328.4661560
-0.3994915 -11.2746315 328.5721741
0.6110633 -10.3840799 328.6981812
30.8796425 -0.3629128 330.3262329
31.6489410 -1.4094583 330.1867676
43.9636612 -5.9609447 329.6419983
44.8762283 -5.7583232 329.6768188
45.7969475 -5.4760008 329.7231750
46.7371674 -5.1235642 329.7786560
49.6325035 -3.4663162 330.0326233
80.5871811 8.7629461 331.9706116
81.2882614 7.4812937 331.7965698
82.0168915 6.5231943 331.6686707
84.2558441 4.3853459 331.3856506
85.0131378 3.8564136 331.3178101
100.4866180 4.8911853 331.5779114
131.4698334 15.6047535 333.3061218
132.1566315 14.6329412 333.1768188
140.9443054 9.8636751 332.5734253
141.8405151 9.8119078 332.5733643
142.7705994 9.8429604 332.5851135
143.7017670 9.9531918 332.6048584
146.6244812 10.6432724 332.7237244
147.6389771 11.0760088 332.7912292
148.7304993 11.6889315 332.8824768
149.9601135 12.5994062 333.0231018
-115.9509506 -25.9321804 324.8507996
-115.1277313 -26.5496387 324.7727356
-114.3311691 -27.0346165 324.7037964
-113.5319061 -27.4388332 324.6557312
-112.7246552 -27.7580948 324.6131592
-111.8738022 -28.0512238 324.5873108
-111.0489349 -28.2469559 324.5552673
-103.6906586 -27.2345219 324.7543945
-102.8657227 -26.7911491 324.8304138
-102.0593033 -26.2794209 324.9047852
-101.2331161 -25.6476154 324.9984436
-100.3782730 -24.7940254 325.1210938
-67.2875443 -17.2811184 326.4045715
-66.4559402 -18.0519066 326.3143616
-65.6703568 -18.6796913 326.2247009
-64.8705063 -19.2386856 326.1540527
-55.8157349 -20.7916870 326.0084534
-54.9527931 -20.5781956 326.0425110
-52.3880997 -19.4801655 326.2221069
-51.5441895 -18.9369183 326.2982178
-50.6631088 -18.2325020 326.4022217
-49.7254944 -17.3484135 326.5310974
-17.3210583 -10.2889814 327.7508240
-14.9651937 -12.0812740 327.5120850
-14.1361551 -12.5704679 327.4601440
-13.3370838 -12.9431381 327.4104309
-12.5213480 -13.2524881 327.3753967
-11.7242575 -13.4924164 327.3438110
-10.8979673 -13.6850014 327.3236084
-6.6580954 -13.7731276 327.3433228
-5.8127456 -13.5903969 327.3777161
-1.2894275 -11.6431866 327.6809387
-0.3371946 -10.8944283 327.7911987
30.9186821 -0.1832539 329.5078125
31.6874733 -1.2358031 329.3695679
44.0006027 -5.7908335 328.8293762
44.9047318 -5.5762796 328.8663025
45.8273315 -5.2679987 328.9132996
46.7424126 -4.9136710 328.9706116
49.6666489 -3.2424316 329.2240295
80.5828857 8.7919216 331.1220093
81.2955627 7.5468631 330.9548340
82.0156403 6.6300769 330.8328552
84.2687988 4.4696112 330.5502014
85.0161362 3.9448183 330.4824829
100.5127258 4.9838386 330.7409973
130.7594452 16.6453915 332.5858765
131.4602356 15.4899864 332.4260559
132.1593781 14.5286331 332.2990112
140.9416351 9.8506184 331.7177124
141.8561249 9.8130884 331.7187195
142.7706299 9.8609314 331.7317505
143.7209167 9.9662418 331.7560120
146.6223602 10.6152744 331.8640442
147.6223755 11.0359268 331.9313660
148.7148438 11.6337185 332.0189209
149.9413300 12.4798012 332.1483765
-116.7839737 -24.4395905 324.2210693
-115.9450378 -25.2542553 324.1228027
-115.1362000 -25.8756218 324.0479126
-114.3219833 -26.4074612 323.9840088
-113.5233688 -26.8320255 323.9245300
-112.7058182 -27.1754169 323.8882751
-111.8726425 -27.4470177 323.8460999
-111.0389023 -27.6742249 323.8288269
-107.0045547 -27.7149067 323.8494568
-106.1615219 -27.5345020 323.8776245
-105.3155289 -27.3146458 323.9225769
-104.4949417 -27.0087051 323.9740601
-103.6736908 -26.5885448 324.0219421
-102.8380203 -26.0991764 324.0893860
-102.0367584 -25.5513477 324.1732788
-101.2014084 -24.8691845 324.2885132
-100.3548355 -23.9354954 324.4277039
-66.4363403 -17.4912415 325.5660095
-65.6358871 -18.1861629 325.4739990
-64.8374634 -18.7656631 325.3974915
-64.0287476 -19.2462616 325.3373718
-63.2283936 -19.6385326 325.2897034
-59.1035004 -20.5881767 325.1878052
-58.2845421 -20.6191025 325.1899414
-57.4726982 -20.5826969 325.2016602
-56.6419907 -20.4740219 325.2225647
-55.7752266 -20.2933846 325.2540588
-54.9158783 -20.0729656 325.2991028
-54.0495644 -19.7561378 325.3367920
-53.1793137 -19.3612614 325.3898621
-52.3314972 -18.9181671 325.4656372
-51.4983406 -18.3575211 325.5508423
-50.6158676 -17.6086979 325.6624756
-49.6727371 -16.6764126 325.7937012
-18.0608635 -9.1069899 327.0686340
-17.2872372 -9.9169436 326.9682312
-16.5179482 -10.6315060 326.8796387
-15.7398844 -11.2090940 326.8000183
-14.9209585 -11.7429066 326.7279663
-14.1064425 -12.2332973 326.6765137
-13.3039331 -12.6112423 326.6261292
-12.4909067 -12.9296188 326.5886230
-6.6228609 -13.4358454 326.5638428
-5.7767515 -13.2363987 326.5896606
-4.9016447 -12.9912386 326.6361389
-3.9726689 -12.6752796 326.6821289
-3.0690722 -12.3152351 326.7447205
-2.1639230 -11.8422928 326.8130188
-1.2492430 -11.2251053 326.9084167
-0.2816825 -10.4308844 327.0201111
30.9459019 0.0772841 328.6978760
31.7186546 -0.9760480 328.5634155
37.1896515 -4.9734316 328.0524597
38.0233231 -5.2357240 328.0205383
47.7216225 -4.2212949 328.2307434
48.6835251 -3.6819046 328.3164063
49.7094765 -2.9316244 328.4286804
81.3186417 7.6790695 330.1220093
82.0652771 6.7218642 329.9951477
89.1634979 2.2815785 329.4356995
89.9983292 2.1297538 329.4215393
94.4762268 2.2531116 329.4705200
95.4143524 2.4515181 329.5053406
96.3426895 2.7425497 329.5521240
97.2848816 3.1094823 329.6118469
98.3129883 3.6190023 329.6870422
99.3754883 4.2700267 329.7857361
100.5521088 5.1691976 329.9160156
130.7473297 16.6314964 331.7216797
137.5306702 10.6400414 330.9450989
138.3645172 10.3626251 330.9133301
139.2205963 10.1501665 330.8906250
140.0789490 9.9858112 330.8741150
140.9426880 9.8843098 330.8663940
141.8564758 9.8655615 330.8701172
142.7966309 9.9111004 330.8838806
143.7183533 9.9867716 330.8992310
144.6818848 10.1396637 330.9285889
145.6587982 10.3587818 330.9677429
146.6255493 10.6511946 331.0140381
147.6559906 11.0987244 331.0838623
148.7341309 11.6717720 331.1694336
149.9332733 12.4619560 331.2878113
-114.3190536 -25.6580524 323.2713318
-113.5071106 -26.1048851 323.2174377
-112.7038956 -26.4660110 323.1693726
-111.8638916 -26.7758102 323.1319580
-111.0241852 -27.0178776 323.1077576
-106.9941711 -27.0487213 323.1284485
-106.1418686 -26.8594570 323.1623840
-105.3072433 -26.6051083 323.2044983
-104.4831390 -26.2662373 323.2506409
-103.6653748 -25.8672848 323.3229370
-102.8467560 -25.3683434 323.3975525
-102.0436172 -24.7617474 323.4837646
-101.2015228 -23.9781132 323.5945129
-67.2134933 -15.9425774 324.9360046
-66.3964157 -16.8625374 324.8240662
-65.5988083 -17.5799313 324.7379150
-64.8030243 -18.1731911 324.6578979
-63.9919052 -18.6678295 324.5882874
-63.1963730 -19.0831108 324.5441895
-59.0671349 -20.0713921 324.4381714
-58.2529106 -20.0896740 324.4458923
-57.4416962 -20.0407467 324.4620972
-56.6171951 -19.8938046 324.4800720
-55.7264290 -19.6775398 324.5017395
-54.8726311 -19.4723396 324.5525513
-54.0144157 -19.1831207 324.6020813
-53.1488419 -18.7934647 324.6620789
-52.2871742 -18.2854328 324.7290344
-51.4523430 -17.6769543 324.8229065
-50.5708923 -16.8844032 324.9398804
-17.2370720 -9.4853048 326.1950684
-16.4835396 -10.1792603 326.1045837
-15.6720028 -10.8191595 326.0275269
-14.8773918 -11.3448172 325.9559021
-14.0662889 -11.8107414 325.9022522
-13.2532129 -12.1857224 325.8491211
-12.4374189 -12.5133982 325.8185730
-6.5789847 -13.0473509 325.7885742
-5.7236328 -12.8522110 325.8175964
-4.8464212 -12.5941467 325.8563843
-3.9291720 -12.2737923 325.9138184
-3.0182629 -11.8784781 325.9776306
-2.1162539 -11.3688622 326.0519409
-1.1853734 -10.7038832 326.1437683
-0.2195060 -9.9037495 326.2649841
31.7702408 -0.6439394 327.7695007
37.2319336 -4.6986375 327.2531128
38.0699081 -4.9569716 327.2197266
47.7674446 -3.9011126 327.4385071
48.7570763 -3.3104696 327.5229187
49.7895660 -2.5151331 327.6437988
50.9442368 -1.4278452 327.7907104
81.3556671 7.8975835 329.2981567
82.0990067 6.9105186 329.1714783
89.1901703 2.4859774 328.6204834
90.0401001 2.3469288 328.6020203
94.5145950 2.4422448 328.6513367
95.4448395 2.6536841 328.6869812
96.3944244 2.9741817 328.7342529
97.3369370 3.3338542 328.7928162
98.3529816 3.8465843 328.8701782
99.4235535 4.5210042 328.9730530
100.6054611 5.4655824 329.1080322
130.7705536 16.6951733 330.8683472
137.5468445 10.7325754 330.1022339
138.3915710 10.4547453 330.0697327
139.2552490 10.2432709 330.0481262
140.1031647 10.0760307 330.0319214
140.9633942 9.9803305 330.0255127
141.8685913 9.9644890 330.0286865
142.8114319 9.9945984 330.0400696
143.7380371 10.0740070 330.0580750
144.7033081 10.2205324 330.0852966
145.6761627 10.4387417 330.1216431
146.6566162 10.7606764 330.1734009
147.6715393 11.1934671 330.2398682
148.7588806 11.7686882 330.3266296
149.9896393 12.5833988 330.4464111
-114.3223343 -24.7648830 322.5514832
-113.5250702 -25.2070541 322.5034180
-112.7057800 -25.6165829 322.4674377
-111.8581009 -25.9757938 322.4299316
-111.0307312 -26.2178116 322.3964844
-110.2166595 -26.3744183 322.3816223
-109.4007721 -26.4488182 322.3734741
-106.9812088 -26.2832966 322.4224548
-106.1279221 -26.0484886 322.4446716
-105.2976837 -25.7830601 322.5022583
-104.4749527 -25.4212208 322.5547791
-103.6353302 -24.9388924 322.6134949
-102.8259430 -24.4131565 322.7111816
-102.0171204 -23.7381744 322.8031311
-65.5735474 -16.8298264 324.0038757
-64.7477341 -17.4883270 323.9314270
-63.9434090 -18.0237312 323.8610840
-63.1683846 -18.4184856 323.8055725
-62.3585243 -18.7454643 323.7660217
-61.5282364 -19.0243111 323.7333679
-57.3924561 -19.3950901 323.7126160
-56.5617905 -19.2545681 323.7346497
-55.6837921 -19.0696850 323.7714233
-54.8134155 -18.8253994 323.8052368
-53.9640503 -18.5146122 323.8629456
-53.1028061 -18.0822830 323.9265442
-52.2429657 -17.5487194 324.0122986
-51.3992653 -16.8714275 324.1052246
-50.4945793 -16.0116539 324.2157593
-17.1811733 -8.9372120 325.4360657
-16.4226265 -9.6535034 325.3485107
-15.6334524 -10.3094864 325.2598572
-13.1977348 -11.7050533 325.0847778
-12.3933296 -12.0117960 325.0494995
-11.5886517 -12.2908602 325.0217590
-10.7859297 -12.4856024 325.0003662
-9.9294310 -12.6037197 324.9887695
-9.0664854 -12.6898556 324.9862976
-6.5253997 -12.6031408 325.0166321
-5.6799726 -12.4141722 325.0495605
-4.8008876 -12.1285887 325.0917969
-3.8779063 -11.7689857 325.1425171
-2.9510808 -11.3341179 325.2115784
-2.0246725 -10.7802210 325.2910461
-1.1098458 -10.1138811 325.3931580
-0.1595432 -9.3008385 325.5168152
31.8239727 -0.2020612 326.9826965
32.5950546 -1.1274242 326.8666687
33.3451691 -1.8685247 326.7669067
37.2878113 -4.3422036 326.4671631
38.1180344 -4.6089067 326.4291992
44.1486053 -4.8876605 326.4417114
45.0628433 -4.6733503 326.4764709
47.8522835 -3.4950798 326.6553650
48.8050079 -2.9005909 326.7464600
49.8741570 -2.0026560 326.8717651
81.4297867 8.1552620 328.4818115
82.1635513 7.1758842 328.3578186
82.8884201 6.3555331 328.2492676
83.6294861 5.6282721 328.1562805
87.5751038 3.2369676 327.8605652
88.3997498 2.9578857 327.8285828
92.7090073 2.4755836 327.8002930
93.6494064 2.5725133 327.8124390
96.4454575 3.2408762 327.9252625
97.3985138 3.6182597 327.9840088
98.4190598 4.1556697 328.0650024
99.5115433 4.8817463 328.1716919
100.6842499 5.8805661 328.3169861
130.1764832 18.2376785 330.2113342
130.8134918 16.8246593 330.0245667
141.0098419 10.1613388 329.1915283
141.9184265 10.1201601 329.1968689
142.8484192 10.1629610 329.2085266
143.7889709 10.2669048 329.2288208
146.7049866 10.9253082 329.3393555
147.7093048 11.3457136 329.4048767
148.7972412 11.9383087 329.4944458
150.0028381 12.7372961 329.6084595
-112.6988602 -24.6964569 321.7719116
-111.8532486 -25.0472202 321.7422180
-111.0221710 -25.2975616 321.7005920
-110.2044907 -25.4906483 321.6885376
-109.3886948 -25.5797558 321.6823120
-106.9650421 -25.3957977 321.7245178
-106.1268692 -25.1499996 321.7559814
-105.2774658 -24.8254147 321.8092957
-104.4511871 -24.4277668 321.8794556
-103.6179504 -23.8589554 321.9503784
-102.7962799 -23.2242832 322.0390930
-64.7113342 -16.6474857 323.2139587
-63.8968124 -17.2323647 323.1469421
-63.1199684 -17.6799259 323.0877686
-62.3192368 -18.0616341 323.0498047
-61.4986572 -18.3481140 323.0053406
-57.3638115 -18.7376289 322.9891357
-56.5215759 -18.6095123 323.0076904
-55.6465454 -18.4150543 323.0532532
-54.7778282 -18.1143761 323.0934143
-53.9068832 -17.7166214 323.1472168
-53.0301857 -17.2378864 323.2178955
-52.1675339 -16.6479549 323.3020630
-17.1144428 -8.2700844 324.6864929
-16.3681793 -9.0040665 324.5958862
-15.5671339 -9.7374792 324.5109253
-13.1430216 -11.1617899 324.3215027
-12.3382149 -11.4891386 324.2861938
-11.5327024 -11.7752237 324.2644958
-10.7255020 -11.9315519 324.2445068
-9.8623972 -12.0553188 324.2358704
-8.9958344 -12.1667757 324.2334595
-6.4678349 -12.0789289 324.2604370
-5.6162682 -11.8674507 324.2868042
-4.7321477 -11.5619116 324.3346558
-3.8216357 -11.1908941 324.4035645
-2.8832383 -10.7250443 324.4720764
-1.9531728 -10.1419163 324.5513611
-1.0213672 -9.3959827 324.6572266
-0.0277391 -8.4510031 324.7814331
31.8958817 0.3229053 326.2045898
32.6623344 -0.6378826 326.0914307
33.4120941 -1.4099926 325.9930420
37.3523216 -3.9105544 325.6777039
38.1948853 -4.2094626 325.6471558
44.2372513 -4.4411092 325.6552124
45.1387978 -4.2184610 325.6954651
47.9379349 -2.9813917 325.8802490
48.9071655 -2.3323915 325.9807434
49.9835968 -1.4001794 326.1062622
82.2221527 7.5503373 327.5572510
82.9430161 6.7073336 327.4433899
83.6935120 5.9341745 327.3524780
87.6435242 3.5415337 327.0574341
88.4665909 3.2559512 327.0268555
92.7921143 2.8074865 326.9905396
93.7126541 2.8969092 327.0090027
96.5121841 3.5786138 327.1275330
97.4732895 3.9857786 327.1873169
98.5156174 4.5577211 327.2718811
99.6110992 5.3230872 327.3836670
100.7661514 6.3765550 327.5404968
130.2416840 18.4332905 329.3760071
130.8818665 17.0165577 329.1923828
141.0659943 10.3685560 328.3679199
141.9785309 10.3390551 328.3705444
142.9248962 10.4079876 328.3832397
143.8554535 10.5002775 328.4016724
146.7469330 11.1483355 328.5159302
147.7747192 11.5898218 328.5800171
148.8892365 12.2200117 328.6736755
-111.8515320 -23.9425316 321.0759583
-111.0156250 -24.2451763 321.0404053
-110.1841049 -24.4419460 321.0227661
-109.3752060 -24.5270615 321.0049744
-108.5717697 -24.5653915 321.0118103
-107.7795181 -24.5151653 321.0247803
-106.9738388 -24.3583012 321.0531006
-106.1177521 -24.0746861 321.0952759
-105.2757874 -23.6874981 321.1395569
-104.4425430 -23.2117729 321.2214050
-103.6005859 -22.5734539 321.3023071
-64.6711502 -15.7120733 322.5013123
-63.8563385 -16.2984047 322.4404907
-63.0589523 -16.8072662 322.3825684
-62.2711029 -17.2114468 322.3246765
-61.4465828 -17.5481415 322.2921448
-60.5999756 -17.7740173 322.2612000
-59.7667885 -17.9209423 322.2485352
-58.9445953 -18.0009899 322.2508240
-58.1220169 -18.0024567 322.2563782
-55.5950584 -17.5531368 322.3287659
-54.7165871 -17.2090721 322.3784790
-53.8451309 -16.7688389 322.4411316
-52.9954071 -16.2767925 322.5319519
-52.1173286 -15.5873156 322.6202393
-16.2887383 -8.3109617 323.8580017
-15.4888258 -9.0647182 323.7754517
-14.6961040 -9.6598063 323.6828308
-13.8852081 -10.1661749 323.6257019
-11.4795437 -11.1644850 323.5156860
-10.6561508 -11.2988300 323.4804382
-8.0776777 -11.5743208 323.4765320
-7.2283125 -11.5403900 323.4866333
-6.4020071 -11.4660225 323.5166626
-5.5468569 -11.2412329 323.5444336
-4.6560259 -10.9003000 323.5903320
-3.7120564 -10.4487190 323.6466064
-2.7809424 -9.9686422 323.7360535
-1.8611273 -9.3524284 323.8312988
-0.9076970 -8.5107536 323.9494934
0.0860375 -7.4981265 324.0938416
32.7202911 -0.0526779 325.3078003
33.5065994 -0.8730230 325.2243347
34.2686043 -1.5522519 325.1363220
35.0311165 -2.1099906 325.0563049
35.8215103 -2.6240883 325.0053406
36.5977936 -3.0554607 324.9515686
44.3172455 -3.9383566 324.8866577
45.2353706 -3.6798763 324.9271851
46.1580467 -3.3374696 324.9831543
47.1104584 -2.8908198 325.0423279
48.0278473 -2.3753679 325.1254883
49.0033493 -1.6772212 325.2274475
82.3112793 7.9703836 326.7641907
83.0313187 7.0963111 326.6458435
83.7605743 6.3536248 326.5514526
89.3863983 3.4155986 326.2057800
90.2256470 3.2897077 326.1893005
92.8833160 3.1967843 326.1969604
93.8041229 3.2891777 326.2160645
96.6199265 4.0327201 326.3371277
97.5680389 4.4458885 326.4017334
98.6237488 5.0525956 326.4874878
99.7264328 5.8610287 326.6045227
130.9487305 17.3522682 328.3753357
131.6126099 16.1637173 328.2199707
132.2963104 15.2262316 328.0987549
133.0325012 14.4055471 327.9944458
133.7724457 13.7046165 327.9033203
136.0710449 12.1183052 327.7108765
136.8925171 11.6968679 327.6565247
137.7168274 11.3491678 327.6232605
138.5636444 11.0944338 327.5902710
139.4229736 10.8899298 327.5669250
140.2767029 10.7322044 327.5500183
141.1273346 10.6221418 327.5494995
142.0413361 10.6156120 327.5482178
142.9727478 10.6571865 327.5675659
143.9278412 10.7471056 327.5820923
144.8880768 10.9014940 327.6135559
145.8592682 11.1443024 327.6506958
146.8457031 11.4771767 327.6995544
147.8412933 11.9041023 327.7713928
148.9578094 12.5537100 327.8646240
-110.1911621 -23.1411190 320.3620300
-109.3719254 -23.2426491 320.3692627
-108.5701828 -23.2588139 320.3664551
-107.7635574 -23.1920853 320.3843384
-106.9578018 -22.9861889 320.4075012
-106.1150284 -22.7315445 320.4574890
-63.0036087 -15.7891426 321.6915588
-62.2074242 -16.2192039 321.6448364
-61.3824463 -16.5925674 321.5992737
-60.5481987 -16.8605537 321.5648804
-59.7234612 -17.0216351 321.5468750
-58.8732300 -17.0770645 321.5472412
-58.0525970 -17.0334454 321.5420227
-55.5381966 -16.5829678 321.6400757
-54.6638184 -16.1988888 321.7019348
-53.7730637 -15.6615772 321.7687073
-52.8927269 -15.0593357 321.8549500
-15.4197741 -8.2296352 323.0437927
-14.6093149 -8.9076700 322.9608154
-13.8022947 -9.4431047 322.8945007
-11.4006853 -10.4779835 322.7709656
-10.5789347 -10.6536884 322.7483826
-7.9957085 -10.8987474 322.7331848
-7.1619692 -10.8581419 322.7542725
-6.3054357 -10.7260275 322.7757568
-5.4712048 -10.5148649 322.8170471
-4.5773487 -10.1598301 322.8742981
-3.6070476 -9.6381645 322.9319153
-2.6689072 -9.0523787 323.0213623
-1.7431978 -8.3567896 323.1301880
-0.7700008 -7.4155383 323.2553406
33.6008148 -0.2311093 324.4652710
34.3576736 -0.9245421 324.3798828
35.1408386 -1.5202886 324.2966614
35.9163361 -2.0384934 324.2279053
36.6948586 -2.4953918 324.1855164
44.4215660 -3.3508542 324.1296692
45.3469505 -3.0629973 324.1728210
46.2810059 -2.6900272 324.2262878
47.2153397 -2.2275279 324.3041992
48.1775513 -1.5944915 324.3800354
49.1435738 -0.8510587 324.4947815
82.4326096 8.4687843 325.9850769
83.1451035 7.5813890 325.8696289
83.8666077 6.8362002 325.7670898
89.4882126 3.8672378 325.4245300
90.3164520 3.7568769 325.3997803
92.9784851 3.6460104 325.4174500
93.9008102 3.7593453 325.4319458
96.7317734 4.5657687 325.5588684
97.6882782 5.0077991 325.6296387
98.7419434 5.6510892 325.7251892
131.0502625 17.7723351 327.5736694
131.7126160 16.5408916 327.4122925
132.3945465 15.5687237 327.2851868
133.1138611 14.7586508 327.1827698
133.8504333 14.0504532 327.0918884
136.1527557 12.4350080 326.8951416
136.9680481 12.0000029 326.8444519
137.7925720 11.6785526 326.7998352
138.6311646 11.4024267 326.7760010
139.4921112 11.1803102 326.7532654
140.3450317 11.0232382 326.7410583
141.2071686 10.9428902 326.7332153
142.1221008 10.9280767 326.7402649
143.0549469 10.9519587 326.7535095
144.0142365 11.0574589 326.7701111
144.9840851 11.2445755 326.7980042
145.9639130 11.5132236 326.8403320
146.9380035 11.8486099 326.8960266
147.9554291 12.3227949 326.9651184
149.0816803 13.0032501 327.0643005
-109.3604584 -21.6262569 319.7325745
-108.5495911 -21.6646862 319.7356262
-62.1590385 -15.0079241 320.9559021
-61.3137970 -15.4612741 320.9372253
-60.4874725 -15.7450323 320.8939819
-59.6578941 -15.9017878 320.8739014
-58.8266258 -15.9473925 320.8717651
-57.9863510 -15.9554358 320.8860779
-57.1734238 -15.8484755 320.8910522
-56.3401794 -15.6799974 320.9310608
-55.4567413 -15.3575296 320.9795837
-54.5780220 -14.8900890 321.0404968
-14.5129147 -7.9759107 322.2537842
-13.7122736 -8.5433683 322.1732788
-12.9048758 -9.0366898 322.1171875
-12.1171741 -9.4208269 322.0715332
-11.3217068 -9.7044687 322.0490417
-10.5043936 -9.8897276 322.0253601
-9.6466532 -10.0292788 322.0041504
-8.7728310 -10.1282043 322.0012512
-7.9202113 -10.1266918 322.0052490
-7.0567460 -10.0234718 322.0159607
-6.2063193 -9.8678007 322.0484924
-5.3729134 -9.6431160 322.0912476
-4.4741611 -9.2470217 322.1466980
-3.5265217 -8.6992331 322.2388000
-2.5447099 -7.9680405 322.3317566
33.6919022 0.5638829 323.7070313
34.4695473 -0.2041060 323.6372375
35.2428246 -0.8641858 323.5592041
36.0147667 -1.3979522 323.4869385
36.7914276 -1.8305261 323.4280396
39.3159828 -2.7514334 323.3186340
40.1561279 -2.8983312 323.3031921
42.6950455 -2.9778109 323.3194885
43.6156311 -2.8561804 323.3349609
44.5342941 -2.6466331 323.3708496
45.4600639 -2.3459930 323.4269409
46.4034424 -1.9154152 323.4884644
47.3673096 -1.3597486 323.5684814
48.2979164 -0.7198350 323.6726990
82.5387039 9.1768484 325.2110901
83.2626801 8.2253284 325.0960693
83.9916077 7.3976631 325.0002136
86.2631760 5.6563244 324.7813110
87.0910873 5.2375140 324.7293091
91.2779465 4.1637335 324.6190491
92.1788940 4.1371341 324.6250305
94.9601288 4.5183134 324.6890564
95.8973618 4.8000627 324.7383423
96.8555222 5.1838465 324.7939148
97.8386765 5.6963720 324.8695679
131.8275452 17.0324211 326.6175537
132.5175476 15.9962873 326.4849854
133.2130432 15.1899242 326.3750916
133.9470215 14.4556856 326.2867737
134.6924744 13.8162813 326.2092896
135.4496765 13.3005009 326.1408691
136.2311096 12.8099289 326.0848389
137.0539703 12.3667135 326.0378723
137.8843536 12.0340729 325.9992676
138.7320099 11.7526331 325.9725037
139.5845490 11.5451431 325.9479370
140.4449463 11.3981915 325.9293518
141.3114166 11.3260431 325.9281311
142.2269592 11.3133688 325.9223938
143.1580505 11.3333559 325.9446106
144.1100159 11.4462862 325.9667664
145.0820618 11.6499567 326.0025024
146.0592499 11.9254951 326.0506592
147.0594940 12.2991838 326.1018982
148.0848541 12.8355598 326.1798401
149.2289276 13.5546265 326.2773743
-61.2508736 -13.9514532 320.2746582
-60.4096489 -14.3134794 320.2256470
-59.5732880 -14.5537472 320.2268982
-58.7476807 -14.5783396 320.2405396
-57.9098129 -14.5729036 320.2523193
-57.1004410 -14.4353170 320.2503967
-56.2471848 -14.2273903 320.2832031
-14.4011154 -6.8761277 321.5584106
-13.5855913 -7.5308976 321.4919434
-12.7962227 -8.0369158 321.4213257
-12.0021143 -8.4459839 321.3728027
-11.2183762 -8.7089796 321.3269958
-10.4047775 -8.9642277 321.3189087
-9.5356798 -9.1284685 321.2968140
-8.6703176 -9.2418995 321.2945862
-7.8285332 -9.2440414 321.3017273
-6.9659357 -9.1151848 321.3157654
-6.1011033 -8.9075918 321.3464355
-5.2533822 -8.6237135 321.3977356
-4.3772640 -8.1969309 321.4677429
-3.3916545 -7.5110526 321.5513000
34.5820351 0.6559283 322.8839722
35.3685226 -0.0396752 322.8177795
36.1336594 -0.6018324 322.7531738
36.9178848 -1.0608374 322.6990356
39.4161148 -2.0228572 322.5880737
40.2760010 -2.1692569 322.5719604
42.8083191 -2.2393663 322.5833130
43.7200203 -2.0957580 322.6091003
44.6553612 -1.8550200 322.6452942
45.5857048 -1.5046041 322.7005920
46.5657501 -0.9689411 322.7620544
47.5139694 -0.3809745 322.8623047
83.3998032 8.9071827 324.3298340
84.1279373 8.0779772 324.2396545
86.3868637 6.2727151 324.0109253
87.2031403 5.8426232 323.9568176
91.3883133 4.7476444 323.8502197
92.2875061 4.7554216 323.8536377
95.1055222 5.1580367 323.9234314
96.0687332 5.4730177 323.9764099
97.0166931 5.9156237 324.0337830
98.0063248 6.4946012 324.1250610
131.9676208 17.5950260 325.8278503
132.6409607 16.5570660 325.6993713
133.3396301 15.6675081 325.5855713
134.0488586 14.9370222 325.4861755
134.8091736 14.2631912 325.4168091
135.5597382 13.7306395 325.3459473
136.3431091 13.2397671 325.2857666
137.1730652 12.8055992 325.2387695
137.9940033 12.4917898 325.1954346
138.8481445 12.2289791 325.1687317
139.7056122 12.0143356 325.1457520
140.5600739 11.8483953 325.1450500
141.4180145 11.7817526 325.1418152
142.3321075 11.7711945 325.1418762
143.2783051 11.8027411 325.1548767
144.2270508 11.9345427 325.1766968
145.2426300 12.1888332 325.1961060
146.2020874 12.4687710 325.2561340
147.2028198 12.8635769 325.3197632
148.2613983 13.4525490 325.3987122
-13.4729376 -6.2843380 320.7932739
-12.6759319 -6.8138680 320.7498169
-11.8875284 -7.2555180 320.7030334
-11.0975351 -7.5818706 320.6602783
-10.2810946 -7.8379035 320.6334839
-9.4268103 -8.0007620 320.6119385
-8.5488920 -8.1158867 320.6080627
-7.6960111 -8.0987139 320.6098633
-6.8295851 -7.9990063 320.6464844
-5.9612608 -7.6998949 320.6727600
