-111.7619171 -129.2182159 39.7009544
62.6382523 -151.1721039 -133.3813782
59.6826630 -150.9597626 -131.6538391
56.7485199 -150.8178101 -130.3424072
53.8382607 -150.7231445 -129.3764954
33.8075829 -151.4407806 -130.7824707
30.9688473 -151.7405090 -132.1906281
28.1299191 -152.1114197 -134.0194397
68.4186249 -148.2730408 -134.0047607
65.4116821 -147.9544373 -131.6048584
62.4373932 -147.7171631 -129.7124939
59.4997635 -147.5537720 -128.2562561
56.5820198 -147.4393158 -127.1271973
53.6804695 -147.3702545 -126.2917480
33.6999207 -148.0538788 -127.5497055
30.8771477 -148.3210144 -128.7742615
28.0397377 -148.6396637 -130.3312531
71.2336960 -145.2061462 -133.1428528
68.2090607 -144.8740082 -130.5833130
65.2241821 -144.6072083 -128.5100403
62.2708817 -144.4162445 -126.8648834
59.3456192 -144.2730408 -125.5512924
39.2850418 -144.4183350 -123.4949951
36.4564552 -144.5859833 -124.1138153
33.6193581 -144.7872314 -124.9552460
30.7995186 -145.0284576 -126.0499802
74.0935287 -142.2670898 -133.0327301
71.0418396 -141.8845978 -130.1760101
68.0351868 -141.5959625 -127.8992386
65.0746231 -141.3806305 -126.0456696
62.1344223 -141.2144928 -124.5489655
59.2226868 -141.0915833 -123.3544922
39.2108231 -141.2586365 -121.4504700
36.3751297 -141.4100800 -121.9993362
33.5535889 -141.5993958 -122.7941360
76.9802170 -139.4164429 -133.5361633
73.9068451 -139.0027618 -130.3728943
70.8858490 -138.6799774 -127.8313599
67.8973083 -138.4324951 -125.7617798
64.9468689 -138.2363586 -124.0516968
62.0149765 -138.0874023 -122.6672211
59.1146088 -137.9860382 -121.5516815
33.4893303 -138.4909668 -121.0398865
76.8075790 -136.2029114 -131.1403351
73.7573090 -135.8371582 -128.2685394
70.7573547 -135.5567017 -125.9509888
67.7793121 -135.3290710 -124.0075989
64.8394241 -135.1571045 -122.4227905
61.9277992 -135.0288696 -121.1280670
59.0262833 -134.9313202 -120.0618439
33.4405899 -135.4265442 -119.5578918
79.7654572 -133.4925842 -132.5311890
76.6728668 -133.0769501 -129.2615814
73.6344604 -132.7498474 -126.6082458
70.6471024 -132.5001526 -124.4437561
33.3911171 -132.4184265 -118.3464890
79.6282654 -130.3947906 -130.8311310
76.5528564 -130.0205994 -127.7840958
73.5372772 -129.7283478 -125.3028183
70.5543442 -129.4920349 -123.2354584
33.3512917 -129.4555054 -117.3890533
82.6324768 -127.8005753 -133.0740662
79.5257492 -127.3689423 -129.5604248
76.4624176 -127.0242004 -126.6707306
44.5932045 -126.0716476 -115.1350250
41.7691269 -126.1418610 -115.2546387
33.3152847 -126.5213547 -116.6333923
82.5367813 -124.7937088 -131.9565125
79.4446030 -124.3928833 -128.6049500
76.3921967 -124.0698395 -125.8298874
44.5599289 -123.1750412 -114.5958862
41.7337723 -123.2606201 -114.7435532
33.2900162 -123.6156082 -116.0425415
85.6353073 -122.3188019 -135.1922302
82.4712524 -121.8379517 -131.1710052
79.3773499 -121.4570694 -127.9180374
76.3449249 -121.1614075 -125.2652435
55.8935699 -120.2425385 -115.4123230
53.0383606 -120.2298279 -114.8752136
50.2010574 -120.2394180 -114.5017166
47.3621292 -120.2640381 -114.2880325
44.5372391 -120.3175430 -114.2264557
41.7153778 -120.3888550 -114.3364334
33.2691612 -120.7427597 -115.6586914
30.4615669 -120.9046326 -116.4303589
85.5752411 -119.3815308 -134.5820618
82.4102020 -118.9224396 -130.6631470
79.3322906 -118.5657730 -127.5123901
76.3022690 -118.2824783 -124.9237976
55.8601303 -117.4000244 -115.1987457
53.0072136 -117.3883209 -114.6562881
50.1672363 -117.3936234 -114.2853394
47.3386955 -117.4291840 -114.0918274
44.5144691 -117.4753265 -114.0293808
41.6912880 -117.5499954 -114.1460190
33.2455902 -117.8942947 -115.4449463
30.4479904 -118.0485001 -116.1829376
27.6274929 -118.2344589 -117.1434555
85.5384598 -116.4859467 -134.2833862
82.3820572 -116.0493774 -130.4502869
55.8466339 -114.5893173 -115.1743774
52.9959564 -114.5778732 -114.6627731
47.3214645 -114.6157074 -114.0706482
44.4993248 -114.6607590 -113.9915237
41.6751862 -114.7303619 -114.0997238
38.8599701 -114.8218079 -114.3625641
36.0401993 -114.9371414 -114.8108673
27.6132431 -115.3988419 -117.0678253
85.5181656 -113.6321411 -134.2955322
82.3670044 -113.2112274 -130.5055389
55.8327103 -111.7949371 -115.3096161
52.9918900 -111.7843781 -114.7864761
50.1485367 -111.7918015 -114.4118881
47.3209000 -111.8162994 -114.1688766
44.4964943 -111.8641281 -114.1057205
41.6636047 -111.9354630 -114.2215118
38.8536606 -112.0211334 -114.4734344
36.0363464 -112.1312714 -114.9045181
27.6049385 -112.5825043 -117.1447754
24.7986870 -112.7798691 -118.2608109
21.9778500 -113.0020905 -119.5728073
85.5188751 -110.8151855 -134.6059265
82.3677597 -110.4007721 -130.7887421
44.4811516 -109.0909271 -114.4096146
41.6551361 -109.1580963 -114.5112076
38.8400345 -109.2409058 -114.7387543
36.0343094 -109.3457031 -115.1488876
21.9734764 -110.1957855 -119.8050385
19.1616879 -110.4406738 -121.3376541
16.3399010 -110.7152863 -123.1070099
13.5068989 -111.0260773 -125.1653595
10.6805182 -111.3764648 -127.5432587
7.8262196 -111.7813721 -130.3549805
4.9684830 -112.2510986 -133.6855164
85.5543213 -108.0300674 -135.1992035
82.3888855 -107.6220703 -131.3486328
44.4835434 -106.3307800 -114.8355713
41.6615105 -106.3944016 -114.9235077
36.0270920 -106.5803146 -115.5775375
21.9765301 -107.4098587 -120.2143707
19.1553860 -107.6487503 -121.7431793
16.3303680 -107.9188156 -123.5236435
13.5024977 -108.2231750 -125.5894241
10.6649017 -108.5674591 -127.9786224
7.8168001 -108.9616547 -130.7800140
4.9599991 -109.4208069 -134.1107178
85.5931854 -105.2746506 -136.0622101
82.4413528 -104.8715363 -132.1796570
61.6029358 -103.6069336 -118.2698364
58.7233353 -103.5519867 -117.3518677
55.8556900 -103.5189819 -116.6230392
53.0028534 -103.5056229 -116.0762863
50.1531677 -103.5112457 -115.6685715
47.3173752 -103.5370941 -115.4457550
44.4924812 -103.5848465 -115.3929291
41.6748161 -103.6466141 -115.4772491
38.8510284 -103.7275848 -115.7258606
36.0364990 -103.8302460 -116.1484146
10.6593704 -105.7798996 -128.6176147
7.8156176 -106.1671143 -131.4351654
4.9453068 -106.6204224 -134.8090210
85.6696625 -102.5580750 -137.3178101
82.4938812 -102.1453552 -133.2592773
61.6368637 -100.8810806 -119.0574570
58.7497520 -100.8242188 -118.1196518
53.0162277 -100.7808990 -116.8165970
50.1734467 -100.7846222 -116.4372253
47.3342094 -100.8122253 -116.1998978
44.5077972 -100.8548660 -116.1637878
41.6763954 -100.9171219 -116.2409821
38.8629684 -100.9964447 -116.4612427
36.0404854 -101.0946655 -116.8843384
10.6532001 -103.0144348 -129.4782104
7.7987213 -103.3995132 -132.3555756
4.9342303 -103.8481445 -135.7760925
82.5703964 -99.4448700 -134.6224060
79.4719162 -99.1223450 -131.2703400
76.4230194 -98.8637238 -128.4991455
61.6627274 -98.1712418 -120.0289307
58.7851410 -98.1152344 -119.0859528
55.9045410 -98.0809021 -118.3199463
53.0441475 -98.0662231 -117.7360458
50.2006912 -98.0714340 -117.3489914
47.3569260 -98.0960999 -117.1075974
10.6421642 -100.2702942 -130.5722504
7.7942424 -100.6539612 -133.5108795
82.6798782 -96.7754364 -136.3348694
79.5634918 -96.4412766 -132.8141479
76.4973450 -96.1775970 -129.9200745
61.7119904 -95.4757156 -121.1877899
58.8160019 -95.4195633 -120.1968079
55.9442749 -95.3813934 -119.4188461
53.0784073 -95.3696136 -118.8330994
50.2275124 -95.3721924 -118.4165573
47.3845139 -95.3987350 -118.1835098
10.6454439 -97.5468597 -131.9077148
7.7901869 -97.9325333 -134.9536743
79.6703186 -93.7880249 -134.6731873
76.5914917 -93.5138626 -131.6217651
73.5622025 -93.2973022 -129.1132202
70.5744629 -93.1233444 -127.0188293
67.6117172 -92.9850922 -125.2448120
64.6841125 -92.8761597 -123.7525635
16.3295574 -94.2227249 -128.6032104
13.4876089 -94.5135651 -130.8674316
10.6402950 -94.8473663 -133.5414581
79.8119812 -91.1624908 -136.9290924
76.7070236 -90.8712387 -133.6513519
73.6724167 -90.6474609 -130.9943848
70.6708984 -90.4665070 -128.7772827
67.6974411 -90.3239136 -126.9357910
64.7517929 -90.2123260 -125.3800507
16.3335705 -91.5384293 -130.3202209
13.4894819 -91.8305359 -132.6898193
10.6420212 -92.1707993 -135.4675293
76.8485031 -88.2590027 -136.0674438
73.7946014 -88.0201340 -133.2059326
70.7736053 -87.8310623 -130.8433838
67.8002625 -87.6813583 -128.9108124
64.8428345 -87.5644379 -127.2556076
61.9148712 -87.4751740 -125.8993378
59.0086441 -87.4119492 -124.8118744
56.1106148 -87.3734894 -123.9266205
53.2336769 -87.3524628 -123.2612228
33.3385773 -87.7370453 -123.8319855
30.5091496 -87.8659058 -124.6402435
22.0155983 -88.3854904 -128.4422607
19.1898060 -88.6131134 -130.1968079
16.3409786 -88.8727493 -132.3248901
13.5017080 -89.1740952 -134.8164063
10.6453953 -89.5214310 -137.7894440
77.0140381 -85.6840057 -138.9612122
73.9463425 -85.4217834 -135.8398438
70.9066467 -85.2156677 -133.2529602
67.9104004 -85.0592194 -131.1394196
64.9468536 -84.9347076 -129.4204407
62.0072823 -84.8423462 -127.9745178
59.0917778 -84.7741394 -126.8106232
56.1964073 -84.7277527 -125.9081268
53.3082924 -84.7055054 -125.2017975
33.3626862 -85.0773468 -125.7584610
30.5398598 -85.2094498 -126.6090546
22.0427856 -85.7340698 -130.5430603
19.2023869 -85.9636993 -132.4211578
16.3644238 -86.2327652 -134.6727600
13.5162306 -86.5389557 -137.3222656
74.1304016 -82.8534927 -138.9833527
71.0559692 -82.6281128 -136.0818481
68.0578766 -82.4546204 -133.8200073
65.0704041 -82.3267517 -131.9452362
62.1203842 -82.2247772 -130.3895721
59.1862068 -82.1521378 -129.1358032
27.7494278 -82.7255249 -129.9469604
24.9075356 -82.8971252 -131.3384094
22.0699062 -83.1033707 -133.0151978
19.2360859 -83.3420029 -135.0135956
16.3829994 -83.6140060 -137.4242554
71.2459030 -80.0771866 -139.4940796
68.2119446 -79.8867798 -136.9255829
65.2152481 -79.7375488 -134.8538513
62.2494545 -79.6279907 -133.1827087
59.3077850 -79.5481339 -131.8063049
27.7915516 -80.1033096 -132.5952911
24.9515686 -80.2864532 -134.0689087
22.1060371 -80.4977112 -135.8818207
19.2598190 -80.7416534 -138.0767822
68.4202423 -77.3550262 -140.7234650
65.3812866 -77.1855774 -138.3122253
62.4108162 -77.0607910 -136.4488220
59.4530525 -76.9712372 -134.9361115
56.5185699 -76.9109344 -133.7673340
53.6057434 -76.8762894 -132.8707886
33.5283241 -77.2168427 -133.3470154
30.6913223 -77.3484039 -134.3697968
27.8466911 -77.5137405 -135.6638641
25.0006313 -77.6986847 -137.2860107
22.1570930 -77.9222946 -139.2688599
65.6091461 -74.6888504 -142.6003723
62.5993118 -74.5321960 -140.3935852
59.6242485 -74.4261627 -138.6510315
56.6703262 -74.3553619 -137.3253632
53.7461052 -74.3117752 -136.3009949
33.6089745 -74.6402512 -136.7427216
30.7628098 -74.7858505 -137.8704834
27.9164162 -74.9489212 -139.3321533
25.0628014 -75.1512299 -141.1488495
59.8379822 -71.9340591 -143.2099304
56.8617401 -71.8344650 -141.6242218
53.9225845 -71.7799683 -140.4102020
50.9984283 -71.7506409 -139.6012573
48.0938110 -71.7522278 -139.0549316
45.1950951 -71.7703705 -138.8678741
42.3204613 -71.8234634 -138.8899841
39.4412231 -71.8867188 -139.2517242
36.5755768 -71.9830551 -139.8814697
33.7156792 -72.1041718 -140.8231812
30.8530769 -72.2515564 -142.1380920
28.0017433 -72.4328690 -143.8113098
54.1506577 -69.3228149 -145.6455994
51.1888962 -69.2728653 -144.5911865
48.2812271 -69.2588196 -143.9195251
45.3614883 -69.2765045 -143.6524200
42.4744797 -69.3199768 -143.6864777
39.5853577 -69.3924255 -144.1039276
36.7141113 -69.4942322 -144.8193817
33.8392220 -69.6239166 -145.9807587
-95.5177307 -220.7942963 50.2265015
-96.6851120 -220.5565643 51.0645218
-97.8931274 -220.3940582 51.7872772
-99.0583801 -220.3175201 52.2621841
-100.1319351 -220.2608948 52.6021194
-101.2779388 -220.2316437 52.8725891
-102.5467987 -220.1944275 53.1566086
-103.7987366 -220.2138214 53.3277016
-106.0759735 -220.2837067 53.2566376
-107.3384018 -220.4093781 53.1126938
-108.6823120 -220.5722504 52.8157921
-91.8656311 -219.1996002 51.0357666
-93.0310669 -218.9300232 52.1097412
-94.0965729 -218.7707825 52.8531837
-95.1453857 -218.6380310 53.4836273
-96.3271027 -218.4963379 54.1601028
-97.5680008 -218.3486481 54.8119583
-98.7322693 -218.2889252 55.2189827
-99.7950897 -218.2539063 55.4981575
-100.9383469 -218.2222900 55.7644691
-102.2108154 -218.1875763 56.0424957
-103.4485321 -218.2038879 56.1869774
-104.5838470 -218.2313538 56.2182770
-105.7129593 -218.2826538 56.1736526
-106.9877167 -218.3654785 56.0488281
-108.3107147 -218.4542084 55.8624725
-109.5545807 -218.5954132 55.5674438
-110.6990356 -218.7288208 55.2360458
-111.9199905 -218.9075775 54.7793350
-113.3029861 -219.1844330 54.1609192
-87.2078247 -218.3122253 49.3731537
-88.2895355 -217.9469299 50.7741241
-89.2945633 -217.6925354 51.8204765
-90.3838120 -217.4362183 52.8685379
-91.5481415 -217.1881104 53.9172592
-111.5780182 -216.9636841 57.4235420
-112.9334030 -217.1563416 56.9141235
-114.2779999 -217.3679047 56.3280792
-115.5038071 -217.6145325 55.7101212
-84.6600571 -217.0684814 49.2580795
-85.7638245 -216.6407623 50.8361969
-86.9083862 -216.2536621 52.3393021
-87.9998169 -215.9796906 53.5033722
-89.0140991 -215.7966309 54.3610458
-90.1084518 -215.5844879 55.2608032
-91.2964478 -215.3660583 56.2069740
-111.2995605 -215.1738281 59.5928154
-112.6629562 -215.3492126 59.1471405
-113.9886246 -215.5419312 58.6369362
-115.1758423 -215.7044830 58.1619720
-116.3475494 -215.8995514 57.6005554
-117.7064743 -216.1917419 56.7628212
-83.3751678 -215.3977966 50.7041206
-84.3910751 -215.0910339 51.9729462
-116.0728683 -214.1448822 59.6814308
-117.3989868 -214.3725281 58.9962273
-118.8272095 -214.6618347 58.1522980
-120.1419296 -214.9683990 57.3105888
-81.0145264 -214.2827911 50.0787773
-82.1361237 -213.8440704 51.8097038
-83.1405487 -213.5411377 53.0812340
-84.1693115 -213.2738190 54.2164001
-115.8401031 -212.4642334 61.4685440
-117.1521149 -212.6714783 60.8720322
-118.5728302 -212.9301147 60.1188202
-119.8661880 -213.1840210 59.3672752
-121.0759430 -213.4485779 58.6183853
-122.3663025 -213.7767029 57.7092590
-79.7048264 -212.8726654 50.6800003
-80.8090591 -212.4556427 52.4044228
-81.9345169 -212.0462341 53.9938965
-120.7983093 -211.7238007 60.4896736
-122.0667267 -211.9946136 59.6710968
-123.5077744 -212.3629761 58.5692444
-124.9719849 -212.7919006 57.3307838
-77.4695129 -211.8983154 49.6114693
-78.4622421 -211.4996796 51.2252808
-79.4994583 -211.1133423 52.7948837
-80.6255798 -210.7119598 54.3958893
-81.7492523 -210.3752594 55.7820549
-120.5698929 -210.0976868 62.1162300
-121.8099442 -210.3214874 61.4166412
-123.2535706 -210.6582947 60.3907547
-124.6782837 -211.0211029 59.3043327
-76.2400131 -210.5596924 49.9795494
-77.2770462 -210.1018829 51.7748184
-89.2672043 -207.5727692 62.8645821
-90.4943314 -207.3854980 63.6468544
-91.7036057 -207.2352142 64.3366776
-92.7656097 -207.2089233 64.6488342
-123.0320129 -209.0382385 61.9808807
-124.4362030 -209.3605042 60.9902611
-125.6966705 -209.6590881 60.0750389
-126.9664459 -210.0057068 59.0729980
-74.9469299 -209.3484650 49.9028053
-76.0674133 -208.8148804 51.9818077
-77.1091614 -208.4319763 53.5689163
-89.1769485 -206.0799866 63.9568062
-90.3785782 -205.9241791 64.6900787
-91.5865555 -205.7683411 65.3853073
-92.6506805 -205.7543030 65.6715851
-122.8430176 -207.4885254 63.3497620
-124.2259598 -207.7771454 62.4601173
-125.4747925 -208.0406189 61.6217804
-126.6980743 -208.3200378 60.7298546
-128.1047821 -208.7252197 59.5677490
-73.7322617 -208.1416321 49.8017960
-74.7994537 -207.6364594 51.8007736
-89.0517578 -204.6638947 64.9023361
-90.2705994 -204.4992676 65.6408844
-94.7961044 -204.2328491 67.2990875
-127.8632813 -207.0828857 61.0892487
-71.5997238 -207.4129028 47.7136650
-72.5830841 -206.9045410 49.7875023
-73.5855713 -206.4624939 51.6058807
-74.6550751 -206.0218201 53.4077339
-88.9736862 -203.2449493 65.8158875
-90.1956100 -203.0645752 66.5538025
-94.7025604 -202.8287048 68.1364441
-127.6758728 -205.5394440 62.4175339
-129.1478577 -205.9262390 61.1700516
-71.4356384 -205.7048950 49.6432686
-72.4469910 -205.2419281 51.5263786
-88.9011383 -201.8517761 66.6520462
-90.1120529 -201.6868134 67.3465881
-94.6214828 -201.4705200 68.8857803
-127.5028610 -204.0360413 63.6166763
-128.9779053 -204.4098816 62.4462318
-130.3355408 -204.7517395 61.3278351
-131.6169739 -205.1040955 60.2023773
-70.2153015 -204.6372681 49.0897980
-71.3092270 -204.0870361 51.2589493
-72.3203278 -203.6820526 52.9448929
-88.8391571 -200.4749756 67.4234543
-90.0352325 -200.3377533 68.0644760
-91.2343979 -200.2100067 68.6572800
-92.3051682 -200.1855774 68.9357452
-93.3815384 -200.1779785 69.1806183
-94.5543060 -200.0895844 69.6113129
-127.3466797 -202.5730743 64.6791458
-128.8099976 -202.9209595 63.5848160
-130.1553650 -203.2406616 62.5347481
-131.4115143 -203.5523529 61.4903030
-132.7806091 -203.9551697 60.2490921
-69.0175781 -203.6128693 48.2920418
-70.1203918 -203.0075378 50.6636276
-109.6632843 -198.8720856 71.8155365
-111.0204163 -199.0247498 71.5143814
-132.5746155 -202.4189148 61.4761581
-68.9170303 -202.0100098 49.7920036
-69.9982147 -201.4869690 51.9380798
-109.6083298 -197.5631104 72.3783875
-110.9347458 -197.6951599 72.1123581
-132.4327087 -200.9513245 62.5464172
-133.8948059 -201.3651428 61.2222443
-66.7909546 -201.5442505 46.7588730
-67.7952881 -200.9618225 49.0480423
-68.8114471 -200.4714355 51.1112518
-69.9216461 -199.9732666 53.1395798
-132.2788849 -199.5060883 63.5301743
-133.7237549 -199.8901215 62.2543297
-66.6880264 -199.9492950 48.2195129
-67.6918411 -199.4390106 50.3383408
-68.7273560 -198.9850464 52.2633858
-69.8206482 -198.5490875 54.1081467
-132.1364594 -198.0945435 64.4146194
-133.5708313 -198.4546204 63.2010040
-66.5960083 -198.4225006 49.4892197
-67.5980835 -197.9693451 51.4386520
-102.4149780 -193.4672546 73.7893753
-103.5422440 -193.4868469 73.8706665
-104.7404938 -193.5216522 73.9048538
-105.9816513 -193.5649719 73.8945770
-132.0186157 -196.7113495 65.1947250
-133.4409027 -197.0599823 64.0321732
-134.8709717 -197.4326935 62.7762794
-136.2314148 -197.8157654 61.5344238
-65.4602356 -197.4946136 48.3620682
-66.5021744 -196.9581146 50.5558167
-67.5263519 -196.5300293 52.4095993
-102.3676987 -192.2080078 74.1775131
-103.5057907 -192.2235260 74.2678833
-105.9231873 -192.3032227 74.3102493
-131.9173279 -195.3556061 65.8848114
-133.3221283 -195.6838989 64.7829590
-134.7396851 -196.0399780 63.5777321
-136.0923767 -196.3986511 62.3642578
-65.3610153 -196.0364990 49.4276237
-102.3180237 -190.9493103 74.5409317
-103.4607697 -190.9676208 74.6344986
-134.6262512 -194.6740723 64.3020859
-135.9684143 -195.0122681 63.1283112
-137.3198853 -195.3837280 61.8660812
-64.2131958 -195.1654053 48.0018158
-65.3027649 -194.6114960 50.3167267
-102.2806244 -189.7028809 74.8636475
-103.4261551 -189.7278595 74.9450912
-104.6041336 -189.7585144 74.9925232
-105.8205109 -189.7951355 74.9980698
-134.5211945 -193.3262177 64.9509125
-135.8621216 -193.6565399 63.8145485
-137.1980591 -194.0079651 62.5926285
-63.1324692 -194.3242188 46.4040604
-64.1743164 -193.7272797 48.9072151
-65.2530899 -193.2043152 51.1352882
-137.0859680 -192.6513824 63.2542267
-138.5191193 -193.0526886 61.8866348
-63.0657692 -192.8916168 47.3260536
-64.1057892 -192.3452301 49.6829071
-65.1986389 -191.8471222 51.8251724
-137.0269470 -191.3360748 63.8006935
-138.4206543 -191.7086792 62.5013466
-61.9798431 -192.0780640 45.6801605
-63.0055771 -191.4994202 48.1299286
-136.9202881 -190.0175476 64.3334198
-138.3172302 -190.3792725 63.0594063
-139.7998505 -190.8015289 61.6123734
-61.9198418 -190.6848602 46.4739304
-62.9607391 -190.1263733 48.8497658
-136.8658447 -188.7313385 64.7685699
-138.2265167 -189.0681152 63.5596466
-139.7006531 -189.4745789 62.1486053
-62.9127808 -188.7913971 49.4469604
-139.6160889 -188.1724701 62.6041336
-61.8420868 -187.9665070 47.7907982
-62.8737106 -187.4762726 49.9650421
-139.5519714 -186.8901062 63.0012817
-60.7908249 -187.1936188 45.9149132
-61.8024521 -186.6597900 48.2727928
-62.8511086 -186.1745758 50.4156609
-102.1088867 -181.2721100 76.1616516
-103.2736359 -181.2875061 76.2637177
-104.4436646 -181.3179321 76.3219833
-105.6259155 -181.3425598 76.3394012
-106.8012772 -181.3829498 76.3347321
-107.9768829 -181.4337921 76.3028488
-109.1550751 -181.4887390 76.2470703
-110.3494186 -181.5444946 76.1667175
-139.4881439 -185.6192474 63.3561325
-140.9026947 -186.0039368 61.9650192
-142.3242950 -186.4159546 60.4573517
-60.7550087 -185.8872681 46.3834953
-61.7714996 -185.3726349 48.6826172
-62.8221359 -184.9057770 50.7617950
-102.0982742 -180.0913391 76.2648621
-105.6268158 -180.1770325 76.4065857
-109.1481857 -180.3099365 76.3256226
-110.3399811 -180.3684692 76.2353058
-139.4525299 -184.3712616 63.6303558
-140.8353424 -184.7318573 62.3025818
-142.2545624 -185.1345825 60.8253860
-60.7335434 -184.5844116 46.8142242
-90.5943146 -179.1092834 73.9241028
-91.7315216 -179.0544586 74.2795410
-92.8681183 -179.0333099 74.5820770
-94.0204926 -178.9917908 74.8867569
-95.1688995 -178.9564819 75.1884155
-96.3185806 -178.9333649 75.4511414
-99.7684784 -178.9137573 76.0063477
-100.9403687 -178.9134827 76.1631088
-102.0423203 -178.9234467 76.3533173
-109.1464996 -179.1425171 76.3687592
-110.3393860 -179.2045135 76.2741089
-111.5392227 -179.2664490 76.1637497
-112.7214661 -179.3363495 76.0422287
-113.9273529 -179.4233246 75.9066315
-115.1185684 -179.4997101 75.6906738
-142.2124023 -183.8811340 61.0954132
-143.6709137 -184.3171692 59.4957123
-60.6963158 -183.3280945 47.1042938
-90.5876160 -177.9477997 73.9399643
-95.1699524 -177.7920990 75.2155533
-96.3169098 -177.7730408 75.4642792
-99.7668839 -177.7548676 76.0215912
-100.9283981 -177.7565308 76.1788101
-110.3211823 -178.0360870 76.3007813
-111.5351105 -178.1044006 76.1873627
-112.7177505 -178.1779480 76.0896912
-115.1240540 -178.3390350 75.7072830
-142.1718140 -182.6345062 61.3411522
-143.6187744 -183.0557251 59.7804146
-58.5760078 -183.3119812 41.8441925
-59.6332283 -182.6368408 44.8175583
-60.6789513 -182.0711517 47.3631401
-83.7814178 -177.2165375 71.1683350
-84.9165039 -177.1276550 71.7056732
-86.0466309 -177.0439148 72.2171173
-87.1624908 -176.9727173 72.6951447
-88.3094482 -176.8948975 73.1537781
-89.4395828 -176.8363800 73.5662689
-90.5879745 -176.7813110 73.9523010
-96.3120346 -176.6227264 75.4369736
-99.7621689 -176.5941467 76.0293045
-100.9387054 -176.5977478 76.1707306
-102.0988617 -176.6126709 76.2835236
-103.2566910 -176.6304321 76.3600922
-104.4306107 -176.6592102 76.4087830
-105.6046906 -176.6884613 76.4473114
-112.7212524 -177.0120697 76.0787048
-115.1139297 -177.1763306 75.7007599
-142.1213379 -181.3965149 61.5521545
-143.5588074 -181.8096466 60.0029335
-145.0961609 -182.2873993 58.2339897
-58.5657654 -182.0279694 42.1874771
-59.6226501 -181.3774261 45.0853500
-60.6616364 -180.8345642 47.5558090
-83.7787552 -176.0626526 71.1354141
-84.9054489 -175.9768524 71.6720123
-115.1055679 -176.0202942 75.6823120
-142.1042938 -180.1826477 61.6728745
-143.5370178 -180.5879211 60.1399651
-145.0356750 -181.0424805 58.4317131
-58.5527840 -180.7794495 42.3943596
-81.5399017 -175.1132355 69.9112473
-82.6594391 -175.0065918 70.5158539
-83.7839813 -174.9172058 71.0755234
-84.9261780 -174.8223572 71.6211929
-115.1119537 -174.8713684 75.6273880
-142.0937805 -178.9802856 61.7471085
-143.5098572 -179.3722382 60.2549286
-58.5755692 -179.5328674 42.5805435
-81.5351563 -173.9728088 69.8248444
-82.6657410 -173.8662872 70.4338684
-83.7906723 -173.7739258 70.9922638
-84.9204178 -173.6862030 71.5243835
-113.9161835 -173.6454010 75.7493744
-115.1272659 -173.7322083 75.5469284
-142.0830994 -177.7860260 61.7855644
-143.5008240 -178.1723938 60.3103065
-58.5697708 -178.3130188 42.6728477
-81.5399399 -172.8328247 69.7183228
-84.9314728 -172.5520782 71.4083099
-115.1328735 -172.5932617 75.4489594
-142.0692596 -176.5995178 61.7841759
-143.4991150 -176.9850159 60.3094788
-57.5373459 -177.8151855 39.4838295
-58.5592880 -177.1206360 42.6528435
-81.5638885 -171.6989746 69.5860825
-84.9402618 -171.4204407 71.2823181
-115.1466064 -171.4620056 75.3235474
-142.0631714 -175.4252472 61.7351532
-143.4956665 -175.8056946 60.2702675
-81.5675049 -170.5753174 69.4218903
-82.6986923 -170.4720154 70.0300293
-116.3719101 -170.4260254 74.9452591
-117.5840302 -170.5205841 74.6952133
-142.0801392 -174.2656555 61.6261101
-143.5039520 -174.6399384 60.1747627
-145.0005798 -175.0550232 58.5652428
-81.5907135 -169.4512329 69.2446823
-82.7068176 -169.3522797 69.8438339
-116.3957825 -169.3071594 74.7555618
-117.6149292 -169.4015808 74.5070114
-142.1011505 -173.1148987 61.4743576
-143.5400848 -173.4907074 60.0097313
-144.9963684 -173.8925171 58.4361000
-68.2461777 -170.2987366 58.4077950
-69.3548126 -170.0663757 59.5985107
-70.4541321 -169.8510895 60.7149048
-71.5679703 -169.6477051 61.7767105
-72.6691513 -169.4600220 62.7690163
-73.7831268 -169.2808380 63.7230835
-81.6084366 -168.3375092 69.0265732
-115.2066269 -168.1043243 74.7716522
-116.4177170 -168.1943970 74.5400467
-117.6295242 -168.2867126 74.2979050
-118.8401871 -168.3856506 74.0249863
-120.0692139 -168.4950256 73.7103424
-142.1375732 -171.9756470 61.2728424
-143.5625000 -172.3442078 59.8275642
-145.0301514 -172.7455139 58.2463684
-68.2654800 -169.1787415 58.1540451
-69.3664551 -168.9485931 59.3411865
-72.6900940 -168.3429260 62.5272484
-73.7953568 -168.1686707 63.4639969
-81.6341553 -167.2288666 68.7829285
-116.4395142 -167.0843811 74.3081360
-117.6529846 -167.1763763 74.0651703
-118.8664246 -167.2751617 73.7930679
-120.0937805 -167.3832703 73.4784164
-142.1623535 -170.8402710 61.0492096
-143.5797577 -171.2012939 59.6250916
-58.6095200 -171.3412018 41.7043762
-68.3037796 -168.0617676 57.8864975
-69.3927231 -167.8363800 59.0571899
-72.7063980 -167.2346191 62.2406769
-73.8165283 -167.0612793 63.1812363
-81.6523972 -166.1265411 68.5044861
-114.0635834 -165.8154755 74.4560394
-118.9050293 -166.1692657 73.5353012
-120.1265106 -166.2782745 73.2147217
-142.1936493 -169.7148132 60.7800980
-143.6515503 -170.0832367 59.3164291
-58.6239853 -170.2389984 41.2610931
-68.3219299 -166.9568481 57.5584641
-69.4268188 -166.7287292 58.7517319
-70.5251999 -166.5163574 59.8687286
-71.6371078 -166.3157043 60.9411507
-72.7406845 -166.1292877 61.9424324
-73.8475113 -165.9566345 62.8838959
-81.6796722 -165.0284882 68.2060928
-118.9341660 -165.0700836 73.2478638
-120.1646194 -165.1774750 72.9275589
-142.2540131 -168.6035309 60.4443054
-143.6715698 -168.9617615 59.0138206
-58.6890030 -169.1373901 40.8247375
-59.7197762 -168.5889893 43.4806862
-60.7703896 -168.1071320 45.8322258
-79.4536972 -164.1530304 66.5627899
-80.5934296 -164.0402069 67.2438660
-81.7100906 -163.9335327 67.8876419
-115.3411255 -163.7033997 73.6662445
-116.5542603 -163.7872314 73.4519348
-117.7583466 -163.8784485 73.2077026
-118.9733963 -163.9770203 72.9287491
-120.1999817 -164.0827332 72.6138153
-142.2953491 -167.4946136 60.0932159
-58.7169418 -168.0557098 40.2743187
-59.7577972 -167.5002136 42.9902534
-60.8122864 -167.0141449 45.3769684
-79.4945068 -163.0654907 66.2112961
-80.6101532 -162.9516907 66.8838120
-114.1744385 -162.5355835 73.5249100
-115.3720703 -162.6131744 73.3391113
-116.5875702 -162.6972198 73.1177673
-117.8079834 -162.7890320 72.8648911
-119.0236511 -162.8888550 72.5802994
-120.2526703 -162.9930573 72.2678452
-142.3552246 -166.3973236 59.6856461
-143.8111572 -166.7553864 58.2284660
-59.7893906 -166.4275360 42.4088211
-60.8547440 -165.9319458 44.8634224
-79.5281525 -161.9802551 65.8312225
-80.6505051 -161.8670959 66.5080414
-81.7877960 -161.7726746 67.1258316
-114.2126694 -161.4514618 73.1683044
-119.0771332 -161.8031921 72.2102661
-120.2922897 -161.9079285 71.9028625
-142.4235229 -165.3091431 59.2323685
-143.8657837 -165.6640930 57.7756920
-58.7707100 -165.9294128 38.9603882
-59.8372192 -165.3627930 41.7916641
-60.8933640 -164.8686523 44.2554550
-79.5699005 -160.9010162 65.4256668
-82.9539719 -160.5869446 67.3711700
-84.0714188 -160.4930267 67.9555893
-85.2008667 -160.4090424 68.4977570
-86.3387527 -160.3388672 69.0046082
-87.4782104 -160.2710571 69.4781265
-88.6098404 -160.2080078 69.9232330
-89.7345047 -160.1471405 70.3596344
-101.2642670 -159.9379425 72.9754715
-114.2824173 -160.3739014 72.7618256
-117.9001465 -160.6241760 72.1143570
-119.1188354 -160.7225647 71.8262100
-120.3545837 -160.8262787 71.5064163
-142.5047455 -164.2308655 58.7260628
-60.9338531 -163.8114929 43.5942612
-79.5948181 -159.8271027 64.9712067
-82.9877701 -159.5098572 66.9411621
-88.6652451 -159.1375580 69.5115585
-93.2276077 -158.9537354 71.0117264
-100.1294708 -158.8561859 72.4417114
-104.8108215 -158.9075775 72.8579025
-105.9819489 -158.9406281 72.8730240
-109.5233459 -159.0535583 72.8381653
-115.5240326 -159.3768921 72.1593170
-142.5903015 -163.1618347 58.1727982
-144.0553589 -163.5198364 56.6708527
-60.9732933 -162.7703857 42.8607597
-79.6413116 -158.7614746 64.4930191
-80.7723694 -158.6457825 65.1958237
-81.8977585 -158.5439606 65.8492203
-83.0357895 -158.4472961 66.4673462
-88.6895447 -158.0656433 69.0596695
-93.2688446 -157.8834686 70.5594788
-94.4148560 -157.8570099 70.8724289
-100.1925201 -157.7886658 71.9982300
-106.0418243 -157.8712463 72.4295959
-110.7635498 -158.0378113 72.3251953
-111.9650421 -158.0937042 72.2188797
-113.1774368 -158.1587677 72.0671387
-114.3818283 -158.2326355 71.8970795
-115.5700302 -158.3092346 71.7152405
-142.6733704 -162.0974274 57.5849113
-61.0472488 -161.7440491 42.0796509
-88.7446747 -157.0039063 68.5836563
-89.8731461 -156.9497986 69.0023956
-91.0185776 -156.9008636 69.3979950
-92.1669617 -156.8595123 69.7652664
-93.3205185 -156.8231506 70.1017075
-94.4590759 -156.7891235 70.4002380
-95.6071396 -156.7673340 70.6746826
-96.7657242 -156.7504272 70.9244232
-97.9269409 -156.7335968 71.1527863
-99.0893707 -156.7254639 71.3632584
-100.2281876 -156.7276306 71.5261383
-106.0809631 -156.8021545 71.9884186
-110.8294983 -156.9719696 71.8459625
-142.7791138 -161.0472870 56.9248505
-61.0946198 -160.7376404 41.1372414
-88.7911377 -155.9463654 68.0766373
-89.9272003 -155.8894043 68.4964294
-91.0780029 -155.8422241 68.8964767
-92.2176971 -155.7975769 69.2665710
-93.3655930 -155.7606812 69.6073303
-94.5140991 -155.7349701 69.9130325
-95.6638031 -155.7069092 70.1891022
-96.8167419 -155.6887817 70.4445648
-97.9757690 -155.6781006 70.6746597
-99.1382828 -155.6688538 70.8697739
-100.2861023 -155.6708679 71.0316544
-104.9419708 -155.7092590 71.5026855
-106.1463165 -155.7431030 71.4954071
-107.3321152 -155.7767487 71.4896545
-108.5108337 -155.8168945 71.4703522
-109.7014465 -155.8637848 71.4252777
-110.8826675 -155.9172363 71.3406525
-142.8718872 -160.0005188 56.2431564
-61.1740761 -159.7383423 40.1944199
-62.2159042 -159.2654419 42.6265106
-63.2689285 -158.8475647 44.7828484
-93.4238281 -154.7072754 69.0838318
-94.5686340 -154.6718445 69.3897247
-98.0303497 -154.6182404 70.1537933
-99.1973724 -154.6128998 70.3406754
-100.3451614 -154.6110840 70.5080414
-101.5221710 -154.6175537 70.6640930
-102.6849289 -154.6186523 70.7917480
-103.8671570 -154.6374664 70.8906403
-105.0224915 -154.6583252 70.9394608
-106.2016602 -154.6919861 70.9729614
-140.1482239 -158.3066559 58.2827988
-141.5586395 -158.6248627 56.9432030
-142.9929810 -158.9682617 55.4779053
-61.2167053 -158.7493591 39.1111946
-62.2867050 -158.2699738 41.6486588
-63.3357925 -157.8390198 43.8764801
-93.4882965 -153.6598969 68.5300827
-94.6239395 -153.6235809 68.8277817
-98.0874481 -153.5714569 69.5947952
-99.2532196 -153.5668945 69.7966003
-100.4157486 -153.5610046 69.9684296
-101.5825806 -153.5690308 70.1171417
-102.7464447 -153.5741882 70.2338867
-103.9281082 -153.5902405 70.3194046
-105.0866470 -153.6125793 70.3817139
-106.2674408 -153.6385803 70.4203644
-140.2692871 -157.2754059 57.5123405
-141.6931305 -157.6015167 56.1374359
-62.3528671 -157.2857971 40.5824051
-63.4092255 -156.8445435 42.9081001
-84.4272614 -153.0908356 64.3151169
-85.5513306 -153.0032349 64.8819275
-86.6885910 -152.9246674 65.4213867
-87.8327866 -152.8604126 65.9079819
-88.9664154 -152.7957764 66.3621063
-90.0975647 -152.7436371 66.8044739
-93.5481644 -152.6149445 67.9413452
-94.6836243 -152.5852509 68.2485733
-95.8325577 -152.5565491 68.5398102
-96.9991684 -152.5361938 68.7978973
-98.1567383 -152.5158691 69.0183716
-99.3198242 -152.5193024 69.2293930
-140.3776398 -156.2544098 56.7158928
-141.8015594 -156.5818634 55.3109398
-62.4295502 -156.3132477 39.4581375
-63.4907837 -155.8647308 41.8564453
-84.4772339 -152.0480957 63.6586876
-89.0264664 -151.7603149 65.7457962
-90.1758652 -151.6983795 66.1911850
-93.6084137 -151.5689697 67.3219681
-94.7434082 -151.5362244 67.6404037
-95.9005432 -151.5199432 67.9391022
-97.0644989 -151.4955750 68.1892014
-98.2203369 -151.4816895 68.4189911
-99.3856583 -151.4757690 68.6228638
-140.5087738 -155.2427368 55.8397827
-141.9641418 -155.5798340 54.3672943
-62.5111122 -155.3753662 38.1457825
-63.5759583 -154.9013519 40.6895485
-84.5401306 -151.0152283 62.9734879
-85.6800842 -150.9341583 63.5688515
-87.9521561 -150.7797546 64.6170349
-89.0874252 -150.7206268 65.0973892
-90.2336426 -150.6663818 65.5479279
-137.8769989 -153.6483765 57.4408379
-139.2401581 -153.9320526 56.2474251
-140.6690216 -154.2467957 54.8772392
-142.1275787 -154.5854187 53.3685379
-63.6719666 -153.9470978 39.4715004
-84.6141739 -149.9859314 62.2616463
-85.7466660 -149.9011841 62.8526993
-86.8815842 -149.8250732 63.4138870
-88.0142059 -149.7543182 63.9280701
-89.1628647 -149.6922760 64.4189758
-90.2970352 -149.6315765 64.8545151
-137.9951324 -152.6463928 56.5313721
-139.3900909 -152.9390869 55.2702332
-63.7510834 -153.0077667 38.0964584
-64.8078003 -152.5769653 40.4641457
-65.8703690 -152.1834106 42.6113625
-138.1471863 -151.6574402 55.5312843
-139.5452881 -151.9558105 54.2296143
-64.9149551 -151.6496887 39.0871239
-65.9690094 -151.2431946 41.3072586
-138.3047638 -150.6785736 54.4660568
-139.7194519 -150.9808502 53.1147881
-66.0751572 -150.3213348 39.9048233
-67.1335144 -149.9389343 42.0095062
-68.1771774 -149.6013031 43.8339691
-135.7034302 -149.1562500 55.7466965
-137.0827332 -149.4223175 54.5910721
-138.4787140 -149.7120667 53.3211975
-66.1544647 -149.4011841 38.3690300
-67.2180252 -149.0211792 40.5427704
-68.2769852 -148.6636963 42.5154686
-135.8556519 -148.1902466 54.6348305
-137.2500610 -148.4610443 53.4259644
-138.6416779 -148.7558441 52.1249657
-67.3445892 -148.1220398 39.0211487
-68.3879013 -147.7422180 41.0827942
-133.3080444 -146.7357330 55.5986748
-134.6577454 -146.9704132 54.5652313
-136.0369415 -147.2295837 53.4285545
-137.4262085 -147.5112457 52.1855507
-67.4801102 -147.2514801 37.3147278
-68.5173721 -146.8504028 39.5244789
-133.4714203 -145.7755432 54.4213638
-134.8283691 -146.0201874 53.3502502
-136.2320251 -146.2832489 52.1431656
-67.5988846 -146.3952789 35.3783722
-68.6496735 -145.9829102 37.7673721
-133.6588745 -144.8293610 53.1465530
-135.0362091 -145.0784607 52.0083656
-68.7917175 -145.1449585 35.8254242
-133.8525543 -143.8933716 51.7778015
-135.2334900 -144.1565552 50.5870132
-68.9447556 -144.3269196 33.6570549
-70.0061035 -143.8978882 36.2333298
-71.0515213 -143.5175171 38.4007874
-134.0660095 -142.9801788 50.3153381
-135.4683075 -143.2513428 49.0504913
-71.1963348 -142.6717529 36.4550171
-134.2947998 -142.0838318 48.7169304
-71.3561096 -141.8783875 34.2009850
-72.4349289 -141.5176392 36.3990326
-73.4794159 -141.1794128 38.3557892
-129.0575104 -140.2463684 51.4092407
-130.4064636 -140.4525146 50.4647369
-131.7823639 -140.6793060 49.4056702
-133.1652679 -140.9337006 48.2395210
-134.5686493 -141.2018890 46.9438591
-72.5856934 -140.6949463 34.0777512
-73.6573944 -140.3642426 36.2384453
-129.2912598 -139.3413696 49.8084373
-130.6326294 -139.5614929 48.8266716
-73.8251801 -139.5645142 33.8252563
-74.9081192 -139.2387848 35.9863625
-75.9694977 -138.9237518 37.8944054
-77.0449066 -138.6433716 39.5593033
-78.1248932 -138.3961792 41.0261002
-129.5301971 -138.4582977 48.0931358
-130.9031372 -138.6888885 47.0023956
-77.2308426 -137.8197327 37.4312477
-78.2972031 -137.5635071 39.0125504
-129.7853699 -137.6038208 46.2237129
-77.4366913 -137.0545044 35.0112839
-78.4961090 -136.7678223 36.7511063
-79.5714111 -136.5010681 38.3913460
-80.6707840 -136.2631836 39.8623505
-124.6887360 -135.9423218 48.0211983
-126.0036392 -136.1164246 47.2164192
-127.3351974 -136.3143616 46.3269882
-128.7062378 -136.5355225 45.2888031
-130.0761871 -136.7805023 44.1302643
-77.6527710 -136.3032074 32.2125130
-78.7073898 -135.9972687 34.2433395
-79.7877045 -135.7218018 36.0337639
-80.8706512 -135.4673920 37.6276665
-124.9418335 -135.0875092 46.0989990
-126.2657700 -135.2786407 45.2326736
-127.6304703 -135.4918823 44.2201042
-129.0144958 -135.7247467 43.0708656
-80.0297165 -134.9925537 33.3240967
-81.1062775 -134.7253723 35.1032867
-82.1742554 -134.4696655 36.6810265
-83.2678528 -134.2297211 38.1031952
-119.9773026 -133.6219788 46.9174385
-121.2851868 -133.7541199 46.2979546
-122.5871429 -133.9071045 45.6204910
-123.9012527 -134.0722809 44.8447380
-125.2209244 -134.2602234 43.9933853
-126.5866013 -134.4717407 42.9909439
52.3366165 -161.1766357 -144.0594177
50.8565559 -161.1093750 -143.4459839
49.3779907 -161.0465546 -142.9051666
47.9247742 -161.0503998 -142.6875916
46.4738159 -161.0485535 -142.5894775
45.0289803 -161.0371704 -142.6125946
43.5771561 -161.1659851 -142.7938232
42.1335068 -161.2642059 -143.1246490
-83.4911423 -133.4737854 35.5770493
-120.2510071 -132.7717438 44.8570099
-121.5462112 -132.9281921 44.2326317
-122.8756104 -133.0891724 43.4677467
-124.1922913 -133.2669220 42.6150513
-125.5280609 -133.4738617 41.6391678
56.5935822 -159.2483368 -141.9338684
55.0925140 -159.1006012 -141.0118408
53.6086617 -158.9883728 -140.2409515
52.1527939 -158.9174652 -139.6405640
50.6863098 -158.8897552 -139.2108002
43.4479866 -159.0072327 -138.8366852
42.0023384 -159.0785675 -139.1085052
40.5604668 -159.1928406 -139.5003815
39.1432533 -159.2991791 -139.9617920
37.7138100 -159.4257965 -140.6108398
36.3012009 -159.6293640 -141.4545288
-83.7722855 -132.7842102 32.5995865
-84.8560638 -132.5489655 34.2470322
-85.9422913 -132.3136902 35.6355400
-87.0403290 -132.1175232 36.9094696
-88.1531525 -131.9454041 38.0623589
-120.5520630 -131.9659882 42.5857811
-121.8705215 -132.1249390 41.8403320
60.9064865 -157.6259003 -141.4759827
59.4007874 -157.4213715 -140.2062073
57.9025078 -157.2555542 -139.1337738
56.4194908 -157.1625366 -138.2780914
54.9286118 -157.0670471 -137.5076599
53.4667892 -157.0044861 -136.8976593
52.0150414 -156.9699554 -136.4425049
50.5468216 -156.9461975 -136.0854492
43.3329964 -157.0736237 -135.7853699
41.8966980 -157.1385345 -136.0016327
40.4591293 -157.2287903 -136.3268433
39.0349388 -157.3365021 -136.7497864
37.6092987 -157.4431000 -137.2644196
36.1773491 -157.6013641 -137.9460297
34.7595215 -157.7507324 -138.7251129
33.3384056 -157.9544067 -139.6851196
31.9162788 -158.1906586 -140.7628174
-85.1516724 -131.8941803 30.8766403
-86.2379684 -131.6446228 32.5946808
-87.3137512 -131.4010925 34.0376587
-88.4196014 -131.2099457 35.3543015
-120.8726959 -131.2080078 40.0245972
63.7455368 -155.9398193 -140.6711121
62.2187233 -155.7238312 -139.2032928
60.7152481 -155.5504913 -137.9651489
59.2412224 -155.4405060 -136.9840851
31.8497963 -156.1735840 -137.5362854
30.4117126 -156.4086609 -138.6343079
-88.7149658 -130.5277405 32.0991058
-89.8232727 -130.3713531 33.5128288
-90.9312668 -130.1846161 34.6688232
-92.0578308 -130.0280914 35.6517525
-93.1822433 -129.8989105 36.5513153
-113.4799576 -129.7019348 40.6723289
-114.7319260 -129.7979736 40.3021507
-116.0236511 -129.9059296 39.8326874
-117.3099518 -130.0343323 39.3155098
-118.6135635 -130.1786804 38.6825294
-119.9185257 -130.3367462 37.9300194
-121.2614899 -130.5000153 37.0245399
66.6626129 -154.4366302 -140.5704346
65.1182022 -154.1766663 -138.9130554
63.5919380 -153.9837341 -137.5071106
62.0795441 -153.8250732 -136.3014526
60.5818939 -153.6880493 -135.2688599
59.1075821 -153.5834045 -134.4018402
31.7731113 -154.3346710 -134.9591217
30.3462982 -154.5199585 -135.8962708
28.9271011 -154.7409973 -136.9452972
27.5070553 -154.9709625 -138.1612701
26.1044044 -155.2227631 -139.5231323
-90.1679230 -129.7451172 29.7663136
-91.2627411 -129.5592499 31.1776295
-92.3812790 -129.3914795 32.4438858
-93.5015106 -129.2396851 33.4565277
-113.8251038 -128.9807739 37.8512001
-115.0922012 -129.0907135 37.4067688
-116.3813629 -129.2136841 36.8808289
-117.6973724 -129.3439026 36.2228165
-119.0284882 -129.4804382 35.4373589
67.9991989 -152.7120667 -139.1753540
66.4665527 -152.4794312 -137.5523376
64.9480743 -152.2902985 -136.1532593
26.0426197 -153.3305511 -136.8371887
24.6302853 -153.5995331 -138.2409515
-93.8851624 -128.6359863 29.5703697
-95.0110931 -128.4933472 30.7599831
-96.1309509 -128.3783112 31.7523193
-97.2809982 -128.2579651 32.5929794
-98.4209213 -128.1692657 33.3084106
-99.5787735 -128.0851593 33.9237823
-100.7394867 -128.0222015 34.4722748
-101.9178772 -127.9761124 34.9124451
-103.1083374 -127.9435272 35.2389717
-104.3092041 -127.9288635 35.4664192
-105.5226288 -127.9297943 35.6536179
-106.7188950 -127.9400330 35.7546692
-107.9382324 -127.9647675 35.7707062
-109.1740189 -128.0144348 35.6898575
-110.4159241 -128.0773315 35.5376663
-111.6822662 -128.1492462 35.2824707
-112.9484253 -128.2356720 34.9515038
-114.2245483 -128.3214417 34.5018616
70.9594803 -151.3712006 -140.0450287
69.3800430 -151.0642242 -138.1303711
67.8546066 -150.8442841 -136.5167847
66.3338776 -150.6483917 -135.0994110
64.8304443 -150.4931183 -133.8948822
25.9824753 -151.5189667 -134.5417175
24.5719490 -151.7435303 -135.7722778
23.1512413 -152.0049744 -137.1790466
21.7210922 -152.3301392 -138.7533875
-98.8524857 -127.5932922 29.1530075
-100.0004807 -127.4954071 29.9412670
-101.1626205 -127.4433365 30.5567131
-102.3470535 -127.4222565 31.0776062
-103.5352631 -127.3767014 31.4547863
-104.7234955 -127.3576660 31.7541962
-105.9350662 -127.3561020 31.9424477
-109.6221466 -127.4763107 31.8534126
70.7760010 -149.4702454 -137.3639221
25.9355030 -149.7712097 -132.5814667
24.5260925 -149.9878998 -133.7066040
23.1069775 -150.2285919 -134.9844971
21.6746750 -150.4990234 -136.4246521
20.2667866 -150.7812500 -138.0041809
73.7544098 -148.2137299 -138.8411560
72.1870193 -147.9195862 -136.8516998
70.6517410 -147.6893463 -135.1445465
25.8996258 -148.0664368 -130.8900757
24.4780502 -148.2671661 -131.9282532
23.0554199 -148.4982605 -133.0537415
75.1753387 -146.6908417 -138.5556946
73.6042633 -146.4124146 -136.5511169
28.6911221 -146.0519104 -127.6917648
27.2615147 -146.2260742 -128.5101013
25.8569431 -146.3983459 -129.3889465
24.4587669 -146.5569763 -130.3123474
76.6069794 -145.2257080 -138.5299072
75.0218811 -144.9130096 -136.4126892
73.4745560 -144.6681061 -134.5919952
28.6632233 -144.4116364 -126.3953857
27.2512341 -144.5530853 -127.1422729
25.8336430 -144.7422333 -127.9928589
78.0734406 -143.7965698 -138.7599487
76.4508743 -143.4541168 -136.4859314
31.4534950 -142.5422668 -124.0190964
30.0418453 -142.6737823 -124.6064911
28.6284008 -142.8114471 -125.2554169
27.2005882 -142.9667969 -125.9727173
79.5398712 -142.3880005 -139.1975555
77.9256439 -142.0461121 -136.8146667
76.3571777 -141.7751465 -134.7998352
31.4219379 -140.9718323 -123.0388184
29.9933949 -141.1097565 -123.6190948
28.5898399 -141.2325134 -124.2079926
81.0139465 -141.0115051 -139.7967072
79.3920212 -140.6473083 -137.2861328
31.4018211 -139.4127960 -122.1400986
29.9855022 -139.5332336 -122.6688843
80.8652039 -139.2814636 -137.9369812
79.2940674 -138.9868622 -135.7088623
31.3714561 -137.8652954 -121.3066177
29.9536743 -137.9869995 -121.8315277
82.3555298 -137.9545898 -138.8462677
80.7593536 -137.6185455 -136.4171600
79.1811981 -137.3409424 -134.3228302
31.3398781 -136.3399658 -120.5596161
29.9269829 -136.4447327 -121.0814362
82.2520142 -136.2977295 -137.3774109
80.6777802 -136.0093842 -135.1276550
79.1048584 -135.7447205 -133.1495056
31.3170700 -134.8240356 -119.8766708
29.9062824 -134.9261932 -120.3870392
83.7891083 -135.0161896 -138.5917816
82.1446762 -134.6673279 -136.0425568
31.2994137 -133.2981873 -119.2429428
29.8897877 -133.4074249 -119.7423935
83.6738663 -133.3842773 -137.2707520
82.0687256 -133.0750427 -134.9246216
31.2735882 -131.8159637 -118.7017975
29.8722763 -131.9162140 -119.1767349
85.2246704 -132.1401978 -138.7848816
83.5934296 -131.8014221 -136.1894989
81.9951019 -131.5135651 -133.9702759
31.2632790 -130.3187103 -118.2040100
29.8516998 -130.4275970 -118.6550751
86.8142395 -130.9360657 -140.5574036
85.1357880 -130.5480652 -137.6835327
83.5197144 -130.2356873 -135.2387695
81.9289703 -129.9635773 -133.1285248
31.2431164 -128.8446503 -117.7623062
29.8373890 -128.9335480 -118.1892395
86.7005844 -129.3328552 -139.4496460
85.0634155 -128.9823456 -136.7366486
31.2250900 -127.3794403 -117.3766479
29.8211746 -127.4681473 -117.8127975
86.6101379 -127.7646790 -138.5090332
85.0025177 -127.4412689 -135.9448090
31.2046909 -125.9184647 -117.0353928
29.7998600 -126.0121918 -117.4881439
88.2242355 -126.6042404 -140.6747131
86.5664673 -126.2320404 -137.7677155
84.9449158 -125.9186707 -135.2693787
31.1999588 -124.4557877 -116.7329025
29.7877064 -124.5547791 -117.1930542
28.3873520 -124.6567535 -117.6736298
88.1487045 -125.0594864 -139.9032440
86.5202484 -124.7127762 -137.1224670
84.8841476 -124.4072876 -134.6909332
31.1743088 -123.0186310 -116.4849091
29.7637730 -123.1104431 -116.9355011
28.3759403 -123.2005997 -117.4135818
88.0887527 -123.5363693 -139.2540588
28.3652859 -121.7597122 -117.2100601
26.9480629 -121.8653259 -117.7347107
89.7562027 -122.4254150 -141.8191223
88.0353851 -122.0283737 -138.7184906
28.3577118 -120.3247833 -117.0420837
26.9444561 -120.4233704 -117.5601120
25.5496864 -120.5256119 -118.1159134
89.7179642 -120.9240189 -141.3621674
88.0040054 -120.5450516 -138.3313446
25.5219116 -119.1003647 -118.0130920
24.1192741 -119.2111359 -118.6172256
89.6353073 -119.4281921 -140.9536133
87.9778900 -119.0765305 -138.0504456
25.5240917 -117.6740417 -117.9268341
24.1199627 -117.7813568 -118.5273285
89.6053314 -117.9656525 -140.7565765
87.9569855 -117.6192856 -137.8639679
50.8862381 -115.2879486 -114.3753510
49.4345703 -115.2869797 -114.1921463
25.5120335 -116.2524414 -117.8803864
24.1115990 -116.3589096 -118.4802170
22.7122993 -116.4732971 -119.1322098
21.2873878 -116.5977554 -119.8468781
89.5758057 -116.5087357 -140.6002045
87.9318008 -116.1721802 -137.7402802
50.8746223 -113.8902817 -114.4086304
49.4322357 -113.8838348 -114.2044678
25.5174026 -114.8365631 -117.8683548
24.0984459 -114.9464798 -118.4873657
22.7024097 -115.0576706 -119.1436920
21.2948971 -115.1768494 -119.8521042
19.8670788 -115.3085861 -120.6286011
89.5597382 -115.0617752 -140.5158386
87.9235687 -114.7353821 -137.7113037
19.8823166 -113.8889465 -120.6467514
18.4657059 -114.0243835 -121.4777374
17.0553074 -114.1646881 -122.3608093
15.6492414 -114.3145752 -123.3195190
14.2322826 -114.4768066 -124.3581772
5.6942291 -115.6998138 -132.5901794
4.2627234 -115.9625778 -134.4259338
2.8364267 -116.2515564 -136.4654236
1.3888966 -116.5783539 -138.7936859
89.5475311 -113.6294098 -140.5367737
87.9133987 -113.3111649 -137.7680359
19.8766613 -112.4783859 -120.7154770
18.4521236 -112.6151733 -121.5682449
17.0446739 -112.7554779 -122.4605026
15.6432123 -112.9020691 -123.4052429
14.2150259 -113.0602951 -124.4340591
12.8208752 -113.2249908 -125.5223770
11.4057503 -113.4042664 -126.7195206
9.9840784 -113.5951462 -128.0078430
8.5515041 -113.8020477 -129.4176483
7.1246781 -114.0227127 -130.9398193
5.7023354 -114.2593613 -132.5913544
4.2532330 -114.5226593 -134.4429932
2.8448372 -114.8028564 -136.4447632
1.3870969 -115.1264191 -138.7730713
89.5463181 -112.2138977 -140.6945496
87.9192352 -111.8999557 -137.9371948
2.8221316 -113.3714447 -136.5476379
1.3739750 -113.6874390 -138.8500214
89.5715790 -110.8131332 -140.9821625
87.9364014 -110.4998703 -138.2005768
2.8060241 -111.9468002 -136.7133942
1.3678380 -112.2574234 -139.0013885
89.6103973 -109.4199905 -141.3465881
87.9435883 -109.1045074 -138.5057220
39.5630112 -107.1356201 -114.9085236
38.1675110 -107.1874313 -115.0882568
2.8077788 -110.5263824 -136.9227600
1.3604960 -110.8364487 -139.2304688
-0.1187713 -111.1758728 -141.7931519
89.6073608 -108.0231705 -141.6781464
87.9656982 -107.7186203 -138.9005432
39.5298691 -105.7618942 -115.2184677
38.1410980 -105.8102722 -115.3692703
2.8028669 -109.1151047 -137.2077332
1.3629242 -109.4209061 -139.5092621
-0.1205473 -109.7586594 -142.1037598
89.6814499 -106.6583862 -142.3161621
87.9762039 -106.3425903 -139.3705444
2.7977827 -107.7122650 -137.5693359
1.3436614 -108.0141602 -139.8850861
