-132.0447998 -146.2379150 76.1631012
-67.2244110 -142.1053619 64.1776581
-71.5927811 -141.3532104 68.7496948
-76.0014038 -140.7859802 72.3551941
-132.2741699 -141.9053802 74.5439301
-67.4112701 -137.8844910 61.7677917
-71.7767792 -137.1185303 66.5416489
-76.1805115 -136.5448914 70.2797241
-122.4408035 -136.4703522 77.3393860
-127.4428558 -136.9906006 75.2438049
-72.0115891 -132.9729614 63.7007179
-76.4129868 -132.3824921 67.6408844
-80.8515167 -131.9410095 70.7467041
-94.3808899 -131.2707825 76.4432373
-98.9656372 -131.2271118 77.3531570
-103.5986786 -131.2646332 77.8159485
-108.2862930 -131.3841248 77.8228760
-113.0381470 -131.5913391 77.3547668
-117.8628235 -131.8903656 76.3829041
-122.7824554 -132.2959290 74.8273315
-127.8144531 -132.8259583 72.5947495
-81.1419678 -127.8468094 67.6284409
-85.6192856 -127.5141296 70.2039032
-90.1304703 -127.2857361 72.1804962
-94.6876678 -127.1532745 73.6042404
-99.2830124 -127.1062622 74.5432434
-103.9316940 -127.1449738 74.9961700
-108.6320724 -127.2665405 74.9785919
-113.4039764 -127.4749298 74.4641266
-118.2556763 -127.7828674 73.3961182
-123.2044983 -128.2000885 71.7039032
-81.4995117 -123.8418121 63.7748718
-85.9777679 -123.4862366 66.5510025
-90.4962845 -123.2471161 68.6481781
-95.0574493 -123.1066818 70.1497040
-99.6689148 -123.0568848 71.1187897
-104.3328018 -123.0949249 71.5766983
-109.0541000 -123.2196198 71.5226669
-113.8562927 -123.4370880 70.9237671
-118.7393646 -123.7579956 69.7198792
-123.7377777 -124.1985779 67.8215942
-86.4217148 -119.5619659 62.0123444
-90.9403229 -119.2999725 64.3045502
-95.5148239 -119.1463394 65.9226608
-100.1394196 -119.0909882 66.9448624
-104.8233337 -119.1280975 67.4032669
-109.5745926 -119.2611389 67.2863235
-114.4114838 -119.4928589 66.5617981
-119.3470612 -119.8386688 65.1415710
-91.5060120 -115.4803314 58.8290329
-96.0839615 -115.3037567 60.6388893
-100.7249680 -115.2382050 61.7496529
-105.4388885 -115.2772141 62.1985588
-110.2275085 -115.4213257 61.9835396
-101.4912186 -111.5666275 54.9627762
48.9265747 -128.4604340 -117.7291412
43.2594795 -128.5955353 -117.7959366
54.3866882 -122.1678009 -113.8367767
48.7102585 -122.1783752 -113.0696335
43.0642052 -122.3069305 -113.1417542
37.4476318 -122.5429535 -114.0053406
59.9133072 -116.1981430 -112.0185242
54.2048645 -116.1154327 -110.5265656
48.5472832 -116.1363068 -109.8323212
42.9237061 -116.2585068 -109.8924255
37.3203049 -116.4763184 -110.6705475
65.5140762 -110.4643555 -111.8379974
59.7616196 -110.2986145 -109.6368561
54.0728760 -110.2349854 -108.2638168
48.4311523 -110.2634125 -107.6134186
42.8173637 -110.3804626 -107.6675262
37.2249680 -110.5811310 -108.3930511
71.2093048 -104.9331665 -113.2450027
65.3945618 -104.6775360 -110.2226105
59.6542969 -104.5325699 -108.1287537
42.7411346 -104.6243668 -106.2558441
37.1541061 -104.8115845 -106.9411316
71.1236877 -99.2307739 -112.3207932
65.3133392 -98.9991760 -109.4000626
59.5896492 -98.8706207 -107.3776245
76.9883728 -93.9540253 -116.1464996
71.0802917 -93.6219788 -112.1653671
65.2798157 -93.4083023 -109.2855072
59.5527878 -93.2895660 -107.2870255
76.9943695 -88.4072495 -116.7546997
71.0881348 -88.0908966 -112.7422638
65.2806168 -87.8891449 -109.8537903
59.5540543 -87.7766418 -107.8427429
37.0647278 -88.0238037 -106.6041641
31.4957924 -88.2485199 -107.8780670
25.9220753 -88.5442047 -109.8414154
77.0596466 -82.9328156 -118.1838531
71.1365814 -82.6249313 -114.0557098
65.3225098 -82.4294891 -111.1022720
59.5861282 -82.3203812 -109.0422668
42.6642227 -82.4013748 -107.1002197
37.0742798 -82.5521851 -107.7328873
31.4928932 -82.7658844 -109.0149231
25.9202919 -83.0483856 -110.9947662
20.3352261 -83.4101105 -113.7862167
14.7333221 -83.8695068 -117.5762787
71.2357178 -77.2167206 -116.1673431
59.6509514 -76.9109955 -110.9121780
53.9581451 -76.8739166 -109.5468903
48.3140297 -76.8988647 -108.8855515
31.5150757 -77.3317184 -110.8088913
25.9323425 -77.6046600 -112.8565140
20.3397083 -77.9534149 -115.7334518
14.7319422 -78.4005127 -119.6640472
65.5325928 -71.6595230 -115.8414001
59.7549858 -71.5474396 -113.5449524
54.0489197 -71.5043945 -112.0944290
48.3907166 -71.5257187 -111.3675461
31.5548782 -71.9416046 -113.3534470
25.9633179 -72.2065887 -115.4957504
20.3596573 -72.5496826 -118.5392990
54.1782265 -66.1743469 -115.4615860
48.4987640 -66.1882553 -114.6775055
42.8562012 -66.2632294 -114.6308746
37.2299995 -66.3960114 -115.3108673
31.6177235 -66.5907288 -116.7596436
26.0130882 -66.8508224 -119.0525131
54.3572006 -60.8820038 -119.9063110
48.6510620 -60.8918991 -119.0022202
42.9795151 -60.9590073 -118.9293976
37.3371239 -61.0899086 -119.6560593
31.7096748 -61.2790527 -121.2495041
48.8577194 -55.6399841 -124.7565002
43.1608315 -55.7020416 -124.6403809
37.4903336 -55.8266525 -125.4504929
-94.6716766 -198.1858978 63.4926910
-97.0522308 -197.9843445 64.5792465
-99.2620010 -197.9094238 65.1800232
-101.6988449 -197.8814087 65.6213074
-104.0017471 -197.9421387 65.7162628
-87.5366669 -195.5799561 63.4974632
-89.7266312 -195.2320862 65.1681519
-92.0194702 -194.9225464 66.6665649
-94.2011642 -194.7688293 67.6056519
-96.6019592 -194.6007233 68.5552063
-103.5148926 -194.5757599 69.6323090
-105.9552002 -194.6839600 69.5351563
-108.3685608 -194.8431091 69.2506027
-110.7681274 -195.0668945 68.7007751
-84.9580765 -192.6524811 65.4242935
-87.1550369 -192.3035736 67.1321106
-96.2560806 -191.4819641 71.5819626
-103.1445999 -191.4650726 72.6179581
-105.5915451 -191.5723572 72.5542908
-107.9908142 -191.7117615 72.3371658
-110.3525085 -191.8941040 71.9241104
-112.9065170 -192.1660461 71.2224350
-115.2449036 -192.4474182 70.4162292
-80.3192596 -190.3782043 64.5053558
-82.4325867 -189.9493408 66.5413437
-84.6587906 -189.5502777 68.4262695
-86.8669739 -189.2479858 69.9319458
-95.9801025 -188.5398560 73.9995193
-107.6757355 -188.7523193 74.8032227
-110.0173492 -188.9096832 74.4856720
-112.5650787 -189.1532593 73.8790283
-114.8696747 -189.3871460 73.2334137
-117.5181351 -189.7621002 72.1322021
-119.8902817 -190.1154327 71.0217056
-77.8320160 -187.8652649 64.8994446
-80.0615540 -187.3274078 67.3406525
-82.1861115 -186.9697113 69.1106262
-84.4249420 -186.6146698 70.8309479
-86.6361237 -186.3602600 72.1771927
-95.7401047 -185.7192688 75.9893723
-107.4098816 -185.9214935 76.8414688
-109.7538452 -186.0659180 76.5686646
-112.2851563 -186.2890930 76.0253754
-114.5561142 -186.4817505 75.5127716
-117.1971817 -186.8322906 74.5178146
-119.5368195 -187.1319427 73.5930023
-122.2044754 -187.5905151 72.1183090
-75.5224304 -185.3680115 65.1746521
-77.6065216 -184.9140930 67.3817215
-79.8606033 -184.4228973 69.6222534
-81.9951401 -184.1139679 71.2213593
-84.2386322 -183.8048096 72.8031158
-86.4548645 -183.5688171 74.0644302
-95.5446167 -182.9884186 77.6557693
-102.3752747 -182.9798737 78.6732483
-104.8069382 -183.0680237 78.6534348
-107.1783142 -183.1745453 78.5643387
-109.5016785 -183.2938538 78.3551712
-112.0309143 -183.5149536 77.8388824
-114.3002930 -183.6910248 77.3943710
-116.9108963 -184.0096893 76.4998016
-119.2454071 -184.2827301 75.6812363
-121.8847733 -184.6993408 74.3673096
-124.3668365 -185.1166992 72.9832153
-73.1171036 -183.0949860 64.6240082
-75.3286285 -182.4889221 67.3794708
-77.4354706 -182.0845947 69.4015350
-79.6885452 -181.6537781 71.4495392
-81.8315430 -181.3743286 72.9533081
-84.0791016 -181.0770874 74.4520416
-86.3006287 -180.8595581 75.6619873
-95.3818512 -180.3382111 79.0573349
-102.2134857 -180.3345490 80.0611420
-104.6166382 -180.4072266 80.0779266
-106.9721985 -180.5057526 80.0218430
-109.2975922 -180.6186523 79.8427124
-111.8171234 -180.8314972 79.3681717
-114.0859528 -180.9870300 78.9638214
-116.6843567 -181.2924805 78.1327972
-118.9987564 -181.5252686 77.4202423
-121.6153336 -181.9136505 76.2235794
-124.0755157 -182.2899933 74.9916763
-126.7079773 -182.7834930 73.3222885
-77.2925797 -179.3598480 71.0473022
-79.5456085 -178.9615021 72.9727783
-81.7045670 -178.6967163 74.4170761
-83.9490280 -178.4333801 75.8274994
-86.1800079 -178.2258911 76.9945831
-88.3897858 -178.0730896 77.9725189
-90.6956711 -177.9123993 78.9263000
-92.8851013 -177.8446045 79.5425415
-95.2407532 -177.7503662 80.2420731
-106.8052979 -177.9003906 81.2478943
-109.1338120 -178.0122681 81.0838165
-111.6146393 -178.1992493 80.6687927
-113.9160614 -178.3630981 80.2673874
-116.4672623 -178.6339417 79.5325012
-118.8113556 -178.8703766 78.8335419
-121.3912354 -179.2183533 77.7537231
-123.8423386 -179.5661469 76.6179504
-126.4393158 -180.0107574 75.1209641
-129.0617218 -180.5188141 73.3501663
-77.1722031 -176.7151184 72.3984222
-79.4200668 -176.3544617 74.2126770
-81.5917816 -176.1004333 75.6149139
-83.8422165 -175.8488007 76.9720764
-86.0673523 -175.6573639 78.0958405
-88.2840195 -175.5146179 79.0418930
-90.5744781 -175.3689575 79.9395294
-92.7829895 -175.2938843 80.5924988
-95.1209564 -175.2101746 81.2366409
-106.6753006 -175.3559265 82.2618637
-109.0056305 -175.4664917 82.0989075
-111.4567871 -175.6331482 81.7504883
-113.7614746 -175.7900085 81.3649750
-116.2772903 -176.0308685 80.7174530
-118.6413727 -176.2667084 80.0362091
-121.1859894 -176.5886230 79.0391388
-123.6441879 -176.9230042 77.9592972
-126.2156296 -177.3321838 76.5826340
-128.8227386 -177.8040771 74.9548569
-66.2947388 -176.6819611 61.0522385
-68.3978500 -175.9846497 64.3508301
-70.5800552 -175.3787537 67.2429504
-72.7001648 -174.9106293 69.5656281
-74.9302979 -174.4662781 71.7645340
-77.0726395 -174.1325836 73.5165100
-79.3153687 -173.7995911 75.2261429
-81.4995270 -173.5551453 76.6035690
-126.0294724 -174.7228088 77.7930908
-128.6106262 -175.1587219 76.2862854
-131.1931152 -175.6501465 74.5214539
-66.1629181 -173.9748535 62.6017380
-68.2870178 -173.3364563 65.6893616
-70.4674530 -172.7784119 68.4013824
-79.2341614 -171.2994385 76.0639038
-81.4171753 -171.0585938 77.4152832
-125.8761444 -172.1701965 78.7817535
-128.4384003 -172.5805054 77.3596039
-131.0214386 -173.0457153 75.6947327
-133.7274475 -173.6073761 73.6322250
-63.9516563 -172.0750732 60.3471031
-66.0662384 -171.3524017 63.8324966
-68.1992569 -170.7568359 66.7554169
-70.3859253 -170.2406311 69.3266907
-79.1594543 -168.8388214 76.7267990
-81.3578033 -168.6067200 78.0621033
-83.5912170 -168.4008789 79.2775345
-85.8311615 -168.2301636 80.3400574
-88.0598602 -168.0960236 81.2523041
-90.3360901 -167.9819946 82.0585938
-92.5732574 -167.9064941 82.7124176
-94.8685608 -167.8463745 83.2910538
-97.1235657 -167.8229370 83.7221603
-99.4390793 -167.8176727 84.0549240
-101.7259979 -167.8447571 84.2675323
-104.0514755 -167.8881836 84.3784790
-106.3877106 -167.9696960 84.3656464
-108.7254639 -168.0711365 84.2403107
-130.8707275 -170.5011597 76.6351318
-133.5556641 -171.0260620 74.7090530
-63.8632774 -169.4688110 61.4994888
-65.9913177 -168.7958984 64.7937851
-68.1343231 -168.2429504 67.5700302
-70.3221741 -167.7548828 70.0451355
-72.4821091 -167.3521118 72.1446152
-74.6985931 -166.9877014 74.0768585
-83.5426025 -165.9909058 79.7636566
-92.5227509 -165.5157166 83.1537628
-94.8100128 -165.4563293 83.7181396
-97.0731735 -165.4355469 84.1403961
-99.3805008 -165.4352570 84.4616776
-101.6744766 -165.4567108 84.6858063
-103.9984741 -165.5097504 84.7858276
-106.3335266 -165.5824280 84.7852936
-108.6602631 -165.6784210 84.6732025
-130.7523651 -168.0095062 77.3726196
-133.4122925 -168.5018616 75.5489960
-136.0593414 -169.0537720 73.4516678
-63.7965164 -166.9301758 62.3652077
-74.6542358 -164.5766296 74.5252151
-83.5039063 -163.6180725 80.1056900
-92.4867401 -163.1536713 83.4592285
-94.7675323 -163.1049500 84.0057068
-97.0376434 -163.0807495 84.4289322
-106.2842636 -163.2202148 85.0953598
-108.6152649 -163.3152771 84.9881744
-110.9942551 -163.4402161 84.7645950
-113.3511658 -163.5878906 84.4236450
-115.7665863 -163.7680817 83.9495621
-118.1631775 -163.9725647 83.3623962
-135.9483643 -166.5599365 74.1664963
-61.6238174 -165.1751099 59.3802757
-63.7481270 -164.4528198 62.9906616
-74.6219788 -162.1998596 74.8314056
-83.4828110 -161.2722778 80.3218384
-85.7140503 -161.1229858 81.3318939
-110.9592285 -161.0992126 84.9788971
-113.3173828 -161.2454224 84.6426773
-115.7249908 -161.4170380 84.1887970
-118.1224976 -161.6165466 83.6125488
-135.8506165 -164.1042175 74.7089081
-138.6091003 -164.7097473 72.3251495
-61.5881538 -162.7079773 59.9259872
-63.7214661 -162.0208282 63.4149933
-74.6085129 -159.8551483 74.9991684
-76.8030548 -159.5767975 76.5976715
-79.0272598 -159.3368530 78.0277939
-81.2395172 -159.1306152 79.2958527
-115.7048798 -159.0970001 84.3053970
-118.1049805 -159.2933197 83.7325974
-120.5443573 -159.5187988 83.0256653
-122.9985123 -159.7763824 82.1784363
-125.4856720 -160.0701294 81.1653900
-128.0036011 -160.4026184 79.9768677
-130.5532227 -160.7801971 78.5833206
-133.1688385 -161.2138672 76.9388275
-135.7972412 -161.7014313 75.0434875
-138.5356445 -162.2774658 72.7541046
-61.5649757 -160.2984161 60.2199440
-63.6986389 -159.6388550 63.6247253
-74.6016998 -157.5402985 75.0345535
-76.7993469 -157.2710571 76.6132278
-79.0180893 -157.0350342 78.0349197
-115.6946640 -156.7990723 84.3125305
-118.1021805 -156.9930725 83.7432327
-120.5312500 -157.2115326 83.0551910
-130.5277710 -158.4382019 78.6943893
-133.1345520 -158.8576965 77.0859070
-135.7687988 -159.3339386 75.2207565
-138.4886627 -159.8868256 73.0007706
-59.4676590 -158.7003174 56.3505249
-61.5631752 -157.9275818 60.3335114
-63.7013664 -157.2882080 63.6869659
-79.0241852 -154.7553711 77.9365692
-118.0989227 -154.7131042 83.6547546
-120.5372314 -154.9286804 82.9736557
-130.5271606 -156.1279907 78.6631393
-133.1128540 -156.5328674 77.0970459
-135.7476044 -156.9955597 75.2617264
-138.4633026 -157.5341187 73.0771942
-59.4688492 -156.3487244 56.3271866
-61.5671997 -155.5989380 60.2567635
-63.7103233 -154.9769135 63.5672455
-79.0446396 -152.4962463 77.7367935
-118.1261597 -152.4588776 83.4513550
-120.5536728 -152.6684265 82.7812881
-130.5415649 -153.8439941 78.5084534
-133.1327057 -154.2409973 76.9542084
-135.7539520 -154.6902008 75.1503906
-138.4719849 -155.2177429 72.9850998
-141.2295685 -155.8222656 70.4495087
-59.4896164 -154.0429993 56.0838928
-61.5928307 -153.3051453 60.0032349
-63.7329292 -152.6971741 63.2889862
-79.0709457 -150.2626801 77.4120026
-123.0424576 -150.6682587 81.6584473
-125.5248184 -150.9386292 80.6846008
-128.0384674 -151.2433167 79.5453720
-130.5791016 -151.5861206 78.2241364
-133.1625366 -151.9749146 76.6819534
-141.2605133 -153.5266876 70.2161713
-61.6257706 -151.0503235 59.5532227
-63.7674789 -150.4505463 62.8436279
-79.1084900 -148.0493927 76.9772797
-123.0973663 -148.4471588 81.2492065
-125.5734711 -148.7135620 80.2753448
-128.0965576 -149.0152893 79.1311722
-130.6248474 -149.3505249 77.8219910
-133.2236176 -149.7370605 76.2670670
-141.3081055 -151.2626190 69.8216095
-61.6674347 -148.8290100 58.9211044
-63.8110161 -148.2366333 62.2196884
-79.1565628 -145.8533020 76.4448395
-128.1531982 -146.8058777 78.6120071
-135.9331360 -147.9572754 73.9026947
-138.6278839 -148.4554901 71.7710114
-141.3946686 -149.0354614 69.2352066
-59.6279602 -147.3715820 54.0611343
-61.7296562 -146.6435089 58.0913048
-63.8717155 -146.0491638 61.4453201
-79.2146988 -143.6781616 75.7901459
-118.3617325 -143.6359863 81.5933609
-128.2489624 -144.6219788 77.9522324
-136.0318604 -145.7644043 73.2052460
-138.7347717 -146.2593384 71.0522842
-61.7991562 -144.4903107 57.0676346
-63.9400711 -143.8890381 60.5085068
-79.2825394 -141.5192566 75.0367050
-116.0400620 -141.3028412 81.4161987
-118.4483032 -141.4759521 80.8666382
-120.8842316 -141.6766205 80.1683960
-123.3461609 -141.9049530 79.3316727
-125.8316422 -142.1642303 78.3371811
-128.3579102 -142.4576111 77.1720047
-136.1552277 -143.5965271 72.3575592
-138.8594818 -144.0904541 70.1756287
-61.8863068 -142.3701324 55.8471756
-64.0221863 -141.7608185 59.3715057
-79.3572464 -139.3791656 74.1538544
-116.1439362 -139.1617279 80.5762329
-118.5656738 -139.3357849 80.0096207
-121.0010376 -139.5340729 79.3080368
-123.4629974 -139.7612000 78.4647827
-125.9581223 -140.0209961 77.4440994
-128.4791870 -140.3129730 76.2672424
-136.3006287 -141.4543762 71.3547821
-139.0188904 -141.9538269 69.1052170
-61.9942703 -140.2879791 54.3823280
-64.1225281 -139.6632385 58.0409470
-79.4527664 -137.2577057 73.1603699
-81.6870117 -137.0730743 74.4748459
-90.6745529 -136.5911560 78.3477859
-102.1132355 -136.4838257 80.5674744
-104.4342957 -136.5205536 80.6948242
-106.7772369 -136.5848541 80.6933899
-109.1181183 -136.6647797 80.6044159
-111.4920044 -136.7665405 80.3948364
-113.8640594 -136.8883057 80.0837250
-116.2647476 -137.0381775 79.6230774
-118.6849213 -137.2116547 79.0443802
-131.1961365 -138.5222321 73.8024445
-133.8089905 -138.9023132 72.1400146
-136.4683838 -139.3364868 70.1951675
-62.1250610 -138.2508545 52.6433983
-64.2340088 -137.5961609 56.5051689
-79.5515900 -135.1534119 72.0271454
-81.7863998 -134.9674225 73.3604813
-84.0195084 -134.8104248 74.5482025
-90.7789764 -134.4849701 77.2942276
-93.0488281 -134.4221649 77.9650879
-95.3288422 -134.3802185 78.5261078
-97.6194153 -134.3573761 78.9742737
-99.9177475 -134.3566742 79.3097076
-102.2297821 -134.3739777 79.5479660
-104.5536880 -134.4131470 79.6649170
-106.8942108 -134.4756317 79.6782684
-109.2444229 -134.5540771 79.5715637
-111.6121902 -134.6571350 79.3558350
-114.0007858 -134.7816772 79.0219879
-116.4060059 -134.9308472 78.5537491
-118.8359833 -135.1048279 77.9566040
-131.3677673 -136.4234009 72.5752411
-133.9929047 -136.8073273 70.8595886
-136.6825867 -137.2492981 68.8281174
-64.3709259 -135.5670929 54.7135544
-66.5099792 -135.0171967 58.0628624
-68.6713333 -134.5580597 60.9264374
-84.1376190 -132.7241821 73.3206940
-86.3877182 -132.5885620 74.3882599
-88.6401062 -132.4794617 75.3197556
-90.9000397 -132.3945007 76.1194077
-131.5706024 -134.3459167 71.1816788
-134.2110291 -134.7366333 69.3995819
-64.5332489 -133.5885010 52.5928688
-66.6554871 -133.0045776 56.1681824
-68.8088684 -132.5277557 59.1685791
-84.2686768 -130.6524506 71.9659729
-86.5163269 -130.5164032 73.0587463
-88.7712402 -130.4072113 74.0049286
-91.0336761 -130.3201752 74.8240967
-131.8054810 -132.2959747 69.5933838
-134.4480286 -132.6940002 67.7395248
-66.8225403 -131.0337067 53.9846535
-68.9620743 -130.5295105 57.1683884
-71.1370163 -130.1069183 59.9106674
-73.3166733 -129.7505341 62.2744408
-75.5221405 -129.4465637 64.3369141
-77.7279282 -129.1837921 66.1553116
-126.8629150 -129.6025696 70.8950119
-129.4422150 -129.9154053 69.4808121
-132.0498505 -130.2697144 67.8238983
-134.7400208 -130.6848450 65.8368149
-67.0187073 -129.1148682 51.4247284
-69.1526794 -128.5694580 54.9013214
-71.3113556 -128.1272278 57.8065224
-73.4893951 -127.7539902 60.2855644
-75.6804123 -127.4364777 62.4409142
-77.8909302 -127.1624832 64.3544235
-127.1280060 -127.5858231 69.0607452
-129.7128906 -127.9060364 67.5812225
-132.3541107 -128.2781982 65.8013611
-135.0545654 -128.7111053 63.6696014
-69.3614120 -126.6606522 52.2472839
-71.5034256 -126.1851883 55.3725891
-73.6776276 -125.7896271 58.0336227
-75.8666763 -125.4571381 60.3264313
-78.0705795 -125.1757889 62.3178482
-127.4108810 -125.5969543 67.0283813
-130.0269470 -125.9332047 65.4149094
-71.7339783 -124.2931061 52.5726662
-73.8968048 -123.8662338 55.4638596
-76.0750351 -123.5108109 57.9214287
-78.2735443 -123.2144165 60.0557709
-127.7442017 -123.6425323 64.6958923
-130.3759460 -123.9957886 62.9568863
-72.0089111 -122.4777451 49.2534256
-74.1492767 -121.9958344 52.4867668
-76.3139572 -121.6087341 55.1867752
-78.5048065 -121.2885437 57.4582901
-80.7142944 -121.0219650 59.4194183
-82.9358521 -120.7966690 61.1404343
-122.9418488 -121.1360092 64.9347458
-125.5034637 -121.4063492 63.6404266
-128.1170502 -121.7276459 62.0576744
-74.4509583 -120.2079926 48.9346199
-76.5888367 -119.7650299 51.9719582
-78.7648239 -119.4143829 54.4966049
-80.9681015 -119.1235962 56.6285095
-83.1865692 -118.8820801 58.4699478
-123.3118057 -119.2254181 62.2188034
-125.9004135 -119.5168152 60.7857819
-76.9299011 -118.0173950 48.0965805
-79.0782471 -117.6053696 50.9969025
-81.2720184 -117.2779083 53.3850098
-83.4715881 -117.0134735 55.3925705
-85.7103500 -116.7950439 57.1119766
-87.9498901 -116.6166687 58.6164742
-113.6845245 -116.5354919 62.9115067
-116.1421280 -116.6880341 62.3013535
-118.6362152 -116.8759995 61.4751434
-121.1719589 -117.1006012 60.4060478
-123.7367783 -117.3687592 59.0959396
-126.3621826 -117.6900024 57.4420624
45.2935371 -140.8688354 -133.6039581
-79.4672699 -115.9106979 46.7206039
-81.6218567 -115.5146637 49.5335655
-83.8041687 -115.2086182 51.8172417
-86.0416183 -114.9662323 53.7123337
-88.2687683 -114.7649078 55.3532028
-114.0801086 -114.6660995 59.8217812
-116.5571136 -114.8320465 59.1299629
-119.0750732 -115.0343857 58.1675339
-121.6363068 -115.2841949 56.9438057
53.6651764 -136.9619751 -128.0295563
50.7755241 -136.9215546 -127.2966309
47.9025536 -136.9300995 -126.9264984
45.0412941 -136.9967499 -126.9585190
42.1940041 -137.1238098 -127.3440170
39.3611794 -137.2973938 -128.1186218
-84.2226257 -113.5136414 47.4519768
-86.4272461 -113.2162704 49.6728172
-88.6422882 -112.9846802 51.5409012
-90.8985443 -112.8040619 53.0549355
-93.1653595 -112.6637573 54.3216743
-95.4563141 -112.5632401 55.3249626
-97.7669678 -112.4940796 56.1301575
-104.8080597 -112.4665833 57.3601913
-107.1957932 -112.5161743 57.3820496
-109.6143036 -112.5982971 57.2256699
-112.0571060 -112.7079010 56.8493423
-114.5248260 -112.8557510 56.2391357
-117.0411377 -113.0413361 55.3811111
59.2520447 -133.6147919 -125.4927139
56.3373184 -133.4912720 -124.2088776
53.4454193 -133.4210815 -123.3031464
50.5746613 -133.4052734 -122.7384338
47.7149696 -133.4214172 -122.4567871
44.8716812 -133.4888306 -122.4851227
42.0315170 -133.5961609 -122.7963562
39.2015190 -133.7535400 -123.4174347
36.3804474 -133.9567413 -124.3621216
33.5604858 -134.2077332 -125.6504059
-91.3493347 -111.1005478 48.5888252
-93.6074829 -110.9362183 50.0661507
-95.8963089 -110.8144989 51.2040176
-98.2029495 -110.7344131 52.1083107
-105.2653046 -110.6984634 53.4161453
-107.6745834 -110.7514801 53.3971100
-110.1088181 -110.8399811 53.1577301
-112.5724945 -110.9688416 52.6671829
-115.0824890 -111.1378403 51.8898697
64.9200287 -130.5638275 -124.8839111
61.9711571 -130.3562012 -123.0174255
59.0423126 -130.2130585 -121.5782547
56.1498032 -130.1102600 -120.4794693
53.2744598 -130.0693970 -119.7369537
39.0776291 -130.3929443 -119.8494110
36.2647171 -130.5750275 -120.6634598
33.4526291 -130.7929993 -121.7593536
30.6390991 -131.0725555 -123.2208328
27.8238602 -131.3899689 -125.0238495
-96.4522781 -109.2125168 46.0024185
-98.7455368 -109.1009521 47.0794373
-101.0868530 -109.0368652 47.8413620
-103.4475174 -109.0219574 48.2950363
-105.8353424 -109.0445938 48.5017014
-108.2642288 -109.1122589 48.4232597
70.6756058 -127.7559357 -125.9474487
67.6674194 -127.4524612 -123.3779068
64.7116623 -127.2280197 -121.3530731
61.7763748 -127.0603180 -119.7518311
58.8771591 -126.9435196 -118.5013123
55.9950180 -126.8720551 -117.5514984
53.1317177 -126.8320999 -116.8609467
38.9722633 -127.1620483 -117.0166626
36.1672478 -127.3187408 -117.7169800
33.3548698 -127.5242004 -118.7136688
30.5541019 -127.7619019 -119.9707336
27.7377777 -128.0446472 -121.5333328
70.4520874 -124.4463730 -122.5624847
67.4803162 -124.2057419 -120.3702621
64.5466003 -124.0177536 -118.5788574
61.6286163 -123.8792191 -117.1489716
58.7374802 -123.7747650 -115.9948120
33.2724228 -124.3445129 -116.2192535
73.2835388 -121.5368118 -122.3697662
70.2897568 -121.2700043 -119.9479065
67.3266220 -121.0535202 -117.9406738
64.4062195 -120.8899994 -116.3100281
61.5044136 -120.7740326 -114.9998627
58.6257896 -120.6896667 -113.9484100
33.2060318 -121.2480011 -114.1694183
76.1281891 -118.6987991 -122.7358704
73.1209946 -118.4007492 -120.0244904
70.1406555 -118.1604614 -117.8002167
67.2060776 -117.9756317 -115.9630661
64.2882690 -117.8336258 -114.4517975
33.1495361 -118.1951141 -112.4436646
79.0337601 -115.9490280 -123.7346344
75.9804535 -115.6061554 -120.6503296
72.9831848 -115.3349686 -118.1397324
70.0239487 -115.1259308 -116.0725555
67.0904388 -114.9594955 -114.3521729
64.1916809 -114.8313293 -112.9321747
33.0937119 -115.2051620 -111.0319672
81.9716797 -113.2677307 -125.3514099
78.8943176 -112.8795319 -121.8306503
75.8597565 -112.5751572 -118.9896774
72.8722763 -112.3312836 -116.6263580
69.9240570 -112.1390991 -114.6732483
33.0488663 -112.2482910 -109.8579330
81.8385162 -110.2241821 -123.6236191
78.7738342 -109.8744202 -120.3501053
75.7560577 -109.5992279 -117.6706390
72.7827759 -109.3761978 -115.4324875
69.8373489 -109.1976852 -113.5577087
33.0144730 -109.3232574 -108.8911285
81.7297974 -107.2417603 -122.3029480
78.6826019 -106.9191895 -119.1982574
75.6658554 -106.6572266 -116.6137238
55.4100113 -105.9096680 -107.3227234
52.5820427 -105.9031830 -106.8288574
49.7708969 -105.9181366 -106.5293884
46.9611588 -105.9575195 -106.3963928
32.9857101 -106.4334335 -108.1370316
84.7630920 -104.6833344 -124.9917603
81.6461105 -104.3039856 -121.3184433
78.6020050 -104.0042496 -118.3423767
75.6101913 -103.7660904 -115.8734512
55.3676300 -103.0548172 -106.7850876
52.5372162 -103.0499268 -106.2913055
49.7314453 -103.0712509 -106.0047684
46.9247742 -103.1039581 -105.8692017
32.9605179 -103.5685349 -107.5777054
84.6804047 -101.7574997 -124.1488495
81.5872803 -101.4072266 -120.6408310
78.5485535 -101.1249771 -117.7519989
75.5566254 -100.8992004 -115.3453369
55.3421478 -100.2310791 -106.4323730
49.7025833 -100.2438202 -105.6725922
46.8961334 -100.2767639 -105.5142441
44.0922928 -100.3332901 -105.5359955
41.3030701 -100.4015808 -105.7146912
38.5071182 -100.4937592 -106.0582275
35.7220573 -100.6021576 -106.5444946
32.9265137 -100.7296448 -107.1918335
30.1534863 -100.8748779 -108.0236130
84.6360168 -98.8776627 -123.6516418
81.5293732 -98.5392761 -120.1963272
78.5081787 -98.2758179 -117.3933716
75.5206757 -98.0618896 -115.0323181
55.3195038 -97.4237213 -106.2340851
52.4991035 -97.4230118 -105.7827606
49.6875839 -97.4420395 -105.4970779
46.8700638 -97.4724274 -105.3249969
44.0778961 -97.5230026 -105.3383026
41.2703476 -97.5985794 -105.5330048
30.1277390 -98.0541687 -107.7983093
87.7607956 -96.4394531 -127.6443024
84.6038361 -96.0298157 -123.4378586
81.5113525 -95.7096100 -120.0508728
55.3021660 -94.6367493 -106.1969833
52.4786606 -94.6326752 -105.7239532
49.6670227 -94.6501083 -105.4205475
46.8529816 -94.6839905 -105.2844315
44.0610085 -94.7355499 -105.3087082
41.2685661 -94.8013153 -105.4785767
38.4778786 -94.8857117 -105.7897797
30.1146297 -95.2492371 -107.7369461
27.3322182 -95.4060898 -108.7154007
87.7425232 -93.6078491 -127.6660385
84.5912247 -93.2124481 -123.4909668
81.4977875 -92.9012146 -120.1110382
55.2915306 -91.8640823 -106.2988739
52.4726563 -91.8641510 -105.8459473
49.6540833 -91.8787231 -105.5357742
46.8446999 -91.9155121 -105.4238434
44.0460548 -91.9627533 -105.4230270
41.2537689 -92.0297089 -105.5933838
38.4644241 -92.1105652 -105.8982010
35.6669960 -92.2137527 -106.4073181
32.8912048 -92.3261108 -107.0127792
30.1085377 -92.4622116 -107.8248520
27.3209686 -92.6154175 -108.8043518
24.5423546 -92.7883606 -109.9679031
21.7427330 -92.9869690 -111.3598862
87.7494431 -90.8072052 -127.9849396
84.5993195 -90.4211884 -123.7993698
81.5120697 -90.1207886 -120.4395447
55.2939720 -89.1112289 -106.5962143
52.4726105 -89.1103668 -106.1341095
46.8500748 -89.1557159 -105.6616974
44.0426865 -89.2054291 -105.6871490
41.2447433 -89.2693787 -105.8466797
21.7421627 -90.2007904 -111.5914001
18.9465523 -90.4152069 -113.1876068
16.1409492 -90.6568909 -115.0423126
13.3413248 -90.9298401 -117.1928558
10.5276976 -91.2378693 -119.6801376
7.7130094 -91.5910797 -122.5955048
87.7929153 -88.0406342 -128.6651306
84.6185760 -87.6549301 -124.3683319
81.5269165 -87.3597107 -120.9733810
55.2919006 -86.3713074 -107.0230103
46.8463898 -86.4144897 -106.0868378
44.0475273 -86.4616547 -106.0946655
41.2502556 -86.5242157 -106.2665253
21.7360973 -87.4330139 -112.0132751
18.9427509 -87.6408691 -113.5986862
16.1433296 -87.8759155 -115.4509888
13.3358927 -88.1423111 -117.6133194
10.5266171 -88.4433517 -120.1059418
7.7009478 -88.7899246 -123.0504532
84.6696625 -84.9141464 -125.2415466
81.5666580 -84.6205444 -121.7629089
55.3149452 -83.6417236 -107.6113434
52.4829369 -83.6419449 -107.1375275
49.6734161 -83.6550140 -106.8245621
46.8594666 -83.6828766 -106.6440353
10.5138607 -85.6703033 -120.7768326
7.6884766 -86.0098495 -123.7470703
84.7334137 -82.1967163 -126.3875809
81.6212006 -81.9001617 -122.7961502
55.3309021 -80.9250641 -108.3477249
52.5073700 -80.9250183 -107.8585815
49.6852684 -80.9376678 -107.5417023
46.8776093 -80.9675293 -107.3768921
10.5094299 -82.9137878 -121.6609268
7.6775608 -83.2496872 -124.6814499
84.8309479 -79.5046082 -127.8981323
81.6962814 -79.2003784 -124.1131287
78.6498260 -78.9656601 -121.0937500
75.6379089 -78.7768097 -118.5618515
66.8183289 -78.4022293 -113.0980225
63.9282074 -78.3308411 -111.8447037
44.0907288 -78.3003769 -108.2584763
41.2811775 -78.3601456 -108.4143829
38.4860916 -78.4353409 -108.7385559
35.6903725 -78.5201340 -109.2224808
10.5010471 -80.1757660 -122.7998810
7.6718054 -80.5097809 -125.8932953
81.8007736 -76.5203094 -125.7494507
78.7339172 -76.2797012 -122.5683289
75.7159576 -76.0877838 -119.9353867
66.8775177 -75.7116089 -114.3056870
63.9782028 -75.6396790 -113.0032806
44.1106644 -75.6039276 -109.3111420
38.5019760 -75.7345047 -109.7975998
35.7134933 -75.8206253 -110.2773590
10.5035744 -77.4541473 -124.1745453
7.6676517 -77.7904587 -127.4131012
81.9234009 -73.8631058 -127.7319794
78.8415604 -73.6115341 -124.3589630
75.8085632 -73.4154205 -121.5784531
72.8220673 -73.2574234 -119.2792206
69.8707733 -73.1314697 -117.3467255
44.1468925 -72.9163666 -110.5543976
41.3353577 -72.9722595 -110.7128754
38.5403595 -73.0406342 -111.0237656
35.7369003 -73.1239319 -111.5187531
16.1399746 -74.2114639 -120.6376648
13.3174877 -74.4616623 -123.0409393
10.5058050 -74.7503052 -125.8629150
78.9746704 -70.9650574 -126.4954987
75.9311981 -70.7564621 -123.5462799
72.9172745 -70.5976715 -121.0939331
69.9561310 -70.4664917 -119.0493546
44.1853409 -70.2387009 -111.9672012
41.3744469 -70.2903290 -112.1304169
38.5735550 -70.3604431 -112.4578094
35.7630882 -70.4413834 -112.9749374
16.1505146 -71.5224609 -122.3795471
13.3377504 -71.7745972 -124.8838196
10.5010738 -72.0695496 -127.9108276
79.1291656 -68.3449707 -129.0706482
76.0533066 -68.1208420 -125.8465729
73.0458527 -67.9493332 -123.2424774
70.0669022 -67.8127975 -121.0670166
67.1260223 -67.7071609 -119.2670212
64.2007294 -67.6296616 -117.7724609
61.3022728 -67.5714569 -116.5533142
58.4297218 -67.5282059 -115.5756531
21.7910614 -68.4296036 -120.3105164
18.9824333 -68.6228714 -122.1968002
16.1656113 -68.8459015 -124.4488297
13.3397675 -69.1029510 -127.1206665
76.2202377 -65.5022888 -128.6163177
73.1910782 -65.3199768 -125.7686920
70.1927567 -65.1776276 -123.4255219
67.2371368 -65.0656891 -121.5016632
64.3022232 -64.9818726 -119.9235153
61.4010773 -64.9179764 -118.6255341
58.5091858 -64.8762054 -117.5525360
21.8144417 -65.7640076 -122.4676056
18.9975834 -65.9583740 -124.4830246
16.1764030 -66.1872406 -126.8865662
13.3538570 -66.4542847 -129.7542419
73.3619385 -62.7156067 -128.7894287
70.3383484 -62.5584183 -126.1798401
67.3623047 -62.4403725 -124.0805435
64.4286194 -62.3488884 -122.3878784
61.5112381 -62.2815475 -120.9749985
58.6141624 -62.2347336 -119.8432617
27.4678383 -62.7889481 -121.6743698
24.6618977 -62.9406624 -123.1638412
21.8450966 -63.1121140 -124.9777298
19.0279331 -63.3159790 -127.1496353
73.5815277 -60.1469536 -132.4904633
70.5220032 -59.9634781 -129.4999084
67.5394821 -59.8307266 -127.1664047
64.5635529 -59.7325592 -125.2537003
61.6471252 -59.6560135 -123.7127380
58.7290192 -59.6051865 -122.4813843
27.5098228 -60.1468506 -124.3863220
24.7036018 -60.3006401 -125.9995270
21.8817863 -60.4816856 -127.9708862
67.7342148 -57.2531509 -130.8528137
64.7528229 -57.1319046 -128.6854095
61.7946587 -57.0496483 -126.9497833
58.8703156 -56.9905243 -125.5748825
55.9720879 -56.9554176 -124.5396347
53.0943947 -56.9362335 -123.7495422
33.2124481 -57.2760315 -124.9544373
30.3929977 -57.3896866 -126.1140060
27.5709496 -57.5243301 -127.5473480
24.7543144 -57.6873550 -129.3354034
21.9231186 -57.8736534 -131.5427856
64.9539871 -54.5707092 -132.8420258
61.9897232 -54.4707642 -130.8280029
59.0371284 -54.3992920 -129.2628937
56.1233215 -54.3552971 -128.0914307
53.2325211 -54.3313828 -127.1726303
33.2863312 -54.6621437 -128.4445190
30.4634953 -54.7782669 -129.7204895
27.6436234 -54.9262352 -131.3306274
59.2570419 -51.8432846 -133.8019409
56.3117943 -51.7821388 -132.3798370
53.4031982 -51.7524948 -131.2919464
50.5045662 -51.7419357 -130.6317749
47.6275864 -51.7523079 -130.2359467
44.7623978 -51.7798080 -130.1525421
41.9151535 -51.8223305 -130.3279114
39.0590096 -51.8911667 -130.7828979
36.2218552 -51.9714737 -131.5795746
33.3916245 -52.0773697 -132.6582031
30.5578518 -52.2039986 -134.1650848
53.6306076 -49.2237244 -136.6007690
50.7104988 -49.1968117 -135.7065125
47.8228607 -49.1969872 -135.1849670
44.9298248 -49.2210197 -135.0449677
42.0738983 -49.2690201 -135.2400208
39.2116394 -49.3357925 -135.8231049
-100.7472382 -202.9346313 57.5254288
-93.5211029 -201.3613892 58.0233231
-94.5820694 -201.1453857 58.8182983
-95.7346573 -200.9819031 59.5741005
-96.9329910 -200.8561401 60.2417641
-98.0950394 -200.7755890 60.7251892
-99.1696625 -200.7262268 61.0478058
-100.3056335 -200.6854706 61.3386307
-101.5364380 -200.6619415 61.5999565
-102.7595673 -200.6603088 61.7770996
-103.9150162 -200.7136230 61.7895622
-105.0427628 -200.7481384 61.7413940
-106.2933197 -200.8405457 61.5951157
-107.6005020 -200.9912720 61.3317680
-88.7332535 -200.2121124 57.2129097
-89.7271194 -199.8606720 58.5879555
-90.9622040 -199.6518402 59.5903282
-92.1072006 -199.4050446 60.6104622
-93.1737595 -199.2601929 61.3444099
-105.9399261 -198.9087677 64.4614487
-107.2514877 -199.0009155 64.2627106
-108.4695511 -199.1097107 64.0111771
-109.6122360 -199.2438049 63.6810608
-110.8146896 -199.3846741 63.2635803
-112.1758194 -199.6128082 62.6663589
-113.5242920 -199.8738098 61.9564362
-86.3450928 -198.7113647 58.0398140
-87.4172974 -198.3841858 59.3653603
-88.4202728 -198.1839600 60.3518410
-89.4950027 -197.9495087 61.3903160
-90.6490936 -197.7321625 62.3870506
-91.8138428 -197.5410767 63.2813950
-92.8881378 -197.4142609 63.9282608
-105.6495895 -197.1308746 66.7940063
-106.9698181 -197.2183228 66.6305695
-108.1861877 -197.3155670 66.4246216
-109.2944489 -197.4140625 66.1909180
-110.4752045 -197.5235596 65.8751526
-111.8336563 -197.7029724 65.3647308
-113.1599884 -197.9043732 64.7871628
-83.8295898 -197.4939575 57.9170914
-84.9332581 -197.0968475 59.4862442
-86.0634232 -196.7665863 60.9169998
-112.8692932 -196.1343536 67.0893173
-114.0573425 -196.3096161 66.5735626
-115.2164841 -196.4741516 66.0466614
-116.5429993 -196.7361145 65.2984085
-117.9773560 -197.0568848 64.3291779
-82.5556717 -195.8854370 59.3151474
-83.5781708 -195.5798645 60.6409760
-84.6704712 -195.2868958 61.9574089
-85.8225708 -194.9967804 63.2179909
-112.6350098 -194.4759827 68.9921875
-113.7997284 -194.6144104 68.5855255
-114.9298553 -194.7552795 68.1447449
-116.2406311 -194.9712982 67.4835510
-117.6447296 -195.2362213 66.6657257
-80.2063446 -194.7479095 58.8005333
-81.3218994 -194.3560791 60.4730110
-82.3322449 -194.0889282 61.7148209
-83.3531265 -193.8367004 62.8474159
-88.8521957 -192.8600159 67.4362183
-90.0255432 -192.7112427 68.2123413
-91.2153702 -192.5579529 68.9339142
-92.2783127 -192.5018005 69.3583679
-93.3340759 -192.4360962 69.7452850
-94.5235825 -192.3454742 70.2469788
-117.3919067 -193.5571594 68.6245575
-118.6809464 -193.7989197 67.8651581
-119.8618011 -194.0091095 67.1481400
-121.1397705 -194.3077393 66.3026962
-77.8937454 -193.7871399 57.6625519
-78.9175034 -193.3694000 59.4228516
-80.0109177 -192.9719086 61.1237869
-81.1235580 -192.6387634 62.6001701
-82.1350403 -192.4235840 63.6638832
-83.1686020 -192.2044983 64.6710129
-88.6899109 -191.3392334 68.8833466
-89.8758163 -191.1698303 69.6549225
-91.0634995 -191.0271606 70.3548279
-92.1193085 -190.9775238 70.7456818
-93.1802979 -190.9526367 71.0796204
-94.3619232 -190.8355865 71.5940170
-117.1806107 -191.9761047 70.2658310
-118.4451981 -192.1805878 69.6244507
-119.5893936 -192.3445892 69.0376053
-120.8513565 -192.5989685 68.2425308
-122.2734680 -192.9321442 67.2010040
-76.7017365 -192.3744812 58.3827667
-77.6924667 -192.0083771 60.0009308
-78.7290497 -191.6598358 61.5388947
-88.5455933 -189.8321686 70.1955185
-89.7293854 -189.6681213 70.9438782
-94.2080231 -189.3730927 72.7834015
-122.0243530 -191.2861023 68.9628601
-123.4304352 -191.6103210 67.8998718
-124.7100830 -191.9280701 66.9242096
-75.4827271 -191.0485229 58.8040581
-76.5161896 -190.6508179 60.5348129
-77.5117340 -190.3467560 61.9315872
-78.5659332 -190.0386658 63.3026276
-88.4208755 -188.3707733 71.3701172
-89.6051788 -188.2174377 72.0975418
-92.9199829 -188.0186157 73.4043198
-94.0845413 -187.9544067 73.8555756
-121.7980576 -189.7132416 70.5451965
-123.1909256 -190.0044403 69.5799713
-124.4355316 -190.2686157 68.7020493
-73.1716156 -190.3320313 56.7014084
-74.2131653 -189.8338928 58.7937546
-75.3109131 -189.3734894 60.7721634
-76.3525925 -189.0317688 62.3181610
-88.3092194 -186.9439545 72.4384155
-89.5003204 -186.7937164 73.1577301
-90.6982574 -186.6459503 73.8577271
-93.9657135 -186.5101471 74.8949432
-124.2184906 -188.6986847 70.2395172
-125.4386444 -188.9585571 69.3754730
-126.8214645 -189.3192902 68.2453461
-73.0016479 -188.6186676 58.7755089
-74.0511246 -188.1883392 60.6576920
-75.1715698 -187.7765045 62.4627075
-76.2219543 -187.4671173 63.8755531
-88.2057800 -185.5258484 73.4400482
-89.4031067 -185.3815308 74.1393814
-93.8576050 -185.1521454 75.7827072
-124.0302124 -187.2013855 71.5801773
-125.2246094 -187.4237976 70.7938919
-126.5792694 -187.7306213 69.7471237
-128.0757751 -188.1321106 68.4480133
-72.8495636 -187.0182648 60.5077591
-73.9153214 -186.6306000 62.2212677
-88.1028824 -184.1535339 74.3326340
-89.3069153 -183.9956360 75.0145645
-93.7684174 -183.7829895 76.6096649
-126.3812637 -186.2196350 71.0985947
-127.8407593 -186.5633545 69.8934784
-129.2024231 -186.9276123 68.6321335
-71.7251587 -185.8048859 60.4572678
-72.7339630 -185.4696960 62.0117722
-73.8065720 -185.1276855 63.5854492
-88.0259171 -182.7926636 75.1725998
-89.2220612 -182.6320496 75.8502579
-93.7004318 -182.4271851 77.3905487
-126.2159653 -184.7624969 72.2891769
-127.6493988 -185.0779724 71.1721344
-128.9932098 -185.3864594 70.0586472
-130.2638855 -185.7112274 69.0041046
-69.5233917 -185.1216888 58.1642075
-70.5890808 -184.6496582 60.2166214
-71.6042099 -184.2870636 61.8647957
-87.9577866 -181.4313812 75.9756012
-89.1461868 -181.2871246 76.6292267
-90.3248749 -181.1787109 77.2174225
-91.3918610 -181.1580200 77.4518661
-92.4652557 -181.1487427 77.6915588
-93.6139984 -181.0944519 78.1250610
-128.8188782 -183.9230347 71.2850876
-130.0837402 -184.2189026 70.2737503
-68.3356476 -184.0733032 57.4514732
-69.4106293 -183.5685730 59.6686707
-70.4762268 -183.1425018 61.5794106
-71.5053558 -182.8032532 63.1261749
-87.8944321 -180.0975037 76.7046509
-89.0655060 -179.9806061 77.3155212
-90.2521820 -179.8696442 77.8882599
-91.3232346 -179.8442993 78.1654510
-92.3940735 -179.8311768 78.4195938
-93.5410461 -179.7836304 78.8015366
-128.6553345 -182.4895935 72.3780975
-129.8905945 -182.7515259 71.4341125
-131.2192535 -183.0783081 70.3097382
-132.7079163 -183.4895782 68.8936386
-67.1981964 -183.0305634 56.7569160
-68.2168503 -182.5439148 58.9090958
-69.2926102 -182.0867462 60.9619370
-70.3741455 -181.6895752 62.7588501
-71.4071960 -181.3752441 64.2042618
-72.4430618 -181.0967712 65.5203552
-73.5371094 -180.8110504 66.8716125
-74.6664124 -180.5289154 68.1901703
-75.7461548 -180.2976074 69.2931061
-131.0385590 -181.6238708 71.3981018
-132.5013428 -182.0045624 70.0654907
-68.1210938 -181.0421143 60.2181396
-69.2058411 -180.6212616 62.1343498
-70.2972031 -180.2583466 63.8128815
-71.3292694 -179.9751282 65.1714478
-72.3526764 -179.7242126 66.4117889
-73.4515533 -179.4435883 67.7202148
-74.6003189 -179.1638184 69.0181122
-75.6695862 -178.9510193 70.0606537
-130.9194489 -180.2368774 72.3445587
-132.3294983 -180.5684052 71.1218872
-66.0151672 -180.4372559 57.4876595
-66.9801559 -180.0361176 59.4043465
-68.0305176 -179.6178284 61.3104630
-69.1332245 -179.2081299 63.1454582
-70.2055054 -178.8881989 64.6980896
-71.2577896 -178.5937195 66.0569992
-75.6140594 -177.6161499 70.7793274
-130.7742004 -178.8512573 73.2380981
-132.1798401 -179.1681671 72.0714111
-133.6344299 -179.5368958 70.7535553
-64.8747330 -179.4928589 56.4144020
-65.9051895 -178.9947052 58.6442566
-66.9105072 -178.5845947 60.5323830
-67.9498062 -178.2123260 62.2854080
-69.0525665 -177.8335419 64.0145493
-70.1508636 -177.4993439 65.5667801
-71.1872406 -177.2317963 66.8572998
-72.2199173 -177.0030212 68.0227737
-75.5493393 -176.3066101 71.4130478
-130.6724548 -177.4996338 74.0145798
-132.0572205 -177.8019104 72.9074402
-133.4777527 -178.1418762 71.6651611
-134.8280640 -178.4881592 70.4402466
-64.7949371 -178.0155334 57.6150894
-133.3484192 -176.7808380 72.4786530
-134.6649475 -177.0925446 71.3224945
-63.6511269 -177.1242065 56.2623596
-64.7112885 -176.6053009 58.6398010
-133.2235260 -175.4339905 73.2207336
-134.5502167 -175.7395325 72.0819626
-135.8914795 -176.0754547 70.8638763
-63.5771523 -175.7016296 57.2920685
-64.6339264 -175.2222595 59.5303307
-72.0756989 -173.0862579 69.8346329
-73.1822662 -172.8590240 70.9612427
-74.3073425 -172.6433563 72.0406952
-75.3962326 -172.4562073 72.9790344
-76.4588699 -172.3103027 73.8043060
-77.5557251 -172.1432495 74.6512070
-135.7643738 -174.7255096 71.5872498
-137.1610870 -175.0864258 70.2291183
-62.4690704 -174.8191071 55.8539505
-63.5025826 -174.3160858 58.1915970
-64.5654068 -173.8678284 60.3122368
-72.0420151 -171.8075867 70.3296204
-73.1390228 -171.5933228 71.4156494
-77.5160675 -170.9047089 75.0514526
-135.6488495 -173.3934784 72.2715302
-137.0466461 -173.7423401 70.9348602
-138.5312958 -174.1545105 69.4004288
-62.4048195 -173.4281769 56.7594490
-72.0013428 -170.5494995 70.7574615
-73.0997620 -170.3407288 71.8197861
-77.4863434 -169.6595459 75.4151611
-135.5581665 -172.0874786 72.8664780
-136.9459686 -172.4246063 71.5735626
-61.3270798 -172.5680389 55.2376671
-62.3419800 -172.0710144 57.5500336
-71.9681396 -169.3001556 71.1444016
-73.0702057 -169.0975952 72.1866608
-74.1888046 -168.9065094 73.1919098
-75.2900772 -168.7352753 74.1088181
-76.3583527 -168.5868530 74.9219131
-77.4532547 -168.4424286 75.7179413
-135.4820709 -170.8029022 73.3826981
-136.8636017 -171.1271210 72.1377563
-138.3031311 -171.4948883 70.7130890
-61.2678795 -171.2084656 56.0143356
-62.2969055 -170.7304382 58.2605705
-76.3376541 -167.3666992 75.2056885
-77.4364471 -167.2203674 75.9966507
-78.5590057 -167.0825500 76.7671356
-79.6807938 -166.9543152 77.4949112
-80.7739258 -166.8390656 78.1555405
-81.8702316 -166.7312927 78.7757263
-85.2319794 -166.4656525 80.4557800
-86.3428802 -166.3873291 80.9384232
-87.4510651 -166.3223114 81.3916931
-88.5906677 -166.2680511 81.8247223
-89.7399902 -166.2053986 82.2206345
-90.8476105 -166.1716309 82.5600967
-138.2076721 -170.1946106 71.2596283
-61.2346420 -169.8647614 56.7151260
-62.2408066 -169.4302216 58.8310127
-76.3202972 -166.1530457 75.4594574
-77.4171829 -166.0090027 76.2425842
-78.5273590 -165.8819427 76.9960480
-79.6592102 -165.7487793 77.7213669
-80.7455902 -165.6435699 78.3671417
-81.8462830 -165.5397034 78.9882202
-85.2176056 -165.2681274 80.6657715
-86.3235703 -165.1941833 81.1384430
-90.8283615 -164.9679413 82.7676239
-138.1170807 -168.9095764 71.7639313
-139.5285339 -169.2694092 70.3595886
-60.1825409 -169.0454102 54.9575615
-61.1798401 -168.5686798 57.2651100
-62.2131767 -168.1316833 59.3658562
-76.2998505 -164.9478607 75.6769104
-77.3918457 -164.8122101 76.4525833
-80.7229080 -164.4495239 78.5543747
-81.8316269 -164.3458252 79.1736984
-85.1985779 -164.0800934 80.8334198
-86.2966156 -164.0182495 81.2941666
-89.6829147 -163.8406372 82.5754166
-90.8034668 -163.7869568 82.9363098
-98.7719421 -163.6589355 84.6327591
-99.9301300 -163.6661072 84.7743454
-101.0692673 -163.6805115 84.9009171
-103.3702698 -163.7238159 85.0414886
-104.5474548 -163.7470398 85.0496368
-138.0521851 -167.6463928 72.1816559
-139.4426270 -167.9891968 70.8214951
-60.1466942 -167.7328186 55.5453529
-61.1485863 -167.2736511 57.7798309
-62.1733894 -166.8643494 59.7949371
-76.2831192 -163.7576599 75.8574753
-77.3759384 -163.6242981 76.6270523
-81.8136444 -163.1684570 79.3109283
-85.1838150 -162.9013672 80.9612808
-86.2903595 -162.8347168 81.4277954
-87.4052124 -162.7746277 81.8762360
-90.7929764 -162.6131897 83.0549698
-98.7478104 -162.4904785 84.7552338
-99.9105148 -162.4984741 84.8978271
-100.9892426 -162.4980316 85.0652237
-104.5279846 -162.5740662 85.1862106
-137.9898529 -166.3971558 72.5438080
-139.3796997 -166.7326660 71.2078400
-140.7734070 -167.0936279 69.7751389
-60.1061325 -166.4476318 56.0270309
-76.2728806 -162.5699463 76.0063477
-77.3700638 -162.4353027 76.7690659
-78.4816818 -162.3134460 77.4909821
-79.6018372 -162.1987457 78.1781464
-80.7059326 -162.0883179 78.8237000
-81.8119049 -161.9917145 79.4274750
-87.3966522 -161.6022339 81.9764175
-90.7806625 -161.4557343 83.1357803
-91.9035492 -161.4130249 83.4700623
-93.0377579 -161.3822327 83.7757874
-94.1773453 -161.3600311 84.0413666
-95.3150940 -161.3435974 84.2767334
-96.4483337 -161.3305817 84.4903717
-97.5933456 -161.3254852 84.6897812
-98.7416840 -161.3228149 84.8556671
-99.8889465 -161.3248596 84.9906921
-104.5149307 -161.4064026 85.2867508
-105.6688080 -161.4395447 85.2816772
-106.8340988 -161.4838867 85.2477722
-108.0166779 -161.5399170 85.1867447
-109.1919708 -161.5882568 85.1095047
-140.7080841 -165.8369598 70.1363678
-142.1599579 -166.2355652 68.5633621
-59.0247307 -165.6951141 53.9125061
-60.0784225 -165.1749878 56.4509544
-76.2507019 -161.3936157 76.1131668
-77.3615036 -161.2581482 76.8798218
-78.4696960 -161.1428223 77.5892487
-79.5953979 -161.0262604 78.2793732
-80.6906586 -160.9167480 78.9179993
-81.7929764 -160.8244171 79.5153046
-87.3871765 -160.4433899 82.0571594
-88.5127640 -160.3852844 82.4768219
-89.6531525 -160.3407440 82.8535767
-90.7635345 -160.2983704 83.1997375
-91.9011154 -160.2568665 83.5360413
-96.4416962 -160.1760254 84.5612564
-103.3318329 -160.2206421 85.3295593
-104.5124435 -160.2470245 85.3552399
-105.6749496 -160.2844696 85.3484726
-106.8311768 -160.3278656 85.3128815
-108.0009155 -160.3750916 85.2594757
-109.1755753 -160.4236755 85.1900940
-140.6633301 -164.5968933 70.4350891
-142.0962524 -164.9791870 68.9067688
-57.9274254 -165.0379944 51.4068985
-59.0000458 -164.4311523 54.3018036
-60.0486946 -163.9264221 56.7814636
-82.9093781 -159.5728455 80.1513672
-84.0345993 -159.4893341 80.6935730
-85.1577759 -159.4092407 81.2013855
-86.2574005 -159.3442383 81.6705399
-87.3883591 -159.2743378 82.1299591
-88.5117035 -159.2206268 82.5358734
-89.6464081 -159.1815186 82.9011765
-90.7707367 -159.1384125 83.2508698
-91.8958893 -159.1059265 83.5738983
-105.6514511 -159.1263428 85.3986053
-109.1709213 -159.2689056 85.2479782
-110.3551025 -159.3263702 85.1360016
-111.5244064 -159.3917236 84.9990692
-112.7043304 -159.4649200 84.8292236
-113.9034882 -159.5453949 84.6316757
-140.6240845 -163.3708038 70.6848755
-58.9575043 -163.1870728 54.6177979
-60.0364075 -162.6890717 57.0553665
-82.9085388 -158.4164734 80.1826401
-84.0333557 -158.3354950 80.7186203
-85.1455841 -158.2619324 81.2240143
-86.2561951 -158.1938324 81.7022629
-87.3765030 -158.1317749 82.1482925
-88.4978180 -158.0821533 82.5373993
-109.1708679 -158.1208954 85.2728882
-110.3604355 -158.1823425 85.1554642
-111.5299454 -158.2430725 85.0173950
-112.7125168 -158.3162384 84.8492279
-113.8974915 -158.3903503 84.6656723
-140.5845947 -162.1537628 70.8925095
-141.9856567 -162.5089874 69.4279099
-58.9429817 -161.9547729 54.8416214
-60.0154037 -161.4695587 57.2497215
-80.6858978 -157.4486389 79.0217285
-81.8008499 -157.3513489 79.6318741
-82.8982620 -157.2703247 80.1809769
-112.7107391 -157.1670685 84.8530273
-113.8847961 -157.2402191 84.6743546
-122.3714142 -157.9688110 82.4576035
-123.6027451 -158.1040192 81.9962921
-124.8435211 -158.2508240 81.4900665
-126.1091461 -158.4058685 80.9436035
