-135.8797302 -130.2741852 81.5739975
-138.6057739 -130.7762146 79.1419525
-57.7372780 -128.9680481 64.4898071
-59.8448448 -128.3481750 68.3446045
-74.9754257 -125.9775391 84.1141510
-77.1661377 -125.7912598 85.4972076
-118.2701721 -125.9575653 90.5143127
-120.7063828 -126.1593781 89.7130585
-123.1521378 -126.3864670 88.7677078
-125.6385574 -126.6452332 87.6463470
-128.1496582 -126.9364395 86.3444824
-135.9585114 -128.0678253 81.0011063
-138.6928558 -128.5663910 78.5429840
-57.7997093 -126.7952576 63.5810432
-59.8994637 -126.1725006 67.5117264
-75.0334244 -123.8121109 83.4618378
-77.2270737 -123.6268082 84.8594818
-115.9519653 -123.6167526 90.5576172
-125.7287979 -124.4735565 86.9869156
-128.2391663 -124.7617722 85.6760406
-136.0780334 -125.8889084 80.2517090
-138.8038025 -126.3842468 77.7696381
-59.9753838 -124.0250397 66.4913483
-75.1010056 -121.6635895 82.6789474
-77.2961960 -121.4805756 84.0886917
-116.0517120 -121.4679108 89.8201599
-125.8322296 -122.3185120 86.2105408
-128.3573456 -122.6067734 84.8725281
-130.9132996 -122.9308319 83.3281708
-133.5304260 -123.3027267 81.5063858
-136.2014465 -123.7299805 79.3653564
-60.0641632 -121.9095230 65.2324829
-75.1788483 -119.5300522 81.7889252
-77.3795471 -119.3462143 83.2242050
-79.5840225 -119.1891403 84.4956207
-81.7879486 -119.0551147 85.6225128
-113.7688065 -119.1820984 89.5414734
-116.1602325 -119.3318481 88.9841766
-118.5640869 -119.5038910 88.3014145
-121.0044098 -119.7026749 87.4621658
-123.4630280 -119.9267883 86.4692383
-125.9550476 -120.1814880 85.3039093
-128.4951324 -120.4697952 83.9292145
-131.0630646 -120.7957993 82.3443375
-133.6824036 -121.1674271 80.4886856
-136.3654480 -121.5974274 78.2944794
-60.1728668 -119.8267212 63.7506447
-62.2812119 -119.2887573 67.3557129
-64.4076233 -118.8488998 70.3625946
-79.6720886 -117.0709305 83.5153580
-81.8834305 -116.9349060 84.6687317
-84.1047287 -116.8238602 85.6867294
-86.3347931 -116.7312698 86.5774384
-88.5676270 -116.6598587 87.3434067
-95.3323822 -116.5555496 88.9710693
-109.1542664 -116.8227081 89.3722076
-111.5217743 -116.9316711 89.0411072
-113.8898315 -117.0614624 88.5996170
-131.2219238 -118.6788025 81.2244720
-133.8600006 -119.0541077 79.3050232
-60.2965202 -117.7781601 62.0027084
-62.3943176 -117.2204895 65.7855530
-64.5186462 -116.7669830 68.9230042
-79.7749939 -114.9674454 82.4101715
-81.9855728 -114.8316193 83.5872650
-84.2062073 -114.7204132 84.6122437
-86.4410782 -114.6279755 85.5077133
-88.6725922 -114.5539017 86.3036041
-90.9273453 -114.5021133 86.9666824
-93.1759644 -114.4672852 87.5062332
-95.4440613 -114.4523773 87.9451141
-104.6167374 -114.5574417 88.6369705
-106.9516907 -114.6292877 88.5241394
-109.2883759 -114.7173920 88.3226318
-111.6501007 -114.8271179 87.9880829
-114.0279846 -114.9561081 87.5257034
-131.4141846 -116.5823975 79.9334183
-134.0542297 -116.9622498 77.9568481
-62.5263443 -115.1844330 63.9452057
-64.6482315 -114.7098389 67.2853699
-93.2981033 -112.3762970 86.3702164
-95.5695343 -112.3560638 86.8078156
-97.8477249 -112.3578262 87.1486206
-100.1355591 -112.3772430 87.3719788
-102.4421234 -112.4115219 87.4832077
-104.7589645 -112.4657211 87.4789429
-126.4645233 -113.8747559 81.7231598
-129.0167694 -114.1698303 80.2319870
-131.6277618 -114.5061646 78.4687729
-134.2909851 -114.8962173 76.3828278
-62.6900406 -113.1842880 61.8275986
-64.7890015 -112.6824951 65.3706970
-93.4384155 -110.2961884 85.0919647
-95.7113800 -110.2783432 85.5393524
-97.9868317 -110.2792587 85.8806000
-100.2873688 -110.2972870 86.1023331
-102.5924835 -110.3304520 86.2209930
-104.9105453 -110.3860474 86.2149200
-126.6758881 -111.8093643 80.2177963
-129.2475586 -112.1095428 78.6463394
-131.8662109 -112.4546890 76.8012848
-64.9620361 -110.6912384 63.1675911
-67.0805969 -110.2609634 66.3258667
-69.2367554 -109.9008484 69.0458221
-126.9183884 -109.7649307 78.5100555
-129.5134277 -110.0750656 76.8400955
-132.1529999 -110.4316788 74.8854675
-67.2633972 -108.2814178 64.0016174
-69.4008484 -107.8994522 66.8931732
-127.1956635 -107.7443161 76.5758972
-129.8043823 -108.0643311 74.8119659
-132.4722900 -108.4373474 72.6994476
-67.4779587 -106.3464813 61.3200302
-69.6017761 -105.9322510 64.4689636
-71.7456207 -105.5958862 67.0822830
-73.9198914 -105.3121185 69.3753891
-122.3917770 -105.2112656 77.3299942
-124.9263611 -105.4600067 75.9994507
-127.4996033 -105.7492905 74.4048004
-130.1502686 -106.0864944 72.4772415
-69.8356247 -104.0142059 61.5997887
-71.9645996 -103.6482697 64.4874496
-74.1321564 -103.3412781 66.9418488
-122.6960220 -103.2198944 75.0992737
-125.2524185 -103.4826202 73.6583252
-127.8647003 -103.7874146 71.9033279
-72.2157593 -101.7477875 61.4221306
-74.3684387 -101.4099884 64.1502991
-76.5293121 -101.1360092 66.4334030
-78.7164307 -100.9044876 68.4024353
-80.9208832 -100.7135696 70.1493912
-83.1320801 -100.5526428 71.6092529
-118.0120544 -100.8273392 74.9321899
-120.5099335 -101.0265656 73.8657379
-123.0413818 -101.2624359 72.5649338
-125.6251984 -101.5396271 70.9743347
-74.6521988 -99.5313568 60.8626556
-76.7919159 -99.2265930 63.3961754
-78.9763565 -98.9766541 65.5648117
-81.1662979 -98.7670822 67.4275513
-83.3820724 -98.5961456 69.0104294
-118.3664551 -98.8734283 72.2841339
-120.8802338 -99.0887375 71.1076660
-123.4479370 -99.3408051 69.6411209
51.8544464 -119.0483856 -121.6982956
49.0086670 -119.0747833 -121.4605865
46.1683006 -119.1507874 -121.6169586
-77.1103745 -97.3788452 59.8013268
-79.2797165 -97.0943756 62.2424011
-81.4527283 -96.8644562 64.3014145
-83.6678925 -96.6771851 66.0272293
-85.8875351 -96.5262146 67.4989777
-88.1252747 -96.4016953 68.7716141
-113.7914276 -96.6030426 71.1645432
-116.2656097 -96.7658234 70.3333359
-118.7673187 -96.9609985 69.2507629
-121.3163528 -97.1956558 67.9008789
60.2416191 -115.7047424 -118.9901581
57.3417778 -115.5942993 -117.7129288
54.4686928 -115.5439758 -116.8676147
51.6234856 -115.5403748 -116.3927460
48.7828903 -115.5706635 -116.2044373
45.9617920 -115.6449509 -116.3528748
43.1425934 -115.7634506 -116.8053131
40.3381119 -115.9216003 -117.5934601
37.5406837 -116.1213684 -118.7450943
-79.6448212 -95.2908249 58.2127342
-81.7986755 -95.0202026 60.5699158
-83.9973907 -94.8064423 62.5352249
-86.2115021 -94.6365662 64.1792297
-88.4457092 -94.5019531 65.5566101
-114.2093124 -94.7110443 67.9108505
-116.7050247 -94.8878021 66.9376144
65.8312073 -112.6172867 -117.7609024
62.9080811 -112.4419250 -115.9517517
60.0128021 -112.3295441 -114.5915833
57.1296844 -112.2477341 -113.5517883
37.3956375 -112.7556458 -114.4806976
34.6078186 -112.9755783 -115.7637634
31.8263664 -113.2392578 -117.4339447
-84.4046021 -93.0194550 58.2951889
-86.6031036 -92.8133240 60.2003593
-88.8239746 -92.6580658 61.7608147
-91.0754852 -92.5389175 63.0285950
-93.3290329 -92.4514465 64.0886841
-95.6235504 -92.3907776 64.8809052
-97.9222946 -92.3605347 65.5013733
-100.2394409 -92.3513031 65.9015961
-102.5929108 -92.3703995 66.1161346
-104.9523163 -92.4155807 66.1466217
-107.3493652 -92.4878387 65.9558029
-109.7697144 -92.5859451 65.5620270
-112.2133789 -92.7127991 64.9398346
-114.7053986 -92.8755112 64.0375977
71.5279846 -109.7600403 -118.3291092
68.5523376 -109.5168839 -115.8478851
65.6101227 -109.3188934 -113.8787689
62.6946487 -109.1826859 -112.3420181
59.8194695 -109.0926590 -111.1771927
56.9586754 -109.0388336 -110.2927246
37.2897530 -109.5226212 -111.1355972
34.5049896 -109.7201614 -112.2722321
31.7188892 -109.9507141 -113.6921234
28.9372902 -110.2309875 -115.4910431
-89.2957916 -90.9128342 57.0744553
-91.5341721 -90.7626343 58.5665283
-93.7858353 -90.6550598 59.7888107
-96.0707092 -90.5836639 60.6901665
-98.3741760 -90.5443039 61.3746300
-100.7083130 -90.5362701 61.8029785
-103.0633469 -90.5551453 62.0142899
-105.4495773 -90.6043625 61.9841194
-107.8619537 -90.6845322 61.6996384
-110.3043518 -90.7986450 61.1889877
71.2839508 -106.5009689 -114.6369476
68.3369827 -106.2989502 -112.5309753
65.4225006 -106.1452179 -110.8197708
62.5322876 -106.0378799 -109.4760513
37.1944466 -106.3865585 -108.4106827
34.4131203 -106.5682983 -109.4501038
31.6345634 -106.7790451 -110.7384491
-96.6525421 -88.9130936 55.2988167
-98.9562531 -88.8549194 56.1070595
-101.2948380 -88.8366470 56.5866547
-103.6636658 -88.8597717 56.7818489
77.0886307 -103.8768234 -117.0459671
74.0672455 -103.5872040 -114.1236877
71.1007843 -103.3613586 -111.7807617
68.1604919 -103.1879272 -109.8847198
65.2673874 -103.0623474 -108.3567047
62.3841515 -102.9606171 -107.1076279
37.1089668 -103.3273849 -106.1837234
34.3387680 -103.4886627 -107.1212158
76.8770981 -100.7351990 -114.1492615
73.8974152 -100.4966431 -111.5871811
70.9372787 -100.2934113 -109.4480515
68.0243530 -100.1503601 -107.7292557
37.0463676 -100.3158035 -104.2951202
34.2703400 -100.4778442 -105.1991730
79.7309799 -97.9606552 -114.7892532
76.7153168 -97.6837997 -111.8857269
73.7374115 -97.4653473 -109.5114594
70.8103027 -97.2935715 -107.5422516
67.9091568 -97.1679688 -105.9381561
36.9892311 -97.3543472 -102.7302551
82.6376648 -95.2467041 -116.0326080
79.5741577 -94.9294434 -112.7122498
76.5824738 -94.6899872 -110.0508270
73.6246414 -94.4964447 -107.8382034
36.9331512 -94.4298096 -101.4121475
82.4835205 -92.2404480 -114.1248703
79.4451599 -91.9626465 -111.0701904
76.4700623 -91.7450256 -108.5722275
73.5248566 -91.5738678 -106.4906464
36.8804779 -91.5329666 -100.3096161
85.4457397 -89.6080399 -116.1826859
82.3597565 -89.2888336 -112.6407394
79.3376999 -89.0392609 -109.7681427
36.8433113 -88.6761398 -99.4483643
85.3329315 -86.6752472 -114.8659897
82.2677917 -86.3834457 -111.5107040
79.2579727 -86.1544876 -108.7765274
36.8156776 -85.8307114 -98.7410355
88.3699493 -84.1289063 -117.9057312
85.2452469 -83.7824860 -113.8908463
59.0355949 -82.6493530 -98.1872864
56.2275543 -82.6405106 -97.6312027
53.4301758 -82.6459198 -97.2376328
50.6409378 -82.6700211 -97.0082855
47.8605881 -82.7064133 -96.9393692
45.0833969 -82.7596512 -97.0264435
42.3060303 -82.8275528 -97.2564926
39.5520287 -82.9119186 -97.6604080
36.7867279 -83.0122681 -98.2138367
34.0295258 -83.1265640 -98.9313965
88.2868652 -81.2426910 -117.0575562
85.1765442 -80.9222412 -113.2104645
59.0005226 -79.8562241 -97.8240356
56.1896439 -79.8492737 -97.2770233
50.6056290 -79.8755951 -96.6622391
47.8290367 -79.9161377 -96.5988617
42.2883224 -80.0336456 -96.9296494
39.5191269 -80.1170044 -97.3230438
36.7600708 -80.2124481 -97.8655472
34.0007095 -80.3245392 -98.5790863
88.2397461 -78.3971558 -116.5787964
85.1389465 -78.0974884 -112.8454056
58.9782181 -77.0847473 -97.6598892
56.1679573 -77.0770416 -97.1155243
53.3644600 -77.0838089 -96.7471390
50.5915985 -77.1101990 -96.5351791
47.8085861 -77.1402435 -96.4190750
45.0344315 -77.1912308 -96.5049286
39.4977531 -77.3389511 -97.1524277
36.7460175 -77.4286804 -97.6820374
33.9821320 -77.5379410 -98.3782578
31.2235107 -77.6627502 -99.2595673
91.4300690 -75.9630737 -121.1705856
88.2070465 -75.5781021 -116.3830490
85.1080017 -75.2914734 -112.6861267
58.9693069 -74.3279724 -97.6498718
56.1595345 -74.3202438 -97.0993805
53.3645668 -74.3280411 -96.7185669
50.5699158 -74.3480988 -96.4790268
47.7961235 -74.3821869 -96.3947601
45.0187454 -74.4334793 -96.4931488
42.2544670 -74.4974365 -96.7317352
39.4850159 -74.5723572 -97.1144104
36.7242432 -74.6633606 -97.6494751
33.9699554 -74.7671738 -98.3437576
31.2035370 -74.8878784 -99.2152710
28.4495659 -75.0248108 -100.2703934
91.4137268 -73.1536789 -121.2158661
88.1950607 -72.7864227 -116.4756317
85.1038971 -72.5099030 -112.7906799
58.9567184 -71.5840759 -97.7954025
56.1519852 -71.5765457 -97.2326508
45.0167313 -71.6875305 -96.6224594
39.4793777 -71.8216248 -97.2281647
31.1981049 -72.1275635 -99.3326187
28.4402409 -72.2589264 -100.3719025
25.6848297 -72.4062347 -101.5921936
22.9172935 -72.5733566 -103.0372696
6.2107596 -74.1435547 -118.1855087
91.4346161 -70.3771820 -121.6565323
88.2249908 -70.0187225 -116.8713074
85.1148605 -69.7494049 -113.1527328
58.9577675 -68.8510361 -98.0740967
56.1493683 -68.8435135 -97.5141449
39.4786224 -69.0816498 -97.4901733
31.1930885 -69.3800430 -99.6074600
28.4363022 -69.5067978 -100.6412201
25.6823215 -69.6492157 -101.8529510
22.9114685 -69.8109665 -103.2989426
20.1452065 -69.9919205 -104.9697571
17.3739758 -70.1947861 -106.8972244
14.5956440 -70.4235458 -109.1306000
11.8070574 -70.6831055 -111.7290878
9.0109634 -70.9818115 -114.7868042
88.2517090 -67.2703629 -117.5251465
85.1508026 -67.0060959 -113.7565918
58.9725304 -66.1289520 -98.5059128
56.1566849 -66.1245575 -97.9649353
39.4831467 -66.3525085 -97.9020996
9.0063534 -68.1995392 -115.2863464
88.3046646 -64.5424728 -118.4810638
85.1968536 -64.2785339 -114.6059570
58.9843750 -63.4179840 -99.1009293
56.1768723 -63.4115448 -98.5416412
53.3790321 -63.4187698 -98.1381836
50.5869980 -63.4371490 -97.9075623
42.2531052 -63.5655823 -98.0984268
39.4872704 -63.6351509 -98.4752655
8.9975891 -65.4352036 -116.0561600
85.2677383 -61.5697403 -115.7580261
82.2018433 -61.3642235 -112.5052795
79.1980743 -61.2023392 -109.8355865
53.3985443 -60.7131729 -98.8677750
50.6037712 -60.7334404 -98.6377182
42.2642937 -60.8593979 -98.8392944
39.4990616 -60.9268990 -99.2170639
14.5855608 -62.1637878 -111.1705322
11.7937775 -62.4063187 -113.8791504
8.9818420 -62.6867447 -117.0976257
85.3659668 -58.8748932 -117.2246780
82.2792816 -58.6682587 -113.8061676
79.2722015 -58.5034485 -111.0254517
53.4262733 -58.0187683 -99.7827988
50.6272049 -58.0380936 -99.5178680
42.2933426 -58.1606445 -99.7370834
39.5135727 -58.2230072 -100.1213226
14.5795441 -59.4364471 -112.3094330
11.7868462 -59.6747665 -115.0920258
8.9837923 -59.9533005 -118.3987198
85.4759674 -56.1979523 -119.0042572
82.3830109 -55.9834747 -115.4080582
79.3519745 -55.8177910 -112.4715271
76.3763275 -55.6857300 -110.0715942
73.4393768 -55.5808105 -108.0520477
53.4640541 -55.3304329 -100.8631592
50.6614456 -55.3457642 -100.6055145
47.8723412 -55.3773994 -100.5229492
45.0936279 -55.4176369 -100.5798874
42.3133087 -55.4676590 -100.7944489
39.5384407 -55.5279312 -101.1891327
14.5814047 -56.7190628 -113.6899109
11.7957010 -56.9558334 -116.5563202
82.5059509 -53.3131523 -117.3401184
79.4613190 -53.1436462 -114.2338257
76.4680023 -53.0087433 -111.6903305
73.5194092 -52.9011459 -109.5675430
53.4993591 -52.6491280 -102.1138611
50.7002029 -52.6647339 -101.8450241
47.9073639 -52.6918526 -101.7610397
45.1233559 -52.7281952 -101.8113403
42.3405609 -52.7793922 -102.0467529
39.5655289 -52.8414993 -102.4325409
14.5854416 -54.0120964 -115.3411636
82.6501007 -50.6607018 -119.6863556
79.5975342 -50.4798508 -116.3503571
76.5761566 -50.3418808 -113.6070862
73.6141434 -50.2330971 -111.3589630
70.6861496 -50.1464577 -109.4921188
67.7802887 -50.0795593 -107.9179993
64.9035568 -50.0320053 -106.6008759
62.0459747 -49.9959641 -105.5469971
25.7313423 -50.6340599 -108.7567520
22.9519005 -50.7723999 -110.4023743
20.1757240 -50.9326591 -112.3386917
17.3872128 -51.1101685 -114.6257935
14.5900459 -51.3164177 -117.3326721
79.7558594 -47.8359795 -118.8997192
76.7177887 -47.6844559 -115.9015961
73.7419357 -47.5688477 -113.4897842
70.7943192 -47.4846687 -111.4865799
67.8792801 -47.4143906 -109.8209381
64.9934616 -47.3628082 -108.4490356
62.1236801 -47.3283386 -107.3215027
25.7581482 -47.9504128 -110.6003265
22.9817848 -48.0876923 -112.3333893
20.1963539 -48.2449913 -114.3695297
17.4055023 -48.4235840 -116.8005295
14.6019411 -48.6353073 -119.7053757
76.8902969 -45.0402679 -118.6218872
73.8870850 -44.9204559 -115.9818268
70.9315338 -44.8261948 -113.8355637
67.9961777 -44.7539024 -112.0404968
65.0959930 -44.7031860 -110.5565186
62.2238808 -44.6655731 -109.3783569
25.7930050 -45.2684288 -112.7640686
23.0071011 -45.4084511 -114.5882416
20.2175636 -45.5655823 -116.7635574
77.0885010 -42.4178810 -121.9303360
74.0613937 -42.2781830 -118.9753876
71.0828018 -42.1810989 -116.5853348
68.1311798 -42.1037941 -114.6185074
65.2244873 -42.0491066 -113.0205231
62.3324890 -42.0101967 -111.7456512
25.8299427 -42.5968323 -115.2786560
23.0430222 -42.7370224 -117.2396011
20.2561607 -42.9004440 -119.6019440
71.2687531 -39.5484085 -119.8693466
68.3002777 -39.4621124 -117.6796494
65.3786011 -39.3993034 -115.9332275
62.4716415 -39.3571167 -114.5127487
59.5976257 -39.3258781 -113.3916168
56.7352867 -39.3150558 -112.5603333
31.4522171 -39.7047310 -114.9943924
28.6696224 -39.8145523 -116.4396744
25.8795853 -39.9374771 -118.2228851
23.0881844 -40.0798721 -120.3967743
68.5092010 -36.8349876 -121.3842163
65.5645905 -36.7651558 -119.3781891
62.6357651 -36.7129059 -117.7871094
59.7440071 -36.6849251 -116.5255127
56.8653336 -36.6647873 -115.5897064
31.5284538 -37.0515900 -118.1599731
28.7363796 -37.1582260 -119.7650909
25.9385242 -37.2841721 -121.7836151
65.7886505 -34.1502075 -123.6046295
62.8303833 -34.0830421 -121.7196808
59.9263306 -34.0441055 -120.2574615
57.0266380 -34.0200500 -119.1990433
54.1591034 -34.0171509 -118.3967896
51.3098526 -34.0214005 -117.9189987
48.4731140 -34.0389137 -117.6948700
45.6449738 -34.0671501 -117.7529755
42.8263016 -34.1112099 -118.0421600
40.0142441 -34.1627655 -118.5892487
37.2054634 -34.2303200 -119.4194946
34.4156303 -34.3090744 -120.5366745
31.6190453 -34.4038582 -121.9951935
28.8236427 -34.5193253 -123.8407593
60.1537666 -31.4333267 -124.9349670
57.2257271 -31.4011211 -123.6216125
54.3536758 -31.3855801 -122.6698761
51.4781151 -31.3868961 -122.0962753
48.6268005 -31.4006443 -121.8200760
45.7873993 -31.4293137 -121.8583755
42.9595718 -31.4719639 -122.1749573
40.1406631 -31.5244904 -122.8324280
37.3254662 -31.5924873 -123.7815323
34.5280876 -31.6781578 -125.0692139
51.6981697 -28.7783203 -127.4613953
48.8442116 -28.7870502 -127.0949402
-96.3375244 -183.0550079 65.6625366
-97.4767380 -182.9904633 66.1196823
-98.5539474 -182.9466553 66.4279480
-99.6964493 -182.9342651 66.6320572
-100.9350433 -182.9276733 66.8166733
-91.4478149 -181.4347534 66.8135300
-92.5132217 -181.2538910 67.5972748
-93.5564957 -181.1362457 68.2229080
-94.7182617 -181.0275574 68.8285522
-95.9164124 -180.9258575 69.3827362
-99.2791748 -180.8504944 70.1853104
-100.5237885 -180.8519287 70.3345032
-101.7432785 -180.8913422 70.3726501
-102.8851929 -180.9437256 70.3286591
-103.9966278 -180.9935608 70.2311707
-105.2677841 -181.0943298 69.9896240
-106.5583649 -181.2164459 69.6869507
-86.7397690 -180.2629395 66.1064453
-87.7295074 -180.0540771 67.1603699
-88.7916031 -179.8737183 68.1923141
-89.9479218 -179.6411285 69.1616364
-91.1216660 -179.4597473 70.0131683
-92.1752777 -179.3644409 70.6116104
-93.2248077 -179.2837524 71.1219559
-94.3949814 -179.1800232 71.6824646
-95.6025772 -179.1135559 72.1523743
-98.9532547 -179.0447083 72.8979340
-100.1957779 -179.0465088 73.0473022
-101.4270020 -179.0854340 73.0819244
-102.5641937 -179.1246033 73.0716095
-103.6715240 -179.1770020 73.0033722
-104.9089508 -179.2418671 72.8549118
-106.2109146 -179.3456421 72.5886688
-107.4237289 -179.4850616 72.2454758
-108.5582809 -179.6039124 71.8729095
-109.7735825 -179.7684937 71.3765106
-111.1189957 -179.9948273 70.7070465
-112.4570770 -180.2551117 69.8521729
-85.3610840 -178.5808411 68.1105118
-86.4304199 -178.3255005 69.2092438
-110.7713470 -178.1291199 73.4250336
-112.0956802 -178.3294220 72.7675323
-81.8501587 -177.5867004 66.8518219
-82.8690720 -177.3030396 68.1261292
-83.9440536 -177.0543213 69.4015656
-85.0894699 -176.7866821 70.6632462
-86.1803284 -176.6100311 71.6076584
-110.5041656 -176.4610443 75.6403732
-111.8054962 -176.6226654 75.1149445
-112.9744034 -176.7700653 74.5915604
-114.1446381 -176.9503479 73.9745789
-115.4807816 -177.2340088 73.1402588
-79.4763489 -176.4016418 66.6494904
-80.6055908 -176.0389709 68.2618713
-81.6047363 -175.7961273 69.4570770
-115.1665497 -175.5060120 75.3558960
-116.5709000 -175.7698059 74.4565735
-77.1630478 -175.3734589 65.7968140
-78.1681976 -175.0075226 67.4692001
-79.2722473 -174.6493835 69.1098328
-80.3861084 -174.3378601 70.5477676
-81.3871460 -174.1406250 71.5848999
-114.9017181 -173.8860321 77.2948608
-116.2922516 -174.1143036 76.4866333
-75.9674835 -173.9149933 66.7258148
-76.9412003 -173.6027832 68.2440414
-114.6836090 -172.3460541 78.9552917
-116.0732498 -172.5667877 78.2151184
-117.3331909 -172.7765045 77.5083542
-118.4924850 -172.9533386 76.8287659
-119.7509918 -173.1923370 75.9633331
-74.7535095 -172.5678864 67.3368378
-75.7669373 -172.2348938 68.9658737
-76.7556381 -171.9538269 70.3182144
-114.4919357 -170.8512878 80.4074326
-115.8682404 -171.0505829 79.7437286
-117.1063461 -171.2367859 79.1143036
-118.2678833 -171.4123688 78.4888306
-119.4964905 -171.6170654 77.7247009
-120.9058533 -171.9026337 76.7010498
-122.3076859 -172.2246399 75.6103363
-72.4342499 -171.7806702 65.4767075
-73.4730835 -171.3464966 67.4637299
-74.5728073 -170.9313354 69.3875275
-122.0640411 -170.6407013 77.3076172
-123.2863770 -170.8886719 76.3731689
-72.2516785 -170.0906372 67.6496887
-73.2970276 -169.7395630 69.4010925
-74.4133148 -169.3767395 71.1240082
-121.8546600 -169.1461639 78.8140030
-123.0639725 -169.3629303 77.9600220
-124.2769012 -169.6188660 77.0360260
-72.0908585 -168.5262451 69.4520264
-86.1705780 -166.1528320 82.0031281
-87.2666321 -166.0585632 82.5031891
-88.4501572 -165.9550934 83.1431046
-89.6536102 -165.8308868 83.7632599
-90.6826477 -165.8397827 83.9667435
-91.7262039 -165.8146362 84.2039337
-124.0627899 -168.1075745 78.5240173
-125.4264679 -168.4135437 77.4025879
-126.9270401 -168.8007507 75.9448166
-70.9659195 -167.3120728 69.5286560
-71.9742584 -167.0144501 71.0092010
-86.0732346 -164.8178711 82.9047165
-87.1634750 -164.7450714 83.3580627
-91.6331100 -164.5092773 85.0238724
-123.8814621 -166.6523743 79.8469086
-125.2347107 -166.9319458 78.7829590
-126.6789398 -167.2554932 77.5013885
-69.8414459 -166.1225739 69.4905319
-70.8541336 -165.8130341 71.0032883
-71.8551559 -165.5583954 72.3552246
-85.9976501 -163.4594421 83.7652664
-87.0759048 -163.4049988 84.1857224
-91.5526276 -163.1819916 85.8483887
-126.5007935 -165.8041687 78.8414917
-69.7397995 -164.6426849 70.8884735
-70.7512817 -164.3672333 72.3066940
-71.7556839 -164.1238098 73.5755768
-85.9176788 -162.1463623 84.5566711
-87.0030823 -162.0930481 84.9760132
-88.2036209 -161.9576111 85.6151276
-89.3706131 -161.8860626 86.1507874
-90.4256744 -161.8631592 86.3918304
-91.4856110 -161.8653259 86.6124802
-126.3159943 -164.3771210 80.0598984
-127.6339493 -164.6405334 78.9633865
-128.8839417 -164.9121552 77.8628616
-66.4555130 -164.3333893 66.5700073
-67.4691162 -163.9323578 68.5411072
-68.5562134 -163.5480957 70.4468155
-69.6280823 -163.2244110 72.0954819
-128.7218933 -163.5048676 79.0906677
-65.3482590 -163.2467194 66.0982513
-66.3463898 -162.8451233 68.0291901
-67.3616486 -162.4968719 69.8215866
-68.4574890 -162.1277771 71.6206360
-69.5460892 -161.8181915 73.1949615
-128.5507813 -162.0989990 80.1820679
-129.8572845 -162.3912811 79.0682907
-66.2388840 -161.4214478 69.2520828
-67.2693024 -161.0872803 70.9543915
-88.0003967 -158.1228027 87.5641556
-89.1744843 -158.0391846 88.0629807
-128.4006805 -160.7346802 81.1556320
-129.7066650 -161.0049591 80.0725784
-131.1355591 -161.3379974 78.7620392
-64.1362381 -160.7482452 66.6709137
-65.1625595 -160.3490906 68.6756668
-66.1617279 -160.0181122 70.3683243
-67.1989212 -159.7069855 71.9821091
-87.9435577 -156.8589935 88.1147156
-89.1077042 -156.8052673 88.5608826
-128.2723541 -159.3851013 82.0348587
-129.5733032 -159.6480560 80.9988174
-130.9819183 -159.9577026 79.7428055
-132.4307556 -160.3144989 78.3591614
-62.9874687 -159.7870483 65.5650864
-64.0533600 -159.3218079 67.8636703
-65.0720139 -158.9614868 69.7269287
-81.2056046 -156.0786743 85.5389938
-82.3210220 -155.9758453 86.1668549
-83.4763641 -155.8719482 86.7983780
-84.5815735 -155.8030090 87.2905807
-85.6480865 -155.7482147 87.6949234
-86.7401581 -155.6919403 88.1250763
-130.8382721 -158.6020050 80.6564331
-61.8520775 -158.8596497 64.3287811
-62.8956451 -158.3712463 66.7228012
-63.9559517 -157.9523621 68.8628540
-64.9976349 -157.6008911 70.6682892
-81.1610718 -154.8344421 86.0338593
-82.2790070 -154.7307129 86.6558990
-85.5952301 -154.5132294 88.1603317
-86.6963730 -154.4587402 88.5944901
-130.7141418 -157.2748413 81.4674225
-61.7877731 -157.4227600 65.5390778
-62.8153229 -156.9920044 67.7517090
-81.1183472 -153.5979919 86.4858856
-82.2369385 -153.4993896 87.0980682
-86.6544876 -153.2289429 89.0280151
-101.3538742 -153.0412903 91.9706421
-102.5191727 -153.0678864 91.9801178
-103.7278442 -153.1246643 91.9370117
-104.8939896 -153.1666260 91.8948669
-106.0019989 -153.2020721 91.8574219
-107.1515198 -153.2523804 91.7670593
-130.6093750 -155.9657288 82.1856155
-131.9872589 -156.2553864 81.0051117
-133.3043060 -156.5429993 79.8137970
-134.6706848 -156.8757935 78.5166931
-60.7051544 -156.4926605 64.3106079
-61.7084045 -156.0450287 66.5534515
-62.7551193 -155.6287079 68.6803741
-81.0762482 -152.3721924 86.9059677
-82.1992340 -152.2767639 87.4990997
-83.3464355 -152.1843872 88.0793610
-84.4441299 -152.1232452 88.5675049
-85.5162659 -152.0658569 88.9904556
-86.6161804 -152.0097351 89.4150391
-101.3074646 -151.8281860 92.3238678
-102.4741592 -151.8618011 92.3370209
-104.8418427 -151.9485016 92.2712173
-105.9547119 -151.9949799 92.2263718
-107.1067123 -152.0384521 92.1403885
-130.5112610 -154.6771851 82.8360138
-131.8791351 -154.9555359 81.7067261
-133.1743774 -155.2225647 80.5716553
-134.5198364 -155.5306091 79.3063507
-61.6403503 -154.7027740 67.4292297
-62.6851311 -154.3165283 69.4408493
-99.0403519 -150.5953064 92.5108948
-100.1547394 -150.6124725 92.5902557
-101.2831039 -150.6333160 92.6449509
-102.4341354 -150.6610565 92.6634521
-105.9080658 -150.7802124 92.5707550
-107.0594635 -150.8356628 92.4803619
-133.0881042 -153.9314728 81.2302628
-134.4043884 -154.2207184 80.0125427
-135.8233032 -154.5643616 78.5894775
-60.5835724 -153.7535706 66.2167816
-61.5855637 -153.3733215 68.2200699
-62.6422005 -153.0001984 70.1764526
-98.9996338 -149.4042358 92.8065948
-102.4082489 -149.4664154 92.9590225
-103.5901794 -149.5072632 92.9414139
-104.7536469 -149.5524292 92.9122009
-105.8733444 -149.5826721 92.8712463
-107.0230484 -149.6370239 92.7813721
-132.9932098 -152.6512299 81.8303909
-134.3087463 -152.9288025 80.6527939
-135.6917725 -153.2471161 79.2992096
-59.5084457 -152.8582001 64.7889252
-60.5180740 -152.4376831 66.9678650
-98.9629745 -148.2084198 93.0701065
-102.3720703 -148.2806854 93.2236710
-135.6020813 -151.9628601 79.9092941
-137.0516205 -152.3177795 78.4253082
-59.4835129 -151.5091553 65.6137466
-60.4794159 -151.1200562 67.7007980
-98.9317322 -147.0371094 93.2934036
-100.0658493 -147.0564117 93.3728714
-101.1987839 -147.0760803 93.4312744
-102.3383789 -147.0920410 93.4593201
-135.5097504 -150.6892853 80.4591980
-58.3595352 -150.6949158 63.7910652
-59.4243927 -150.2196198 66.2561035
-60.4262161 -149.8462067 68.2682114
-85.3850098 -146.0931702 90.4043045
-86.4907684 -146.0488281 90.8133240
-87.6236572 -146.0012665 91.2054596
-88.7471848 -145.9557953 91.5626678
-135.4403992 -149.4378662 80.9364624
-59.3783913 -148.9446564 66.8121109
-60.3883018 -148.5822296 68.7784195
-85.3697205 -144.9316101 90.5779114
-86.4818726 -144.8760986 90.9959564
-87.6035309 -144.8306732 91.3836441
-88.7224579 -144.7980804 91.7335358
-135.3680573 -148.1938171 81.3724976
-136.7912140 -148.5100555 79.9982605
-59.3307114 -147.6864471 67.2937012
-60.3462486 -147.3372803 69.2138367
-76.5145645 -144.3962097 86.2981873
-77.6203308 -144.2938843 86.9865570
-78.7395401 -144.1932068 87.6381836
-79.8240662 -144.1071777 88.2288742
-80.9177017 -144.0274200 88.7879868
-82.0226746 -143.9557648 89.3219528
-83.1527252 -143.8783569 89.8346100
-84.2515564 -143.8202057 90.2940521
-85.3442001 -143.7800293 90.7184753
-87.5786743 -143.6733398 91.5305710
-88.7110596 -143.6322784 91.8787003
-89.8137054 -143.5994568 92.2026596
-90.9339523 -143.5658417 92.5109406
-92.0539627 -143.5487671 92.7864761
-93.1875916 -143.5303802 93.0276260
-94.3153610 -143.5205536 93.2251282
-95.4462814 -143.5289001 93.3975830
-98.8611832 -143.5362854 93.8072205
-99.9891129 -143.5516510 93.8943939
-101.1321793 -143.5730591 93.9544296
-102.2786713 -143.5994110 93.9767303
-103.4451370 -143.6343079 93.9751663
-104.5986176 -143.6688538 93.9563599
-105.7472076 -143.7117004 93.9070969
-106.9091034 -143.7590637 93.8238754
-108.0817032 -143.8161774 93.7105103
-109.2621536 -143.8782043 93.5727921
-135.3117676 -146.9666138 81.7366333
-57.2301407 -147.2996826 63.0523682
-58.2559776 -146.8395691 65.5419159
-59.3091087 -146.4320526 67.7478180
-60.3311768 -146.0955811 69.6141968
-76.4984741 -143.2281342 86.4540710
-77.6117630 -143.1224518 87.1412964
-78.7186737 -143.0309296 87.7767563
-79.8078461 -142.9462280 88.3597870
-80.9003754 -142.8661652 88.9184570
-82.0080261 -142.7910919 89.4539566
-83.1322174 -142.7207642 89.9609985
-84.2430191 -142.6626434 90.4214325
-88.7005844 -142.4776459 92.0040588
-89.8038254 -142.4472656 92.3276443
-90.9229279 -142.4157257 92.6365814
-94.3022842 -142.3696289 93.3429260
-95.4259796 -142.3655548 93.5197754
-98.8513184 -142.3810120 93.9323196
-102.2746887 -142.4464722 94.1058044
-103.4249649 -142.4759521 94.1040649
-106.8975296 -142.6070862 93.9551544
-108.0564270 -142.6565552 93.8456650
-109.2375259 -142.7169342 93.7058868
-135.2536316 -145.7476959 82.0535583
-136.6660614 -146.0454712 80.7525482
-138.0516815 -146.3545532 79.3789520
-56.1704521 -146.5522614 60.8020706
-57.1956711 -146.0382538 63.5266228
-58.2181854 -145.5999908 65.9359589
-76.4910507 -142.0704651 86.5707779
-77.5987320 -141.9638367 87.2558746
-80.8968353 -141.7057800 89.0388489
-81.9962234 -141.6386261 89.5581970
-83.1166992 -141.5711212 90.0616913
-84.2325134 -141.5097504 90.5189514
-94.2982635 -141.2243347 93.4305267
-95.4181976 -141.2183533 93.6166992
-96.5387573 -141.2111511 93.7814102
-97.6836166 -141.2219849 93.9161301
-98.8415146 -141.2339325 94.0286713
-103.4082031 -141.3246460 94.2112579
-108.0499878 -141.5198212 93.9684753
-109.2366791 -141.5669861 93.8108902
-110.3930206 -141.6274414 93.6465225
-111.5602341 -141.6979370 93.4623718
-112.7385025 -141.7719727 93.2438965
-113.9437103 -141.8591309 92.9802780
-115.1503143 -141.9536285 92.6902618
-116.3161926 -142.0373840 92.3911896
-117.5167923 -142.1419525 92.0384903
-118.7369690 -142.2546539 91.6426392
-119.9575043 -142.3673706 91.2256012
-121.1632996 -142.4887695 90.7795258
-137.9875183 -145.1300659 79.6990967
-57.1750488 -144.7863159 63.9643707
-58.2019424 -144.3600464 66.3068542
-76.4814682 -140.9125671 86.6607895
-77.5802231 -140.8134003 87.3406067
-80.8923035 -140.5543823 89.1277771
-81.9901505 -140.4890289 89.6454926
-83.1139374 -140.4184570 90.1506577
-84.2187119 -140.3626709 90.6010132
-94.2859650 -140.0739288 93.5079803
-95.4069977 -140.0752716 93.6914520
-96.5437088 -140.0769501 93.8453217
-97.6779709 -140.0792542 93.9815521
-104.5612335 -140.2204437 94.2478485
-109.2151260 -140.4185486 93.8880081
-110.3797836 -140.4836121 93.7253952
-111.5467911 -140.5519714 93.5435181
-112.7276077 -140.6255646 93.3245697
-113.9306564 -140.7077484 93.0706100
-115.1271362 -140.7966309 92.7916336
-116.3045654 -140.8878479 92.4834442
-117.5098572 -140.9903717 92.1240616
-118.7267761 -141.1012573 91.7378540
-119.9533997 -141.2148132 91.3230209
-121.1560593 -141.3340149 90.8812714
-137.9423523 -143.9190979 79.9639664
-139.3195343 -144.2323914 78.5527420
-56.1447830 -144.0214386 61.7366371
-57.1517906 -143.5527191 64.3131104
-58.1822281 -143.1450195 66.5850983
-80.8793716 -139.4135742 89.1813812
-96.5364380 -138.9365845 93.8654099
-109.2033844 -139.2757416 93.9357529
-112.7157135 -139.4772797 93.3838882
-119.9327698 -140.0614319 91.4011230
-121.1343918 -140.1778412 90.9583359
-137.9005585 -142.7181702 80.1887817
-139.2680817 -143.0221863 78.8068848
-56.1077003 -142.7918243 62.0564461
-57.1288910 -142.3381653 64.5663757
-58.1567574 -141.9446106 66.7813339
-80.8685913 -138.2737579 89.2078781
-112.7167587 -138.3436279 93.3988342
-113.9084778 -138.4220123 93.1559753
-115.1095123 -138.5102386 92.8776474
-116.2961502 -138.6025391 92.5670776
-119.9308548 -138.9190979 91.4347076
-121.1239700 -139.0313416 91.0017548
-137.8772888 -141.5299530 80.3509750
-139.2433319 -141.8299103 78.9782181
-140.6721802 -142.1673126 77.4399185
-56.0854111 -141.5751343 62.3123093
-80.8770828 -137.1408081 89.1982269
-81.9833298 -137.0708313 89.7234955
-111.5412750 -137.1381226 93.6079865
-112.7092438 -137.2103119 93.3959579
-113.9052811 -137.2874146 93.1562347
-115.1012573 -137.3733673 92.8796692
-116.2809753 -137.4659271 92.5621033
-118.6904297 -137.6810303 91.8451920
-119.9192352 -137.7777863 91.4444504
-121.1189575 -137.8905640 91.0168152
-140.6347504 -140.9708710 77.6059418
-56.0785713 -140.3771057 62.4654732
-80.8786163 -136.0148773 89.1537323
-81.9798737 -135.9504395 89.6655045
-111.5324936 -136.0099945 93.5835876
-112.7096558 -136.0811768 93.3721008
-113.9080505 -136.1600800 93.1293335
-115.0905151 -136.2411499 92.8561478
-119.9163284 -136.6420593 91.4366913
-121.1277924 -136.7556458 91.0009766
-140.6174622 -139.7878113 77.7246170
-78.6870117 -135.0429993 87.9753418
-79.7791290 -134.9669495 88.5479050
-80.8845444 -134.8927917 89.0966339
-111.5420074 -134.8894958 93.5254974
-112.7188721 -134.9597931 93.3158035
-113.9147491 -135.0368652 93.0725555
-115.1031952 -135.1172943 92.8106689
-119.9193115 -135.5096283 91.4025726
-121.1243286 -135.6240692 90.9668121
-122.3493042 -135.7481689 90.4834213
-123.5711517 -135.8751373 89.9722443
-124.8250427 -136.0149384 89.4081497
-126.0834198 -136.1634827 88.7966843
-140.5880432 -138.6098328 77.8071747
-78.6938553 -133.9228973 87.8983536
-79.7937164 -133.8467407 88.4699707
-113.9234467 -133.9174194 93.0019531
-115.1016464 -133.9960938 92.7377167
-116.2887878 -134.0821533 92.4483337
-117.4970551 -134.1771393 92.1116180
-118.7056198 -134.2797241 91.7385025
-119.9188309 -134.3851471 91.3359604
-123.5806580 -134.7462158 89.9206924
-124.8356628 -134.8859100 89.3456879
-126.0943146 -135.0330200 88.7369385
-140.6040039 -137.4513397 77.7980652
-78.7063141 -132.8082886 87.7869720
-79.7962646 -132.7346497 88.3539810
-80.8993988 -132.6615906 88.9077454
-113.9278488 -132.8006134 92.9047165
-119.9398499 -133.2689362 91.2287140
-124.8479767 -133.7620239 89.2555008
-126.0874023 -133.9039764 88.6581192
-140.6077118 -136.2979126 77.7558517
-78.7150421 -131.6986389 87.6528320
-113.9356689 -131.6891937 92.7791443
-119.9463654 -132.1533661 91.1054459
-121.1708832 -132.2652893 90.6728668
-122.3824615 -132.3820801 90.2072906
-123.6101990 -132.5079346 89.6953659
-124.8662949 -132.6443176 89.1305389
-126.1147003 -132.7864685 88.5304337
-140.6252747 -135.1548767 77.6609726
-55.0743294 -134.9921570 59.8053055
-56.0954514 -134.5509949 62.3817368
-78.7247009 -130.5923309 87.4935150
-113.9592819 -130.5831451 92.6304474
-115.1586990 -130.6643677 92.3552704
-116.3514786 -130.7518616 92.0446701
-140.6319122 -134.0146179 77.5446320
-56.0934448 -133.4193573 62.1803741
-78.7434235 -129.4907227 87.3072205
-116.3671112 -129.6481171 91.8698730
-140.6379700 -132.8830872 77.3806839
-56.1201286 -132.2896423 61.9684448
-78.7565842 -128.3943634 87.0869293
-116.3873062 -128.5490723 91.6668625
-140.6837769 -131.7664490 77.1371460
-56.1600189 -131.1773682 61.6573486
-78.7841644 -127.3008499 86.8498077
-115.2361908 -127.3724976 91.7250671
-116.4254227 -127.4560928 91.4276199
-140.7149048 -130.6519318 76.8779907
-142.1755524 -130.9755707 75.2513428
-55.1673737 -130.5335693 58.5109444
-56.1851234 -130.0790100 61.2575684
-78.8141708 -126.2119217 86.5865021
-79.9221802 -126.1366577 87.1772156
-81.0046539 -126.0659180 87.7285233
-111.6973724 -126.0662231 92.1843185
-112.8743057 -126.1330414 91.9735413
-114.0561218 -126.2050323 91.7404480
-115.2713013 -126.2840271 91.4611816
-116.4588699 -126.3665161 91.1667786
-140.7624969 -129.5464020 76.5616608
-142.2212524 -129.8689728 74.9229736
-56.2115021 -128.9875793 60.8150711
-78.8355408 -125.1247635 86.2966919
-79.9416199 -125.0517426 86.8882904
-81.0500031 -124.9824677 87.4474487
-111.7326202 -124.9808807 91.9091034
-112.9111938 -125.0455322 91.7064819
-114.1009445 -125.1186600 91.4595642
-115.3035812 -125.1974792 91.1755905
-116.4904022 -125.2800903 90.8837662
-140.8145905 -128.4460297 76.2119751
-56.2534828 -127.9015808 60.3348618
-78.8645859 -124.0432510 85.9816284
-114.1428833 -124.0356979 91.1528015
-117.7468033 -124.2856140 90.2287369
-118.9428558 -124.3785477 89.8686066
-120.1538239 -124.4765244 89.4783859
-121.3658371 -124.5820236 89.0440598
-122.6006622 -124.6957397 88.5595245
-123.8294296 -124.8166809 88.0424652
-140.8971863 -127.3593597 75.7803192
-55.2551842 -127.2877045 56.8986740
-56.2922287 -126.8329620 59.7491684
-78.8995056 -122.9659576 85.6279373
-114.1838379 -122.9586639 90.8155823
-117.7796631 -123.2068176 89.8897095
-122.6377182 -123.6172409 88.2074509
-123.8795090 -123.7370605 87.6812286
-140.9586334 -126.2745285 75.3315125
-55.2931442 -126.2317352 56.1796265
-56.3344421 -125.7736740 59.0924721
-57.3449478 -125.3651581 61.6393471
-58.3658180 -125.0119934 63.8567772
-78.9354477 -121.8951569 85.2497177
-80.0384827 -121.8192978 85.8562775
-114.2302551 -121.8847427 90.4526825
-117.8315887 -122.1319962 89.5164948
-119.0319977 -122.2242584 89.1576767
-120.2519455 -122.3219452 88.7551041
-121.4805679 -122.4277420 88.2987595
-122.7049255 -122.5416260 87.8139343
-123.9374237 -122.6602325 87.2940598
-138.2236176 -124.6312790 77.7606583
-139.5978851 -124.8998718 76.3849945
-141.0463104 -125.1973572 74.8203659
-56.3758202 -124.7238770 58.3561554
-57.3923683 -124.3123474 60.9669571
-58.4107285 -123.9504700 63.2500305
-78.9692612 -120.8237305 84.8479309
-80.0691681 -120.7508545 85.4467621
-81.1806335 -120.6832428 86.0112000
-82.2840118 -120.6207886 86.5362930
-83.4027176 -120.5661469 87.0389099
-111.9164200 -120.6818390 90.5036163
-113.0929947 -120.7456284 90.3002625
-114.2752762 -120.8160858 90.0612030
-117.8876801 -121.0594711 89.1224976
-119.0785141 -121.1517181 88.7595215
-120.3052979 -121.2510910 88.3456726
-121.5244293 -121.3559418 87.8959961
-122.7542648 -121.4686584 87.4104919
-123.9838104 -121.5879364 86.8878021
-138.3018494 -123.5596924 77.2410049
-139.6926575 -123.8322754 75.8329468
-57.4489517 -123.2645416 60.2340012
-58.4850578 -122.8928223 62.6212044
-83.4358215 -119.4990921 86.6036377
-84.5497589 -119.4540939 87.0516510
-93.5111389 -119.2168121 89.8069992
-94.6409912 -119.2012024 90.0263901
-95.7645187 -119.1800461 90.2268219
-101.4778900 -119.2464294 90.7667999
-111.9671783 -119.6139603 90.0959702
-138.3881226 -122.4948349 76.6755219
-139.7695923 -122.7673798 75.2565994
-56.4527435 -122.6480789 56.6720657
-57.5032539 -122.2268677 59.4334335
-58.5179291 -121.8558502 61.8119316
-83.4792175 -118.4391327 86.1704865
-84.5956726 -118.3870239 86.6416321
-85.7013397 -118.3405457 87.0820007
-86.8229218 -118.2954788 87.5037689
-87.9252243 -118.2588730 87.8812027
-89.0648804 -118.2351913 88.2287598
-90.1775208 -118.2068176 88.5385818
-93.5572128 -118.1508331 89.3584595
-94.6913681 -118.1455154 89.5778198
-95.8200836 -118.1395340 89.7718964
-96.9560165 -118.1382675 89.9489594
-98.0828781 -118.1456985 90.0947876
-99.2481842 -118.1476898 90.1956787
-100.3759384 -118.1715088 90.2762833
-101.5354462 -118.1871109 90.3134537
-104.9745407 -118.2641602 90.3728180
-108.4984131 -118.3817291 90.1374512
-109.6580429 -118.4354172 90.0130844
-110.8251953 -118.4907227 89.8558350
-112.0202103 -118.5510864 89.6581039
-138.4719391 -121.4366608 76.0741730
-139.8809814 -121.7130432 74.6019897
-57.5535507 -121.2003784 58.5473862
-58.5962524 -120.8207703 61.0382919
-90.2290955 -117.1454544 88.0756683
-91.3611984 -117.1265488 88.3741302
-92.4725800 -117.1098175 88.6511307
-93.6092529 -117.0949554 88.9041901
-97.0107956 -117.0831299 89.4828491
-98.1446075 -117.0852127 89.6162872
-101.5868301 -117.1275558 89.8660431
-105.0463562 -117.2054291 89.9070129
-106.2083817 -117.2406464 89.8556595
-107.3775024 -117.2811356 89.7808838
-135.8138123 -119.8941650 77.9968719
-137.1907806 -120.1291351 76.7579651
-138.5750275 -120.3848419 75.4078369
-58.6536865 -119.7989655 60.1277771
-90.2759171 -116.0919571 87.5938339
-91.4023361 -116.0682220 87.8939972
-92.5243835 -116.0499573 88.1731415
-93.6557007 -116.0398636 88.4203033
-97.0606461 -116.0265884 88.9923019
-98.1935196 -116.0288544 89.1402206
-102.7887344 -116.0931244 89.4301529
-103.9444351 -116.1204453 89.4428864
-105.0990295 -116.1503220 89.4196854
-106.2712402 -116.1847076 89.3632813
-107.4321060 -116.2252960 89.2895050
-135.9303284 -118.8476715 77.3166199
-137.2873993 -119.0843048 76.0730972
-138.6921387 -119.3386383 74.6903305
-58.7252502 -118.7807922 59.1811371
-97.1232758 -114.9698563 88.4873962
-98.2507477 -114.9840469 88.6422653
-99.4022217 -114.9829102 88.7567902
-102.8554306 -115.0391083 88.9113770
-136.0234680 -117.8032837 76.6130142
-137.3948364 -118.0435944 75.3296204
-58.7907257 -117.7854004 58.0779839
-97.1799774 -113.9224472 87.9495316
-98.3123779 -113.9229736 88.0852432
-99.4665680 -113.9308319 88.1942596
-100.6138306 -113.9489670 88.2765350
-101.7699509 -113.9653320 88.3257980
-102.9199677 -113.9896393 88.3658676
-136.1354980 -116.7685089 75.8454666
-137.5249023 -117.0099030 74.5209961
-58.8442802 -116.7863998 56.8954849
-59.8956680 -116.4297485 59.3998604
-60.9079208 -116.1089630 61.5507011
-136.2636719 -115.7420959 75.0138702
-59.9831009 -115.4427490 58.2246475
-60.9967880 -115.1148987 60.4667206
-136.4035950 -114.7213364 74.1161804
-60.0374908 -114.4587555 56.9067078
-61.0969086 -114.1280899 59.3158607
-133.8126221 -113.2570953 75.6558456
-135.1673584 -113.4704056 74.4677124
-136.5437775 -113.7041473 73.1742554
-61.1772003 -113.1528015 58.0102539
-133.9533234 -112.2407837 74.7130814
-135.3004150 -112.4645920 73.5127487
-61.2307854 -112.1855774 56.5208130
-62.3160439 -111.8653946 58.9586258
-63.3419952 -111.5650024 61.0435066
-134.0913696 -111.2332611 73.7182922
-135.4745483 -111.4613190 72.4347610
-136.8879852 -111.7041626 71.0090332
-62.4173393 -110.9045029 57.5564270
-63.4430313 -110.5982208 59.7297440
-134.2578735 -110.2385864 72.6305466
-135.6522522 -110.4708023 71.2808685
-137.0563965 -110.7273178 69.8048782
-63.5590134 -109.6460114 58.3071404
-64.5906219 -109.3556824 60.3665199
-65.6211548 -109.1013336 62.1756058
-134.4373932 -109.2509918 71.4539948
-135.8348541 -109.4907608 70.0503998
-63.6723709 -108.7007141 56.7177010
-64.7064209 -108.4070816 58.9085426
-65.7325134 -108.1395950 60.8353348
-134.6217346 -108.2748184 70.1878052
-136.0411377 -108.5204468 68.7050705
-64.8243179 -107.4634399 57.3070831
-65.8512878 -107.1888046 59.3556175
-132.0562897 -106.8583603 71.4730301
-133.4342499 -107.0738220 70.2088394
-134.8282776 -107.3119888 68.8082275
-64.9335938 -106.5393982 55.5067635
-65.9700775 -106.2633209 57.7028999
-132.2489471 -105.8886490 70.1481018
-133.6454315 -106.1144714 68.7996750
-135.0472260 -106.3598557 67.3197708
-66.1010666 -105.3398285 55.8697281
-67.1430206 -105.0683136 57.9969788
-68.1958466 -104.8082733 59.9308167
-129.7540588 -104.5298996 71.0850525
-131.0913544 -104.7232132 69.9690628
-132.4681702 -104.9308853 68.6969910
-67.2686310 -104.1496353 56.1169662
-68.3295670 -103.8889618 58.1928177
-129.9528046 -103.5657272 69.6678772
-131.3369751 -103.7655106 68.4370804
-132.7071533 -103.9865417 67.1154022
-68.4739609 -102.9779968 56.2980423
-69.5126114 -102.7312012 58.2423706
-70.5595703 -102.5003738 59.9801178
-127.5004578 -102.2529449 70.3140259
-128.8248901 -102.4304657 69.2869492
-130.1583252 -102.6186981 68.1566925
-68.6163940 -102.0836258 54.1530418
-69.6789703 -101.8377838 56.3041992
-70.7105255 -101.5916595 58.1642876
-127.7043457 -101.3009644 68.7989883
-129.0601807 -101.4834595 67.6847153
-69.8230591 -100.9374695 54.0651474
-70.8732605 -100.6922379 56.1579399
-71.9061203 -100.4723511 57.9171791
-72.9672852 -100.2611465 59.5796967
-125.2828979 -100.0302887 69.1804428
-126.6004028 -100.1896057 68.2168884
-127.9481964 -100.3673325 67.1281357
54.2897034 -122.0327301 -128.2377930
52.8354683 -121.9959412 -127.7170410
51.3900719 -121.9766693 -127.3345108
49.9538498 -121.9787598 -127.1371918
48.5245972 -121.9996567 -127.0950317
47.0940628 -122.0427628 -127.1954727
45.6715240 -122.1023865 -127.4432373
44.2538300 -122.1824646 -127.8371048
-72.0758591 -99.5880508 55.8098145
-73.1468430 -99.3674469 57.6461678
-125.5262909 -99.0912476 67.5093384
-126.8524475 -99.2610703 66.4744339
56.9805527 -120.0722504 -124.9688644
55.5296021 -120.0140686 -124.3126526
54.0818329 -119.9754715 -123.7922363
44.1069756 -120.1534271 -123.6311417
42.6951714 -120.2325821 -124.0393219
41.2953300 -120.3412628 -124.5881271
39.8812141 -120.5218735 -125.3451538
38.4853020 -120.6787109 -126.2080154
-72.2556000 -98.7152252 53.3681488
-73.3256836 -98.4975815 55.4105301
-74.3786011 -98.2718964 57.1899681
-75.4298706 -98.0752106 58.7652969
-123.1329956 -97.8572922 67.6013336
-124.4334946 -98.0068359 66.7101059
-125.7693253 -98.1702652 65.6914597
64.2052765 -118.7409973 -126.4103622
62.6909027 -118.5859222 -125.0447083
61.2070618 -118.4405212 -123.8843689
59.7284927 -118.3360138 -122.9175110
58.2606506 -118.2536011 -122.0970078
56.8086128 -118.2211151 -121.4681091
55.3643494 -118.1677170 -120.9008865
53.9333763 -118.1379700 -120.4755859
43.9920425 -118.3233032 -120.3873062
42.5788918 -118.4055023 -120.7655182
41.1861229 -118.4788742 -121.2215805
39.7728233 -118.5898132 -121.8495941
38.3774261 -118.7051620 -122.5484924
36.9731789 -118.8546448 -123.3672256
35.5736122 -119.0458603 -124.3376389
34.1799011 -119.2308578 -125.5156631
-73.5402756 -97.6495361 52.8882523
-74.5877838 -97.4158325 54.8815002
-75.6215820 -97.2007446 56.5807190
-123.3924408 -96.9370422 65.7518616
-124.7033691 -97.0997696 64.7814713
67.0086517 -117.1596832 -125.6082840
65.4835052 -116.9556274 -124.0613174
63.9909897 -116.8092804 -122.7361755
62.4901390 -116.6894379 -121.5902863
35.5022964 -117.1691132 -121.1680756
34.1038132 -117.3169327 -122.1506958
32.7032089 -117.4961624 -123.2625504
31.2969704 -117.7279816 -124.5546646
-75.8379669 -96.3610306 54.1051941
-76.8754654 -96.1550293 55.8264542
-77.9284058 -95.9651108 57.3429565
-118.4775391 -95.5044250 66.9857788
-119.7640839 -95.6148834 66.2902908
-121.0478973 -95.7431335 65.5409927
-122.3411789 -95.8843079 64.6927795
-123.6589813 -96.0410156 63.7292900
68.2987747 -115.4435883 -123.6718750
66.7927170 -115.2753296 -122.1784592
65.3101196 -115.1351929 -120.8853226
63.8382683 -115.0460129 -119.8261566
62.3431168 -114.9306107 -118.8301010
35.4094162 -115.4406204 -118.5796051
34.0136261 -115.5730515 -119.4316711
32.6175194 -115.7137070 -120.4020767
31.2256355 -115.8809738 -121.5200195
29.8240356 -116.0912933 -122.7689819
-77.1096649 -95.3301544 53.1666527
-78.1393738 -95.1214447 54.8500290
-118.7266846 -94.5871506 65.0659409
-120.0130310 -94.7097626 64.3277206
-121.3135071 -94.8431091 63.4822807
-122.6290894 -94.9936905 62.5293655
71.1804962 -114.0259933 -123.9539795
69.6415405 -113.8018951 -122.1860123
68.1249847 -113.6509094 -120.7017899
29.7699699 -114.3147430 -120.1250916
28.3765221 -114.5214996 -121.4073334
26.9661827 -114.7640381 -122.8478394
-78.3892059 -94.2942505 52.0492783
-79.4426727 -94.1165466 53.7499809
-80.5113297 -93.9371033 55.2665863
-81.5835495 -93.7726135 56.6581345
-82.6462860 -93.6251373 57.8764801
-116.4587021 -93.4675446 64.2975769
-117.7257004 -93.5795898 63.6660843
-119.0133514 -93.7048874 62.9229469
74.0739212 -112.6654892 -124.8522491
72.4992981 -112.4055710 -122.7562485
70.9818192 -112.2186432 -121.0178833
69.4886856 -112.0754852 -119.5626373
67.9763718 -111.9247131 -118.2383347
29.6981239 -112.6350937 -117.8691711
28.3207493 -112.7900391 -118.9897308
26.9398575 -112.9644775 -120.2514725
25.5422878 -113.1913300 -121.7104950
-79.7153091 -93.3003082 50.6076508
-80.7792435 -93.1370773 52.3513031
-81.8413544 -92.9604111 53.9582901
-82.8872604 -92.7923737 55.3257980
-116.7400360 -92.5779648 62.0597305
75.4306183 -111.1016388 -123.9557800
73.8784027 -110.8695602 -121.9129257
26.8810596 -111.2906799 -118.0637283
25.4878063 -111.4757233 -119.3814392
24.0829678 -111.6905899 -120.8687592
-82.1062012 -92.1382980 50.7091942
-83.1606522 -91.9970398 52.3475914
-84.2498398 -91.8433380 53.7565956
-85.3263550 -91.6976395 54.9735260
-86.4068832 -91.5681839 56.0853539
-87.4999161 -91.4639435 57.1375885
-112.0007477 -91.3271866 61.8702469
-113.2382736 -91.4163284 61.4539719
-114.5091476 -91.5072479 60.8975143
