-111.1801605 -74.2309494 73.1293488
79.2774963 -87.5935211 -109.2514420
76.2822876 -87.3561401 -106.4968109
73.3424377 -87.1885757 -104.3363647
70.4358978 -87.0515442 -102.5655212
67.5563202 -86.9552612 -101.1682281
64.7050858 -86.8874817 -100.0638657
39.6338005 -87.3408279 -100.3735657
36.8893967 -87.4994507 -101.5098343
-85.9557266 -72.1307678 66.9776154
-88.1767654 -72.0182953 68.3754883
-90.4254608 -71.9396057 69.4631195
-92.6911774 -71.8920517 70.3049850
-94.9831085 -71.8714142 70.8833084
-97.2876358 -71.8715515 71.2715759
-99.6312332 -71.8933487 71.4185257
-101.9897461 -71.9413834 71.3389893
-104.3843842 -72.0141449 71.0159607
82.0568161 -84.7465515 -109.0731201
79.0516586 -84.4984512 -106.0751038
76.0835037 -84.3016968 -103.6652451
73.1624451 -84.1527557 -101.7220764
70.2705994 -84.0443420 -100.1456528
67.4052811 -83.9592743 -98.8497162
64.5639343 -83.9034576 -97.8376007
39.5543594 -84.3416977 -98.1584396
-100.2048264 -70.0990372 66.2893524
81.8426971 -81.6907425 -106.2151337
78.8596115 -81.4782104 -103.5464172
75.9209595 -81.3158875 -101.3758469
61.6316261 -80.9437180 -95.2396240
58.8276367 -80.9349442 -94.7084198
39.4776764 -81.3996048 -96.3045654
84.6903152 -78.9424362 -106.9449234
81.6656876 -78.7015381 -103.9311829
78.6985245 -78.5176086 -101.4882050
75.7797852 -78.3736725 -99.4838715
61.5345879 -78.0468826 -93.7007446
58.7381859 -78.0464478 -93.2138214
39.4071503 -78.4923019 -94.7315826
87.5668945 -76.2411423 -108.2509003
84.5139923 -75.9758301 -104.8446503
81.5207367 -75.7701340 -102.0910950
78.5716858 -75.6057434 -99.8186188
75.6592712 -75.4775085 -97.9338531
39.3511810 -75.6164856 -93.4113464
87.4161530 -73.3001328 -106.3553085
84.3768082 -73.0617523 -103.1767426
81.3952179 -72.8751831 -100.5945511
78.4599457 -72.7290497 -98.4428406
75.5601196 -72.6154327 -96.6422958
39.3047066 -72.7677612 -92.3122253
90.3813782 -70.6739197 -108.5513611
87.2834930 -70.4003220 -104.8401031
84.2706223 -70.1895905 -101.8747101
81.3028488 -70.0206223 -99.4142303
55.7677803 -69.5580368 -89.7507401
52.9970093 -69.5908203 -89.6234283
50.2483711 -69.6338501 -89.6646729
47.4893150 -69.6948318 -89.8778763
39.2639427 -69.9447479 -91.4225540
90.2573547 -67.7848206 -107.1719131
87.1859283 -67.5366364 -103.6735611
84.1790695 -67.3453522 -100.8589935
81.2182159 -67.1877136 -98.4781799
55.7224808 -66.7732010 -89.0791321
52.9602127 -66.7994995 -88.9492874
50.2022667 -66.8445816 -89.0001678
47.4569092 -66.8982391 -89.1888351
39.2334290 -67.1399078 -90.7114258
90.1636658 -64.9333801 -106.1763535
87.1025009 -64.7063828 -102.8300018
55.6819992 -64.0029526 -88.5973358
50.1726990 -64.0696106 -88.5018768
47.4244881 -64.1198730 -88.6769638
44.6681366 -64.1910858 -89.0325928
41.9511375 -64.2642441 -89.5170212
39.2088585 -64.3554535 -90.1748962
90.0946808 -62.1115761 -105.4903107
87.0425262 -61.9009705 -102.2393341
55.6521149 -61.2420578 -88.2303238
50.1371765 -61.3087578 -88.1419144
47.4016571 -61.3610916 -88.3187408
44.6523819 -61.4260788 -88.6761246
41.9144897 -61.4998245 -89.1599884
39.1757927 -61.5891838 -89.8354187
90.0461197 -59.3116989 -105.0576553
87.0076218 -59.1175690 -101.8909149
61.1693039 -58.4753151 -88.7254486
58.4043388 -58.4830399 -88.3184509
55.6346283 -58.5003891 -88.0410919
52.8764420 -58.5240860 -87.9235916
50.1222420 -58.5653496 -87.9481735
39.1631470 -58.8332901 -89.6276245
36.4243698 -58.9296646 -90.4251022
96.3844604 -57.0988083 -113.9169235
93.1377716 -56.7745667 -108.8018799
90.0211639 -56.5353394 -104.8993988
86.9786606 -56.3494301 -101.7509155
61.1600685 -55.7453918 -88.6743469
58.3864212 -55.7521362 -88.2677536
52.8583488 -55.7956429 -87.9011917
50.1007156 -55.8334427 -87.9262848
39.1454391 -56.0905342 -89.5626450
36.4235153 -56.1816483 -90.3620758
33.6837387 -56.2872086 -91.3431549
96.3803558 -54.3129768 -113.9688263
93.1314545 -54.0033188 -108.8670502
61.1568985 -53.0253067 -88.7970963
58.3799133 -53.0299683 -88.3636856
50.0968170 -53.1108551 -88.0319290
39.1409187 -53.3581772 -89.6640854
36.4125137 -53.4468803 -90.4573898
33.6736298 -53.5475769 -91.4289856
30.9455147 -53.6596031 -92.5717773
28.2014465 -53.7870255 -93.9323654
96.3974762 -51.5506592 -114.3902054
93.1404800 -51.2515450 -109.2335052
61.1494026 -50.3140182 -89.0515060
58.3727417 -50.3178482 -88.6111755
55.6072350 -50.3348999 -88.3541946
52.8518600 -50.3607788 -88.2532730
50.0919228 -50.3975983 -88.2945099
39.1313744 -50.6362686 -89.9150467
36.3992043 -50.7208290 -90.7017670
33.6648636 -50.8177528 -91.6813354
30.9382515 -50.9260712 -92.8221436
28.2033539 -51.0480423 -94.1799393
25.4664650 -51.1830750 -95.7301331
22.7221794 -51.3354416 -97.5496979
19.9777298 -51.5063934 -99.6453552
17.2307262 -51.6972198 -102.0498505
14.4675617 -51.9155273 -104.8673553
93.1763077 -48.5179024 -109.9194336
90.0606232 -48.3047867 -105.9416428
87.0102158 -48.1389160 -102.7309723
61.1676216 -47.6095123 -89.4629669
55.6191864 -47.6310730 -88.7761459
52.8463860 -47.6566010 -88.6451416
50.0954475 -47.6901665 -88.6830750
47.3620453 -47.7319984 -88.8385468
44.6106262 -47.7866020 -89.1822128
41.8743248 -47.8495369 -89.6623077
39.1280136 -47.9204445 -90.3069305
36.4049377 -48.0034142 -91.0967484
17.2167168 -48.9438057 -102.5169144
14.4588528 -49.1548309 -105.3564911
90.1122131 -45.5875168 -106.7951126
87.0531769 -45.4249954 -103.4997787
61.1823044 -44.9139214 -90.0388489
58.4002457 -44.9194221 -89.5832977
55.6321716 -44.9336700 -89.3266220
52.8717308 -44.9575691 -89.1930542
50.1084175 -44.9914169 -89.2259827
44.6085892 -45.0844803 -89.7520752
41.8803864 -45.1448746 -90.2128983
39.1430130 -45.2140274 -90.8442993
36.4041939 -45.2919006 -91.6687775
17.2204781 -46.2007370 -103.1935883
14.4581070 -46.4051743 -106.0830536
90.1887054 -42.8819656 -107.9589920
87.1149292 -42.7215347 -104.5254440
84.1195068 -42.5953369 -101.7528381
81.1565933 -42.4950638 -99.4061737
50.1304474 -42.2984200 -89.9198227
47.3776855 -42.3404465 -90.1268311
44.6347198 -42.3887787 -90.4324799
41.8902359 -42.4440041 -90.9270020
17.2161560 -43.4668503 -104.1078873
14.4550323 -43.6659660 -107.0541534
90.2930908 -40.1879120 -109.4225540
87.2053680 -40.0259666 -105.8466797
84.1894379 -39.9022522 -102.9498749
81.2195129 -39.8038521 -100.5182953
50.1560059 -39.6118660 -90.7847290
47.4016418 -39.6443939 -90.9799805
44.6593933 -39.6951828 -91.2956390
41.9140587 -39.7514801 -91.7826767
17.2252159 -40.7415466 -105.2412186
14.4529190 -40.9355240 -108.3177032
90.4219666 -37.5046692 -111.2715302
87.3195496 -37.3389397 -107.4576035
84.2896347 -37.2150459 -104.3970337
81.3143616 -37.1152306 -101.8860321
78.3773651 -37.0395584 -99.7660828
75.4669647 -36.9777756 -97.9792175
22.7448196 -37.7106018 -101.6855316
19.9849930 -37.8561172 -103.9676971
17.2309303 -38.0213165 -106.6640091
87.4469910 -34.6609612 -109.4196320
84.4067764 -34.5338593 -106.1790466
81.4064178 -34.4363022 -103.5016022
78.4680481 -34.3559265 -101.2950592
75.5526047 -34.2972336 -99.4210052
22.7515678 -35.0018539 -103.1825485
19.9962654 -35.1449051 -105.5691681
17.2445545 -35.3088188 -108.3806686
84.5524979 -31.8588829 -108.3115997
81.5313873 -31.7604866 -105.4204483
78.5773087 -31.6800995 -103.0865326
75.6527023 -31.6177902 -101.1246796
72.7506256 -31.5740414 -99.4775085
69.8852081 -31.5409336 -98.1089478
50.2798462 -31.5562572 -94.3904572
47.5109711 -31.5925026 -94.5892181
22.7746315 -32.3009872 -104.9501648
20.0192490 -32.4422455 -107.4577942
84.7323914 -29.1932449 -110.9056244
81.6809616 -29.0855789 -107.7186584
78.7111130 -29.0057449 -105.2061234
75.7647705 -28.9474030 -103.1100769
72.8636780 -28.8955841 -101.3829727
69.9855957 -28.8648224 -99.9331970
50.3332596 -28.8774776 -96.0293121
47.5668640 -28.9126472 -96.2094421
22.7995472 -29.6005173 -107.0391083
20.0339127 -29.7412548 -109.7100449
81.8714142 -26.4180717 -110.5249252
78.8738556 -26.3362217 -107.7310944
75.9156189 -26.2703323 -105.4648666
72.9898529 -26.2263775 -103.5798798
70.1076050 -26.1890335 -102.0423889
67.2441940 -26.1660614 -100.7732086
64.3998413 -26.1513939 -99.7663651
33.8483734 -26.5062256 -101.8997269
31.0991402 -26.5893536 -103.3390045
28.3537388 -26.6800251 -105.0421600
25.5911045 -26.7842197 -107.0852051
22.8320656 -26.9045792 -109.5092010
79.0673828 -23.6731586 -110.7557831
76.0784073 -23.6001167 -108.2287903
73.1478271 -23.5510845 -106.1821442
70.2457275 -23.5154934 -104.5020523
67.3646088 -23.4906158 -103.1295547
64.5139999 -23.4760208 -102.0584106
33.9032898 -23.8170547 -104.2488327
31.1478710 -23.8961067 -105.7815094
28.3975811 -23.9869804 -107.6140442
25.6446266 -24.0916004 -109.8059616
76.2879333 -20.9373512 -111.5624390
73.3364029 -20.8816338 -109.2530746
70.4117737 -20.8438778 -107.3870850
67.5172653 -20.8146248 -105.9069138
64.6496429 -20.7993889 -104.7169800
61.8048820 -20.7908497 -103.8043671
58.9819603 -20.7931328 -103.1395645
39.4825478 -20.9964046 -104.5298615
36.7284088 -21.0593395 -105.6093597
33.9669342 -21.1265583 -106.9733582
31.2154617 -21.2071304 -108.6078339
28.4531155 -21.2950249 -110.6357117
73.5686340 -18.2119446 -113.0277634
70.6083374 -18.1696014 -110.8619843
67.6985931 -18.1395664 -109.1803589
64.8183899 -18.1223450 -107.8240356
61.9512329 -18.1132927 -106.8120117
59.1146507 -18.1115170 -106.0682297
39.5786934 -18.3144073 -107.5094452
36.8131142 -18.3681793 -108.7123260
34.0473022 -18.4355640 -110.2131500
31.2909241 -18.5172520 -112.0348206
70.8583069 -15.5083323 -115.1790771
67.9213181 -15.4657269 -113.1673965
65.0129776 -15.4486542 -111.5793991
62.1349487 -15.4311752 -110.4306107
59.2883530 -15.4336300 -109.5456085
56.4405289 -15.4409590 -108.9827423
53.6261864 -15.4509821 -108.6991043
50.8160400 -15.4704113 -108.6621552
48.0250854 -15.4949560 -108.8715515
45.2363472 -15.5293465 -109.3453979
42.4539986 -15.5707483 -110.0973663
39.6838417 -15.6254673 -111.0981140
36.9149742 -15.6793022 -112.4544067
34.1482391 -15.7451391 -114.1603699
65.2730713 -12.7744236 -116.3518982
62.3607140 -12.7501535 -114.9073868
59.4962616 -12.7464561 -113.8535004
56.6329346 -12.7486372 -113.1785431
53.8108673 -12.7643547 -112.7831116
50.9842033 -12.7809200 -112.7420044
48.1761360 -12.8071537 -112.9617157
45.3841476 -12.8427324 -113.4924469
42.5979347 -12.8817682 -114.3542633
39.8146210 -12.9289703 -115.5468597
51.1959229 -10.0943298 -117.9487610
48.3924370 -10.1241436 -118.2018890
-95.6273041 -165.2385559 71.8552399
-90.6257782 -163.3231201 74.5559921
-91.6995773 -163.2217560 75.0920258
-92.7689667 -163.1720276 75.4995880
-93.9361343 -163.0971832 75.9056244
-95.1468277 -163.0781860 76.1732407
-96.3156052 -163.0734558 76.3722458
-97.3990479 -163.1128540 76.4092178
-98.5492630 -163.1555176 76.4022827
-99.8057785 -163.2409821 76.3058090
-101.0505524 -163.3333740 76.0666351
-84.7793503 -162.1343384 73.8915253
-85.8547668 -161.9243011 74.8929672
-86.8738251 -161.7911377 75.6814651
-87.9445190 -161.6691742 76.4524918
-89.1156540 -161.5277252 77.2109146
-90.2880707 -161.4455414 77.8061752
-100.7013550 -161.4517212 79.2325745
-101.8463135 -161.5408325 79.0408401
-102.9571381 -161.6203003 78.7752228
-104.2032547 -161.7401428 78.3674393
-105.5431671 -161.9379272 77.8061371
-106.8049011 -162.1416321 77.1625824
-81.2297134 -160.9475403 73.5425262
-82.2402954 -160.7064819 74.7523575
-83.3223267 -160.4858704 75.9189682
-84.4647827 -160.2768860 77.0288544
-85.5503998 -160.1389160 77.8639374
-86.5645752 -160.0320892 78.5192947
-87.6569366 -159.9342346 79.1567917
-88.8358154 -159.8191681 79.8264771
-90.0163345 -159.7346802 80.3879318
-100.3986511 -159.7643433 81.7424240
-101.5278091 -159.8226776 81.6129608
-102.6315613 -159.8951721 81.3983231
-103.8835373 -159.9983826 81.0556183
-105.1957245 -160.1260223 80.6147003
-106.4177856 -160.2702484 80.1316147
-107.5637131 -160.4382324 79.6139145
-108.7940903 -160.6546021 78.9256821
-78.8264465 -159.6182861 73.9838791
-79.9378815 -159.3202820 75.4715118
-80.9348373 -159.1184082 76.5794296
-107.2664948 -158.7338867 82.0579605
-108.4545364 -158.8849030 81.5065842
-109.8065491 -159.0940552 80.7490997
-111.1408081 -159.3149109 79.9029465
-76.4640808 -158.4613190 73.7866592
-77.4884491 -158.1476135 75.2714615
-78.5744247 -157.8714142 76.7221680
-79.6965714 -157.6262817 78.0271454
-80.7000275 -157.4750366 78.9395523
-107.0135574 -157.1630249 84.1111908
-108.1750488 -157.2746277 83.6814423
-109.4999847 -157.4406128 83.0552826
-110.8383255 -157.6400909 82.3082123
-112.0491943 -157.8462067 81.5768433
-113.2333984 -158.0768433 80.8150101
-74.2186432 -157.2893982 73.4929352
-75.2393265 -156.9546661 75.1212158
-76.2184448 -156.7298126 76.3883438
-114.2533188 -156.6785278 82.1278000
-72.9063034 -155.9472046 74.1709900
-73.9983597 -155.5676117 76.0345001
-75.0291824 -155.3033142 77.4652786
-76.0215836 -155.1148071 78.5798950
-113.9578629 -155.0504761 84.1255341
-115.3673248 -155.3208618 83.1262207
-71.6674042 -154.6047058 74.8381195
-72.7013855 -154.2910156 76.5158234
-73.8177490 -153.9670258 78.1785431
-113.7411194 -153.5449219 85.8461380
-115.1229858 -153.7794495 84.9532928
-69.5145721 -153.6140747 73.7664490
-70.4840927 -153.2976227 75.4357605
-71.4792023 -153.0079041 76.9739380
-72.5236588 -152.7375183 78.4593277
-73.6622467 -152.4376831 79.9887390
-113.5307159 -152.0765839 87.3850021
-114.9149475 -152.3018188 86.5496063
-116.1736679 -152.4975739 85.7598038
-117.3535614 -152.6932983 84.9541931
-118.6128082 -152.9377289 84.0164261
-68.2931366 -152.3728638 74.0169373
-69.3462677 -151.9976654 75.9395294
-70.3305435 -151.7290955 77.4392776
-71.3265076 -151.4945984 78.7685013
-85.3923798 -149.7045898 89.5444870
-86.5011292 -149.6095734 89.9859085
-87.6800537 -149.5419159 90.5045013
-88.8835907 -149.4666138 90.9800644
-89.9100113 -149.4818726 91.1572647
-90.9572144 -149.4740448 91.3433685
-92.1457214 -149.4205475 91.6513901
-93.3807907 -149.4225311 91.9159698
-94.5271988 -149.4148407 92.0666885
-95.5399475 -149.4478302 92.1266022
-118.3697510 -151.4273376 85.6611176
-119.7810440 -151.7176056 84.5304031
-121.2022629 -152.0426331 83.2949066
-68.1399231 -150.7938538 75.9883652
-69.2054749 -150.4581299 77.7845535
-70.1858673 -150.2315674 79.1189575
-71.1939545 -150.0131836 80.3522339
-85.3053436 -148.3272858 90.5890274
-86.3908081 -148.2868347 90.9543686
-87.5779572 -148.1934662 91.4926758
-88.7836304 -148.1408691 91.9549332
-89.8012085 -148.1273041 92.1491394
-90.8476639 -148.1798553 92.2856293
-94.4153671 -148.0962982 93.0272827
-95.4299774 -148.1102142 93.0978088
-118.1665192 -149.9730835 87.1275330
-119.5612640 -150.2341003 86.0645142
-120.9690552 -150.5246582 84.9105225
-70.0791779 -148.7712097 80.6264496
-71.0829773 -148.5843353 81.7494812
-83.1090164 -147.0706787 90.8219452
-84.1934662 -147.0095367 91.2580566
-85.2102661 -147.0110016 91.4556885
-87.4899368 -146.8724060 92.3878174
-88.6896515 -146.8160095 92.8678589
-89.7076492 -146.8181763 93.0472870
-90.7586823 -146.8137817 93.2278748
-95.3213120 -146.7922516 93.9982910
-120.7555237 -149.0654602 86.3770905
-121.9918213 -149.3052521 85.3931122
-68.9548645 -147.5642700 80.7533722
-69.9640656 -147.3626709 81.9338455
-70.9763336 -147.1822968 82.9990005
-83.0274506 -145.7489929 91.7202225
-88.5933380 -145.5039215 93.7132034
-89.6198273 -145.5234222 93.8778381
-90.6625290 -145.5187836 94.0592804
-91.8366089 -145.4775696 94.3414383
-93.0796127 -145.4599762 94.5967407
-94.2121506 -145.4828033 94.7352600
-95.2188873 -145.4817200 94.8357086
-120.5582428 -147.6474609 87.6962509
-121.7842865 -147.8643188 86.7692261
-123.0066376 -148.1015015 85.7932205
-65.6532745 -147.0127258 77.3414841
-66.6731262 -146.7269745 78.9335327
-67.7723083 -146.4289856 80.5595551
-68.8526077 -146.1757507 81.9794998
-82.9454651 -144.4437103 92.5549011
-88.5131378 -144.2309418 94.4822922
-98.7980042 -144.3178406 95.6207809
-99.8310242 -144.3282928 95.6803513
-122.8202286 -146.6892242 87.0709381
-124.1736679 -146.9716492 85.9112244
-64.5498886 -145.8618622 77.1940765
-65.5327148 -145.6035156 78.7007294
-66.5607758 -145.3353729 80.1933899
-67.6667633 -145.0609894 81.7157288
-68.7559814 -144.8200684 83.0659256
-82.8738251 -143.1655273 93.3148346
-87.2523575 -143.0088043 94.7955246
-88.4269714 -142.9418335 95.2171936
-98.6644135 -143.0133057 96.3735886
-99.7069397 -143.0297852 96.4406281
-122.6500549 -145.3035583 88.2497787
-123.9994965 -145.5686646 87.1281509
-125.4470139 -145.8789368 85.8122635
-64.4438934 -144.4559479 78.4862823
-78.4342194 -142.1600647 91.9956512
-79.4494400 -142.1448364 92.3751450
-82.8063965 -141.8992767 94.0113754
-83.8865814 -141.8514557 94.3976440
-84.9278259 -141.8186646 94.6319885
-86.0108643 -141.8131866 94.9879761
-87.1812820 -141.7478027 95.4739456
-88.3571091 -141.6922913 95.8771820
-125.2600098 -144.4876404 86.9873428
-61.2063904 -144.1171112 73.9211273
-62.2266464 -143.7375641 76.0222473
-63.3183136 -143.3644409 78.0321655
-64.3455429 -143.0933228 79.6244278
-78.3341217 -140.9601746 92.5487518
-79.3893814 -140.8824310 93.0339584
-82.7284164 -140.6513214 94.6492615
-83.8256531 -140.6004639 95.0545502
-84.8683395 -140.5788422 95.3180389
-85.9558411 -140.5477905 95.6290588
-87.1264648 -140.4876709 96.0981903
-88.2921295 -140.4471436 96.4793015
-125.0969467 -143.1244049 88.0752258
-126.4327774 -143.3956604 86.9001923
-60.1130600 -143.0738831 73.1988373
-61.0966110 -142.7049561 75.2591476
-62.1447983 -142.3337250 77.2900925
-84.8088684 -139.3412781 95.8963089
-85.8910065 -139.3225250 96.1960526
-89.2735291 -139.2166901 97.2481232
-90.3382416 -139.1971436 97.4609756
-91.4914856 -139.1829529 97.6819229
-92.6939240 -139.1841736 97.8759842
-93.8226013 -139.1914215 98.0206604
-94.8666992 -139.1931915 98.1411285
-103.0218887 -139.4557343 98.0055695
-104.1844330 -139.5058289 97.8796692
-105.2410126 -139.5480347 97.7875214
-106.3839111 -139.6063690 97.6187973
-107.6439819 -139.7022705 97.3098907
-108.9064636 -139.8136597 96.9703827
-124.9603577 -141.7960510 89.0406113
-126.2817688 -142.0480957 87.9187927
-127.5342865 -142.3016357 86.8141174
-60.0138969 -141.6658020 74.5207596
-61.0060425 -141.3146057 76.4844055
-62.0536919 -140.9826202 78.3592987
-84.7662048 -138.1042938 96.4690933
-85.8501892 -138.0758820 96.8089066
-89.2203140 -137.9893646 97.7641830
-90.3093033 -137.9813385 97.9667053
-91.4410095 -137.9706421 98.1888733
-92.6352692 -137.9552765 98.3904419
-93.7602234 -137.9666901 98.5373611
-94.8083038 -137.9677734 98.6602554
-102.9349365 -138.2111053 98.5577393
-104.1203156 -138.2830048 98.4247818
-105.1791000 -138.3141785 98.3415909
-106.3231888 -138.3795776 98.1835709
-107.5792542 -138.4772949 97.8898239
-108.8311996 -138.5774841 97.5517883
-124.8298721 -140.4831543 89.9123154
-126.1356506 -140.7225189 88.8517151
-127.3757782 -140.9522095 87.7965317
-128.7106018 -141.2413635 86.5739059
-59.9272766 -140.2759094 75.7297745
-86.9507065 -136.8065796 97.7088318
-88.1036530 -136.7782593 98.0249405
-89.1578445 -136.7878876 98.2234802
-93.6984558 -136.7519226 99.0175323
-94.7633209 -136.7557068 99.1317596
-102.8656998 -136.9926453 99.0642548
-107.5227356 -137.2605133 98.4389038
-108.7592239 -137.3520050 98.0835648
-127.2578583 -139.6438446 88.6598053
-128.5777893 -139.9133301 87.4820328
-59.8471870 -138.9287415 76.7650528
-86.9031601 -135.6045227 98.1505280
-88.0537262 -135.5696716 98.4608307
-92.5188141 -135.5329590 99.3143311
-93.6421509 -135.5384827 99.4499664
-94.7249756 -135.5554047 99.5556641
-102.8063278 -135.7795715 99.5337524
-108.6723175 -136.1195068 98.5872955
-127.1385574 -138.3484955 89.4556274
-128.4372406 -138.5939484 88.3363495
-129.8603821 -138.9041748 87.0081940
-58.7814102 -137.9223022 75.8503418
-59.7840843 -137.6048279 77.6821365
-86.8614960 -134.4123230 98.5505524
-88.0100555 -134.3803711 98.8573456
-89.0847244 -134.3627930 99.1061707
-90.1681519 -134.3585205 99.3231506
-91.2985153 -134.3441925 99.5304413
-92.4768829 -134.3465881 99.7057953
-102.7425537 -134.5724945 99.9548492
-103.9111938 -134.6313171 99.8520050
-107.3723297 -134.8155670 99.3356018
-108.5979538 -134.9036407 99.0424652
-129.7155151 -137.5903320 87.8002014
-57.6324615 -136.9932556 74.6119232
-58.7133026 -136.6085815 76.7265091
-59.7215385 -136.3102722 78.4847031
-86.8209076 -133.2125244 98.9245224
-87.9670715 -133.1863403 99.2261734
-89.0468903 -133.1693878 99.4699097
-90.1387329 -133.1584778 99.6927490
-91.2657242 -133.1464996 99.9035034
-92.4286652 -133.1468201 100.0769958
-102.6846695 -133.3811493 100.3330383
-103.8570709 -133.4335327 100.2271652
-104.9634705 -133.4902344 100.1271667
-106.1036377 -133.5369263 99.9679184
-107.3214569 -133.6171722 99.7181549
-108.5404968 -133.7040710 99.4500046
-129.6042786 -136.3018341 88.5283051
-57.5812988 -135.6625824 75.5489197
-129.4965363 -135.0328217 89.1989670
-55.4473495 -135.1453705 71.7556229
-56.4510422 -134.7121277 74.2269821
-57.5204124 -134.3674011 76.3065033
-129.4021606 -133.7788696 89.8107986
-130.7924500 -134.0525055 88.5385590
-132.1140289 -134.3234406 87.2289734
-133.4921570 -134.6386414 85.7814331
-54.4591713 -134.2706146 70.0792923
-55.4267159 -133.8331909 72.6136017
-132.0260010 -133.0651093 87.8406448
-54.3964157 -132.9483795 70.9776917
-55.3718033 -132.5439148 73.3571701
-131.9401093 -131.8183594 88.3933563
-133.2904358 -132.1011200 87.0501556
-54.3422127 -131.6467285 71.7776337
-55.3271866 -131.2661896 74.0477829
-134.6156464 -131.1693268 86.1004944
-54.2966347 -130.3709412 72.4519501
-55.2894058 -130.0062866 74.6624603
-134.5252533 -129.9244995 86.5727692
-54.2706299 -129.1050110 73.0745697
-55.2689133 -128.7513733 75.2250214
-75.6155777 -125.5466309 96.3075180
-76.7165756 -125.4717941 96.8831253
-77.8344421 -125.4069519 97.4280548
-78.9154663 -125.3429337 97.9321442
-79.9947510 -125.2898254 98.4095764
-81.1073456 -125.2339325 98.8573685
-82.2271957 -125.1946182 99.2698593
-83.3299179 -125.1529922 99.6572189
-84.4190521 -125.1148605 100.0171432
-85.5175934 -125.0832672 100.3442078
-86.6295319 -125.0614395 100.6383743
-87.7707367 -125.0415497 100.9171448
-134.4413757 -128.6941528 87.0253067
-53.1845741 -128.2810516 71.1160736
-54.2263222 -127.8725433 73.5479889
-55.2264786 -127.5324783 75.6422043
-75.6043091 -124.3959656 96.4646988
-76.6967239 -124.3284683 97.0319977
-81.0920868 -124.0932922 98.9924469
-82.2088470 -124.0496521 99.4023285
-83.3107605 -124.0151978 99.7850113
-84.4048691 -123.9786530 100.1422272
-85.5037918 -123.9492874 100.4672699
-86.6163864 -123.9253159 100.7646790
-87.7421875 -123.9030609 101.0464935
-134.3767853 -127.4775085 87.4083862
-135.8399048 -127.8050919 85.8054504
-53.1820946 -127.0256500 71.6428986
-75.6034317 -123.2499237 96.6033249
-76.6984100 -123.1801682 97.1694031
-81.0866394 -122.9541473 99.1045456
-87.7332916 -122.7652969 101.1543808
-88.8355255 -122.7495270 101.4141235
-89.9565735 -122.7346649 101.6437683
-91.0689468 -122.7311325 101.8305664
-92.2019501 -122.7289581 102.0015411
-93.3151093 -122.7338409 102.1456909
-94.4411316 -122.7441483 102.2627411
-95.5711060 -122.7571793 102.3495331
-96.7014313 -122.7754440 102.4095154
-97.8469696 -122.7993240 102.4509201
-98.9759979 -122.8241806 102.4636230
-100.1227036 -122.8541107 102.4510498
-101.2597504 -122.8905029 102.4204483
-102.4124908 -122.9252167 102.3603439
-103.5666809 -122.9752045 102.2656479
-104.7032394 -123.0205383 102.1480942
-105.8685913 -123.0767517 102.0011444
-134.3215332 -126.2743988 87.7367477
-53.1669998 -125.7999725 72.0475082
-75.5888672 -122.1100464 96.7034683
-76.6918793 -122.0397339 97.2639771
-77.7929230 -121.9808655 97.7885895
-78.8814850 -121.9230194 98.2836685
-79.9730606 -121.8691559 98.7484894
-81.0723419 -121.8204651 99.1881943
-89.9403992 -121.6099930 101.7087708
-91.0524445 -121.6069794 101.8912201
-103.5492249 -121.8398895 102.3539581
-104.6886749 -121.8861237 102.2336807
-105.8521729 -121.9436798 102.0850601
-134.2926178 -125.0848312 88.0027161
-53.1437302 -124.5950470 72.3553772
-75.5820923 -120.9802475 96.7635422
-76.6716766 -120.9150162 97.3155518
-104.6847458 -120.7593842 102.2895660
-105.8481750 -120.8137817 102.1445236
-107.0034866 -120.8688812 101.9805603
-108.1894760 -120.9352875 101.7828140
-134.2447052 -123.8957901 88.2553482
-53.1242981 -123.3981934 72.6105423
-75.5815353 -119.8521194 96.7984619
-76.6735229 -119.7854614 97.3556976
-104.6812897 -119.6353149 102.3351288
-105.8330383 -119.6857758 102.1976929
-107.0058136 -119.7449722 102.0270691
-108.1743011 -119.8053207 101.8263168
-134.2189789 -122.7229996 88.4303131
-53.1184616 -122.2061920 72.8402786
-73.4135666 -118.8794174 95.5957794
-74.4860077 -118.8034744 96.2154236
-75.5814667 -118.7289352 96.8044586
-76.6757660 -118.6644135 97.3566513
-77.7782974 -118.6028290 97.8905411
-108.1702347 -118.6841583 101.8362045
-134.1961975 -121.5596619 88.5438232
-135.5954895 -121.8330688 87.1190567
-52.0482407 -121.4215393 70.5041428
-53.1085472 -121.0285339 72.9917755
-73.4083481 -117.7602081 95.5796051
-74.4921265 -117.6838989 96.2003021
-75.5825882 -117.6140366 96.7853317
-76.6776581 -117.5466309 97.3395233
-108.1781769 -117.5691605 101.8221283
-134.1802979 -120.4004593 88.6264954
-135.5714722 -120.6671371 87.2267914
-136.9878540 -120.9585800 85.6924896
-73.4144440 -116.6449661 95.5413208
-107.0104523 -116.3934174 101.9900436
-108.1765213 -116.4521332 101.8015900
-109.3367157 -116.5186005 101.6023178
-110.4920273 -116.5818558 101.3722992
-111.6907806 -116.6632690 101.0420303
-112.8733521 -116.7445602 100.7139893
-136.9678650 -119.7976913 85.7637787
-73.4221420 -115.5315857 95.4814835
-111.7029343 -115.5530243 100.9767532
-112.8843842 -115.6334076 100.6519623
-136.9682159 -118.6474457 85.7794952
-52.0565758 -117.9309921 70.6450882
-53.0951004 -117.5640106 73.0549469
-73.4245224 -114.4253159 95.3829880
-111.7108383 -114.4460220 100.8833694
-112.8967590 -114.5248108 100.5680847
-136.9700012 -117.5031891 85.7564316
-51.0140457 -117.2018967 67.8582458
-52.0531425 -116.7900925 70.5584564
-53.1023750 -116.4226074 72.9918518
-73.4329681 -113.3214951 95.2658997
-109.3655167 -113.2012177 101.3031387
-110.5425262 -113.2707520 101.0438995
-111.7101288 -113.3420105 100.7712708
-112.9027252 -113.4196777 100.4652863
-136.9620056 -116.3627014 85.7084351
-53.1022415 -115.2939148 72.8519592
-73.4496765 -112.2203598 95.1318817
-109.3828125 -112.1037750 101.1618347
-110.5716858 -112.1736145 100.9005585
-111.7354050 -112.2431717 100.6342697
-112.9163589 -112.3192291 100.3307190
-136.9626770 -115.2300034 85.6121445
-53.1225281 -114.1713867 72.6677704
-73.4605103 -111.1242447 94.9633942
-74.5456543 -111.0527420 95.5767212
-75.6308060 -110.9839172 96.1720657
-109.4004211 -111.0090637 101.0008392
-110.5771332 -111.0767365 100.7453461
-111.7502594 -111.1473541 100.4721527
-112.9515152 -111.2250595 100.1562805
-136.9988861 -114.1118317 85.4293213
-138.4208984 -114.3978424 83.8241119
-53.1404800 -113.0557098 72.4373016
-73.4724121 -110.0318756 94.7661209
-74.5695953 -109.9601135 95.3892365
-75.6566086 -109.8923264 95.9805908
-111.7792511 -110.0560303 100.2788086
-112.9576721 -110.1317520 99.9699860
-134.2650299 -112.4897614 88.0507431
-135.6343079 -112.7328796 86.7014465
-136.9966125 -113.0027924 85.2136078
-138.4035950 -113.3020096 83.5584030
-51.1376228 -112.7124405 66.9281006
-52.1287651 -112.3009949 69.7241516
-53.1660690 -111.9476929 72.1560593
-73.5036774 -108.9424591 94.5553894
-74.5925598 -108.8712616 95.1748810
-75.6902924 -108.8057251 95.7639313
-111.8031616 -108.9680176 100.0637894
-112.9887238 -109.0426025 99.7562256
-134.2923431 -111.3818588 87.8230972
-51.1434746 -111.6152191 66.5075531
-52.1559067 -111.2077179 69.3234634
-53.1841583 -110.8526001 71.7843628
-73.5216904 -107.8577576 94.3049622
-74.6048126 -107.7869263 94.9171295
-109.4721603 -107.7478256 100.3559723
-110.6657867 -107.8135681 100.0961761
-111.8369522 -107.8834686 99.8202362
-113.0158157 -107.9569855 99.5163345
-134.3430481 -110.2820816 87.5384598
-52.1888924 -110.1181335 68.8884811
-53.2087936 -109.7634048 71.3695984
-73.5439606 -106.7763519 94.0215378
-74.6366348 -106.7069778 94.6468811
-108.3476105 -106.6069946 100.3105621
-109.5114822 -106.6685486 100.0831909
-110.6960373 -106.7319870 99.8303146
-111.8661346 -106.8013153 99.5568314
-113.0567398 -106.8749466 99.2451477
-134.3838196 -109.1869659 87.2157440
-135.7646637 -109.4277191 85.8431854
-52.2149696 -109.0351257 68.3940887
-53.2407646 -108.6793976 70.9117432
-73.5791702 -105.6985931 93.7223358
-108.3950577 -105.5289993 100.0197830
-134.4365997 -108.0988464 86.8488922
-135.8205566 -108.3394623 85.4604034
-52.2148895 -107.9527893 67.8804321
-53.2644653 -107.6025085 70.3873901
-73.5931091 -104.6221848 93.3844452
-79.0648956 -104.3243179 96.1947021
-108.4212723 -104.4552536 99.7148895
-134.4923401 -107.0167694 86.4371567
-53.3074036 -106.5348434 69.8069077
-75.8092117 -103.4159241 94.2585144
-107.2777863 -103.3278961 99.5757141
-108.4598999 -103.3836212 99.3719940
-134.5774231 -105.9410858 85.9595413
-52.3194733 -105.8367310 66.4924393
-53.3488426 -105.4785843 69.1312408
-75.8648453 -102.3512039 93.8854141
-76.9451523 -102.2918625 94.4450989
-86.8807907 -101.9648132 98.1787720
-107.3305359 -102.2609940 99.1988373
-108.5029373 -102.3168869 99.0040131
-134.6385193 -104.8698273 85.4636917
-53.3889122 -104.4223557 68.4322357
-75.8899841 -101.2865219 93.4739914
-76.9784241 -101.2259064 94.0324326
-81.3780518 -101.0383606 95.9824448
-88.0403824 -100.8844070 98.0657043
-93.6399536 -100.8515015 99.0825577
-101.5921707 -100.9844208 99.3957214
-105.0586853 -101.1018372 99.1160736
-106.2255630 -101.1470032 98.9726257
-107.3838196 -101.1951294 98.8064728
-108.5534592 -101.2515335 98.6133728
-132.0056152 -103.3775787 87.4496231
-133.3631287 -103.5827866 86.2326355
-134.7284241 -103.8037109 84.9106598
-53.4413071 -103.3787308 67.6331482
-75.9354248 -100.2251434 93.0354538
-77.0159607 -100.1657867 93.5971985
-80.3219757 -100.0199738 95.1327896
-81.4228516 -99.9801636 95.5704956
-82.5306396 -99.9419937 95.9863815
-83.6386185 -99.9090042 96.3727722
-88.0838165 -99.8207932 97.6588211
-92.5603638 -99.7903671 98.5277710
-93.6802826 -99.7947388 98.6696472
-98.2226334 -99.8516693 98.9749527
-101.6485214 -99.9267120 98.9608612
-105.1100998 -100.0390244 98.7097702
-106.2698364 -100.0851746 98.5618134
-107.4331818 -100.1333466 98.3856277
-108.6101074 -100.1887436 98.1888885
-132.1033936 -102.3139954 86.8837051
-133.4494019 -102.5204620 85.6569214
-134.8183899 -102.7403793 84.3221970
-53.5086098 -102.3480988 66.7394409
-54.5329247 -102.0216751 69.2302551
-55.5486145 -101.7280731 71.4312439
-75.9726105 -99.1651001 92.5640411
-77.0556488 -99.1062546 93.1303329
-78.1746521 -99.0557861 93.6831055
-79.2583008 -99.0031281 94.1879425
-80.3607025 -98.9584122 94.6706238
-81.4618225 -98.9186554 95.1198654
-82.5708694 -98.8825455 95.5409927
-83.6840515 -98.8568192 95.9290848
-87.0140839 -98.7614288 96.9317169
-88.1283112 -98.7632294 97.2192841
-89.2346039 -98.7397156 97.4933243
-90.3547211 -98.7063980 97.7359772
-91.4749527 -98.7290344 97.9283295
-92.6043701 -98.7377701 98.0767365
-93.7274170 -98.7401962 98.2273560
-94.8569946 -98.7452545 98.3488083
-96.0043564 -98.7554779 98.4349213
-97.1299667 -98.7733459 98.4971237
-98.2698364 -98.7917633 98.5458832
-99.4026413 -98.8125381 98.5670624
-100.5533447 -98.8391418 98.5520935
-101.6961975 -98.8702240 98.5191422
-102.8456192 -98.8997955 98.4675369
-104.0020142 -98.9374237 98.3885345
-105.1576691 -98.9812927 98.2697144
-106.3302307 -99.0247726 98.1090164
-132.1681366 -101.2564697 86.3046036
-133.5491791 -101.4654160 85.0210648
-54.5938148 -100.9936142 68.3381424
-55.6071320 -100.6939087 70.6041794
-76.0199661 -98.1100922 92.0679855
-77.1049881 -98.0501480 92.6273651
-78.2152328 -98.0010223 93.1773682
-79.3152924 -97.9492798 93.6988907
-80.4113617 -97.9012909 94.1864548
-81.5066681 -97.8639450 94.6411743
-82.6168442 -97.8258667 95.0621185
-83.7255325 -97.7956390 95.4506760
-84.8350220 -97.7686234 95.8212433
-85.9471817 -97.7437057 96.1681671
-87.0522461 -97.7251129 96.4693604
-88.1782227 -97.7076416 96.7473907
-89.2943420 -97.6967392 97.0060730
-90.4176254 -97.6882172 97.2319183
-91.5278702 -97.6763000 97.4199982
-92.6602631 -97.6841431 97.6087265
-93.7864075 -97.6887207 97.7686539
-94.9180222 -97.6957626 97.8878174
-96.0588455 -97.7061462 97.9739075
-97.1816711 -97.7184296 98.0414581
-98.3135681 -97.7392578 98.0910950
-99.4657288 -97.7551270 98.0996933
-100.6122818 -97.7845840 98.0894318
-101.7555466 -97.8121796 98.0595627
-102.8996277 -97.8458786 98.0036697
-104.0706711 -97.8815536 97.9108124
-105.2264862 -97.9258347 97.7867126
-106.4024200 -97.9680939 97.6265106
-132.2770233 -100.2041931 85.6383820
-133.6441345 -100.4147644 84.3493805
-135.0181580 -100.6321640 82.9833679
-54.6444092 -99.9739609 67.3237076
-55.6759796 -99.6656723 69.7073364
-132.3938293 -99.1586227 84.9239960
-133.7470703 -99.3679123 83.6264420
-54.7069778 -98.9575500 66.2474442
-55.7396202 -98.6485291 68.6974335
-132.4855347 -98.1169510 84.1906433
-133.8618011 -98.3306580 82.8390503
-55.7964478 -97.6406479 67.5838928
-56.8339348 -97.3554688 69.8614349
-57.8707581 -97.0953674 71.9057693
-129.9171600 -96.6990356 85.7672882
-131.2824554 -96.8804550 84.5959244
-132.6106262 -97.0793304 83.3701859
-134.0020142 -97.2971497 81.9724121
-56.9175797 -96.3432922 68.8270035
-57.9460640 -96.0792542 70.9176788
-130.0428772 -95.6621475 84.9579926
-131.3856964 -95.8482819 83.7838287
-132.7331848 -96.0488815 82.5099716
-55.9332085 -95.6319885 65.1589050
-56.9981499 -95.3453522 67.6331482
-58.0258369 -95.0724487 69.8220749
-130.1654663 -94.6330261 84.1007385
-131.5220947 -94.8231888 82.8824921
-57.0767365 -94.3569565 66.3189926
-58.1137161 -94.0799179 68.6294479
-130.2956696 -93.6089783 83.1762161
-131.6743164 -93.8038940 81.8979568
-58.2040787 -93.0911407 67.3262634
-59.2290039 -92.8343506 69.4428864
-60.2557411 -92.6070404 71.3186722
-130.4553833 -92.5947723 82.1632004
-131.8367462 -92.7924881 80.8408813
-58.2851524 -92.1058044 65.8886185
-59.3376541 -91.8521118 68.1464691
-60.3453064 -91.6130524 70.0728607
-130.5998688 -91.5855103 81.1022491
-59.4338646 -90.8825684 66.6662064
-60.4442329 -90.6340485 68.7299957
-78.7631836 -88.6231995 87.2676620
-79.8600388 -88.5754547 87.8338165
-80.9760818 -88.5314102 88.3778687
-82.0734253 -88.4868851 88.8750229
-128.0877991 -90.2190170 82.3646011
-129.4258270 -90.3932800 81.2078705
-130.7804260 -90.5797501 79.9381866
-59.5261497 -89.9071884 65.0840759
-60.5565567 -89.6654663 67.2653198
-78.8411865 -87.6002121 86.4140396
-79.9399719 -87.5465775 87.0006638
-81.0483017 -87.4989471 87.5517426
-82.1503601 -87.4642334 88.0562820
-128.2618866 -89.2153778 81.2142944
-129.6007385 -89.3969574 80.0117493
-130.9414368 -89.5838318 78.7155685
-60.6591034 -88.7091675 65.5892487
-61.7212257 -88.4612274 67.8327713
-62.7458954 -88.2331848 69.7278290
-78.9276810 -86.5718460 85.5254211
-82.2384949 -86.4319611 87.1786957
-125.7759705 -87.8924332 82.2043228
-127.0995255 -88.0475311 81.1468964
-128.4428101 -88.2173920 79.9790344
-129.7987213 -88.4031601 78.7050171
-61.8299294 -87.5137711 66.1507797
-62.8566513 -87.2725296 68.2005768
-79.0096970 -85.5539474 84.5820770
-82.3244019 -85.4134293 86.2567139
-125.9396362 -86.8955383 81.0072250
-127.2765808 -87.0550232 79.8966827
-128.6031799 -87.2319870 78.7001801
-130.0156250 -87.4189606 77.3007202
-61.9519577 -86.5692520 64.2911530
-62.9909325 -86.3254318 66.5243454
-64.0206070 -86.1012878 68.4540863
-65.0528717 -85.9115448 70.1647263
-79.1154633 -84.5420456 83.5742493
-80.2083359 -84.4952240 84.1971436
-81.3118439 -84.4370117 84.7544708
-82.4219971 -84.3954391 85.2841797
-123.5139465 -85.6122665 81.6999588
-124.8042297 -85.7506943 80.7539368
-126.1266022 -85.9027634 79.7038116
-63.1063614 -85.3683624 64.6658554
-64.1479950 -85.1549377 66.7531815
-65.1686554 -84.9527740 68.5410004
-79.2111359 -83.5327072 82.5075073
-80.3051300 -83.4819412 83.1450653
-81.4132614 -83.4326706 83.7322845
-82.5220947 -83.3822098 84.2670593
-123.6943054 -84.6193695 80.4000702
-125.0151367 -84.7616425 79.3817215
-126.3474426 -84.9212341 78.2777710
53.8737373 -104.1344910 -121.4718704
52.4231987 -104.1658783 -121.4581680
51.0241318 -104.2121887 -121.6136169
49.6105270 -104.2766571 -121.9665298
-64.2901764 -84.2213287 64.8240662
-65.3147202 -84.0079727 66.7709351
-123.8854523 -83.6376114 79.0045471
-125.2108307 -83.7876968 77.9361572
60.8354530 -102.2833710 -118.7398300
59.3661575 -102.1791687 -118.0003204
57.9280205 -102.1416245 -117.4630051
56.4924507 -102.1308136 -117.0952682
55.0693779 -102.1123810 -116.8161697
53.6499557 -102.1299210 -116.6966705
52.2365799 -102.1524124 -116.6863022
50.8306427 -102.1930237 -116.8282166
49.4234581 -102.2347183 -117.0484543
48.0416107 -102.2932053 -117.4165039
46.6263351 -102.3937454 -117.9166412
45.2280807 -102.5537949 -118.5773849
43.8424683 -102.6709747 -119.3725815
-64.4438324 -83.3079681 62.6417999
-65.4686890 -83.0921021 64.7771301
-124.1169586 -82.6624374 77.4701309
-125.4494171 -82.8215332 76.3268280
-126.7714767 -83.0027008 75.0811996
66.4834900 -100.7406158 -118.5442963
60.6303215 -100.3888474 -114.8099213
59.1797218 -100.3656158 -114.2715607
43.7157288 -100.7558060 -115.4554596
42.3328667 -100.8703003 -116.2394257
40.9484406 -101.0241394 -117.1491547
39.5410080 -101.2131653 -118.2942352
-65.6415558 -82.1891708 62.5237885
-66.6561356 -81.9670410 64.6370773
-67.7010193 -81.7571716 66.5926208
-68.7488174 -81.5749664 68.2809296
-69.7947235 -81.4104996 69.7611237
-121.7030640 -81.4118805 77.9090576
-122.9976654 -81.5515671 76.9411545
-124.3234863 -81.7088318 75.8452759
-125.6824036 -81.8732681 74.5927887
69.2445831 -99.1250534 -117.2776871
67.7396698 -98.9750137 -115.8930969
66.2664566 -98.8675308 -114.7635422
64.8051376 -98.8000488 -113.8302460
63.3476334 -98.7162018 -112.9673615
61.9000778 -98.6968231 -112.3240662
60.4738655 -98.6513062 -111.7485733
59.0321770 -98.6423264 -111.3205185
43.5967484 -99.0267258 -112.3838501
42.2097282 -99.1302490 -113.0690918
40.8283157 -99.2248611 -113.8242950
39.4405060 -99.3428040 -114.7456055
38.0727959 -99.4859238 -115.8067322
36.6661644 -99.7114792 -117.0353088
-66.8215637 -81.0424576 62.3209190
-67.8517609 -80.8205566 64.4532623
-68.8987274 -80.6479034 66.3028641
-69.9476089 -80.4747849 67.9362564
-121.9446716 -80.4522171 76.2455826
-123.2537994 -80.5963898 75.1907730
72.0413818 -97.6228180 -116.7080078
70.5273438 -97.4580841 -115.1757507
69.0390930 -97.3388748 -113.8591003
67.5643616 -97.2375259 -112.7439499
37.9797096 -97.7510681 -112.7870560
36.5933952 -97.9006958 -113.8467407
35.2020531 -98.0859222 -115.0339890
-69.0742340 -79.7313309 64.0894394
-70.1255035 -79.5547943 65.8809280
-71.1645966 -79.3833771 67.4523773
-72.2184448 -79.2354431 68.8820496
-119.5675659 -79.2341156 76.4085236
-120.8439331 -79.3629456 75.5000000
-122.1775818 -79.5021973 74.4428177
74.8661194 -96.1806335 -116.8031158
73.3483887 -95.9953003 -115.0539169
71.8431396 -95.8514328 -113.5293579
70.3397827 -95.7251511 -112.1945267
68.8781662 -95.6461029 -111.1306381
67.4095154 -95.5785522 -110.2043610
37.8836517 -96.1011887 -110.3434906
36.5029221 -96.2270889 -111.2784729
35.1375122 -96.3426514 -112.2931900
33.7541542 -96.5050659 -113.5004883
32.3793488 -96.6930695 -114.8309937
-69.2670593 -78.8274307 61.5042038
-70.3153839 -78.6638184 63.5163727
-71.3402405 -78.4822235 65.2604218
-72.3952179 -78.3168640 66.8608017
-119.8107376 -78.2841415 74.5809784
-121.1106873 -78.4217072 73.5798340
74.6612396 -94.4192200 -113.7092590
73.1574097 -94.2838745 -112.2050171
32.3111229 -94.9894714 -112.2582397
30.9353218 -95.1615906 -113.6197128
-71.5456619 -77.5889053 62.7758675
-72.6004486 -77.4252625 64.5462341
-73.6414185 -77.2580566 66.0924072
-74.6971512 -77.1111832 67.5112228
-114.9332428 -76.8876495 75.9311905
-116.1958847 -76.9904938 75.2289047
-117.4824219 -77.0991287 74.4330750
-118.7745361 -77.2198105 73.5519257
-120.0906372 -77.3555450 72.5433807
77.5331421 -93.0655365 -114.4501190
76.0138626 -92.8905487 -112.7008514
74.4991608 -92.7552872 -111.1739655
73.0160599 -92.6456757 -109.8830643
32.2388687 -93.3596802 -110.0302582
30.8835526 -93.4854279 -111.2212753
29.5007381 -93.6453857 -112.6188507
-72.8017731 -76.5390930 61.8299332
-73.8514938 -76.3828812 63.6171188
-74.9021225 -76.2197266 65.2209778
-115.1771240 -75.9466858 74.0412750
-116.4640503 -76.0481262 73.2468948
-117.7428436 -76.1690140 72.3914413
-119.0540771 -76.2962799 71.3950958
-120.4074097 -76.4373016 70.2367020
80.4227905 -91.7362671 -115.7133713
78.8795624 -91.5467758 -113.6690063
77.3600311 -91.3890762 -111.9179993
75.8579788 -91.2531509 -110.3843689
32.1858749 -91.7595367 -108.0979614
30.8145638 -91.8943481 -109.2182617
29.4332924 -92.0421143 -110.4617538
-74.0842667 -75.4961548 60.7213440
-75.1332779 -75.3415985 62.5372581
-76.1703339 -75.1983414 64.1090927
-77.2307129 -75.0611725 65.5252304
-78.3000488 -74.9335480 66.7608490
-79.3786774 -74.8268433 67.8920898
-112.9242325 -74.8198395 73.3330688
-114.1865158 -74.9117737 72.6610489
-115.4543457 -75.0181885 71.9149857
-116.7374039 -75.1390533 71.0444794
81.8146667 -90.2708740 -115.2626266
80.2525330 -90.0737076 -113.1457138
78.7331085 -89.9154358 -111.3570862
77.2173004 -89.7780533 -109.7863235
75.7266006 -89.6632462 -108.4261169
32.1375351 -90.1808853 -106.3970642
30.7622681 -90.3127136 -107.4390030
29.3827744 -90.4519882 -108.5889664
-76.4228745 -74.3326187 61.1853752
-77.4790726 -74.1960068 62.8037834
-78.5446548 -74.0571136 64.2093811
-79.6109467 -73.9346771 65.4733810
-113.2043839 -73.8963470 71.1114655
-114.4806137 -74.0000610 70.3562317
-115.7641754 -74.1192932 69.5067291
-117.0654907 -74.2578201 68.4995728
81.6212463 -88.6202621 -112.8276138
34.8419418 -88.4002304 -103.1809311
33.4601784 -88.5168152 -103.9972382
32.0934067 -88.6219025 -104.8636932
30.7207985 -88.7447052 -105.8368912
-78.8015289 -73.1877823 61.2060699
-79.8689651 -73.0784912 62.6522903
-80.9382172 -72.9625854 63.9727516
-81.9955292 -72.8511963 65.1164703
-83.0844269 -72.7579651 66.1608963
-84.1758881 -72.6714630 67.0477676
-106.0563507 -72.5402908 71.7942200
-107.2664795 -72.5979233 71.4693756
-108.5088654 -72.6559143 71.0498657
-109.7333374 -72.7291718 70.5856323
-110.9705505 -72.8111115 70.0307236
-112.2542114 -72.9022522 69.3528519
-113.5135345 -73.0032578 68.6083450
-114.8182678 -73.1096497 67.7128372
84.6257553 -87.4148636 -115.0499802
83.0315094 -87.1908417 -112.7443542
81.4834671 -87.0103073 -110.7686920
34.8006516 -86.8832703 -101.8963318
33.4215240 -86.9750366 -102.6470871
32.0529976 -87.0892029 -103.4877930
30.6867561 -87.1986389 -104.4184113
-81.2144012 -72.1071396 60.7766190
-82.2706146 -72.0027084 62.1046143
-83.3560028 -71.9035873 63.3199425
-84.4462585 -71.8084793 64.3512802
-106.3416977 -71.6283798 69.4179306
-107.5747528 -71.6906738 69.0305939
-108.8067932 -71.7582474 68.5623093
-110.0613251 -71.8372345 67.9979477
-111.3066330 -71.9343948 67.3420258
84.4304352 -85.7764664 -112.8043137
37.5161057 -85.2022400 -99.4534225
36.1305695 -85.2888184 -100.0638657
34.7610550 -85.3706207 -100.7017441
33.3788223 -85.4894562 -101.4120483
-83.6661682 -71.0339737 59.8470535
-84.7498703 -70.9573441 61.0928383
-85.8410034 -70.8858795 62.2049904
-86.9188309 -70.8017578 63.1656952
-88.0199814 -70.7312469 63.9913979
-89.1401062 -70.6679688 64.7136078
-90.2518463 -70.6207428 65.3512497
-91.3887329 -70.5807800 65.9302216
-92.4985809 -70.5519180 66.4285431
-93.6501923 -70.5229950 66.7983246
-94.8064041 -70.5062332 67.1028519
-95.9554520 -70.5005722 67.3741150
-97.1032410 -70.4988937 67.5887451
-98.2734604 -70.5033264 67.7165222
-101.8235092 -70.5642014 67.6942368
-103.0147324 -70.5980835 67.5604553
-104.2265930 -70.6439667 67.3657761
-105.4356003 -70.6919785 67.0608673
-106.6683350 -70.7537384 66.6651077
-107.9102707 -70.8282852 66.1993332
85.8647537 -84.3864059 -113.0780029
84.3025742 -84.2032852 -110.9532852
37.4741096 -83.7153625 -98.4204636
36.0847473 -83.7920685 -98.9946899
-87.2609406 -69.9683380 59.5196686
-88.3616028 -69.9374084 60.5194092
-89.4780807 -69.8529129 61.3792801
-90.5867462 -69.8033447 62.1366386
-91.7064133 -69.7601547 62.8026085
-92.8197861 -69.7155304 63.3515930
-93.9636536 -69.6808929 63.7963257
-95.1045074 -69.6662140 64.1701355
-96.2660446 -69.6518402 64.4454880
-97.4248810 -69.6458893 64.6646347
-98.5831451 -69.6440659 64.7814865
-102.1680450 -69.7202911 64.6957550
-103.3607254 -69.7576447 64.4994354
-104.5814819 -69.8068924 64.2141266
-105.8080063 -69.8681259 63.8564453
-107.0593719 -69.9347763 63.3252220
87.2954636 -83.0115662 -113.5350266
85.7222977 -82.8172760 -111.2735672
84.1699371 -82.6500397 -109.3161087
37.4444656 -82.2332611 -97.4573517
36.0695915 -82.3011475 -97.9952087
-93.2252502 -68.9540558 59.4759483
-94.3696136 -68.8762894 60.0139160
-97.8232880 -68.8582535 61.0358849
-98.9732895 -68.8562622 61.1810265
-100.1754990 -68.8727112 61.2128754
-101.3831329 -68.8706284 61.1055794
-102.5840912 -68.8898621 60.9748154
-103.8133392 -68.9289474 60.6751442
88.7741241 -81.6795654 -114.2447052
87.1543732 -81.4468689 -111.7858047
85.6035919 -81.2728195 -109.7159271
84.0735397 -81.1308823 -107.9258881
37.4063683 -80.7736435 -96.5869827
36.0265007 -80.8380051 -97.1122894
88.6256256 -80.1005173 -112.5396881
87.0439529 -79.9192581 -110.3049240
37.3873711 -79.3041916 -95.7646103
90.1073608 -78.7857590 -113.5236664
88.5085144 -78.5752029 -111.0879974
86.9372330 -78.4058075 -108.9932556
37.3399048 -77.8648605 -95.0415649
89.9730530 -77.2468414 -112.0660706
37.3171654 -76.4195557 -94.3695374
91.4964294 -75.9499207 -113.3149261
89.8749237 -75.7450714 -110.8136749
37.2974052 -74.9849243 -93.7477112
91.3738632 -74.4433289 -112.0455017
89.7692947 -74.2512360 -109.6775970
37.2621727 -73.5734634 -93.2005157
92.8988800 -73.1604538 -113.5405273
91.2733459 -72.9512634 -110.9398270
89.6848450 -72.7769012 -108.7129135
37.2528610 -72.1456909 -92.6972504
94.4540558 -71.9026489 -115.3426895
92.7854309 -71.6627197 -112.4287567
37.2377777 -70.7340240 -92.2528076
94.3410034 -70.4051361 -114.2570038
92.7105408 -70.1941833 -111.4957581
37.2115173 -69.3326874 -91.8449402
94.2711334 -68.9372864 -113.3515930
92.6319275 -68.7330475 -110.6788330
37.2050056 -67.9211884 -91.4788284
94.1869507 -67.4742279 -112.5063782
92.5839691 -67.2922516 -110.0195465
37.1857224 -66.5193176 -91.1706390
35.7977448 -66.5865631 -91.6240921
94.1317749 -66.0278168 -111.8533707
92.5253448 -65.8537369 -109.4243164
53.6152000 -64.7124023 -88.5685883
52.2548370 -64.7184296 -88.5300140
37.1692924 -65.1259079 -90.8933258
35.7905350 -65.1807709 -91.3408356
95.7433167 -64.7976532 -114.1254349
94.0759964 -64.5927429 -111.3017883
92.4655838 -64.4233932 -108.9133453
53.5984612 -63.3222542 -88.3307648
52.2391930 -63.3394623 -88.3464584
37.1548843 -63.7390060 -90.6720276
35.7787476 -63.7930527 -91.1281967
94.0618820 -63.1727371 -110.8737030
92.4390564 -63.0077705 -108.5296707
53.5807037 -61.9481659 -88.1972046
52.2081223 -61.9706039 -88.2217636
37.1328049 -62.3535271 -90.5060883
35.7689133 -62.4046745 -90.9540710
34.4276466 -62.4516602 -91.4562073
93.9983978 -61.7466660 -110.4684753
92.4055328 -61.5955315 -108.2086716
53.5701675 -60.5726089 -88.0670624
52.1967163 -60.5928955 -88.0471802
37.1178551 -60.9755020 -90.3657150
35.7578545 -61.0215034 -90.7952576
34.4020348 -61.0764885 -91.2766342
33.0194168 -61.1382980 -91.8212585
97.3059235 -60.7264214 -115.9048462
95.6003723 -60.5133400 -112.8193817
93.9652405 -60.3383255 -110.2064819
92.3973465 -60.1943665 -107.9985504
48.0620728 -59.2843933 -88.0829315
46.7066727 -59.3134651 -88.2188339
45.3198166 -59.3483582 -88.3957443
43.9593315 -59.3771667 -88.6062393
42.5927505 -59.4127960 -88.8605881
41.2066193 -59.4586029 -89.1634369
34.3912315 -59.6952972 -91.1592331
33.0253792 -59.7535172 -91.6997986
31.6450577 -59.8194542 -92.2926941
97.2549057 -59.3051682 -115.6051178
95.5601730 -59.1030273 -112.5947266
93.9419174 -58.9345589 -110.0165100
92.3774109 -58.7950325 -107.8322906
48.0596924 -57.9164963 -88.0369797
46.7026138 -57.9403343 -88.1596375
45.3166885 -57.9750290 -88.3401947
43.9424438 -58.0071373 -88.5630188
42.5602951 -58.0457954 -88.8099365
41.2085953 -58.0839729 -89.0927582
34.3758926 -58.3213806 -91.0932007
33.0130653 -58.3761673 -91.6323853
31.6437759 -58.4373207 -92.2207184
30.2718868 -58.5029068 -92.8440399
56.3145599 -56.4442368 -88.0383987
54.9288368 -56.4544563 -87.9640198
48.0463448 -56.5497932 -88.0272980
46.6917877 -56.5746193 -88.1444092
42.5700874 -56.6860886 -88.7479935
41.2090073 -56.7123604 -89.0467300
