-80.8382568 -107.0851669 107.6368866
-85.2072144 -106.9649200 109.0578308
-86.3198700 -106.9479828 109.3280334
-87.4279785 -106.9297714 109.5875015
-88.5150604 -106.9179459 109.8270874
-89.6177597 -106.9131622 110.0370331
-90.7290192 -106.9055328 110.2230301
-91.8579865 -106.9082947 110.3794632
-92.9542465 -106.9158325 110.5066986
-94.0680084 -106.9231415 110.6189880
-95.1782150 -106.9346313 110.6974869
-96.3186111 -106.9571075 110.7371216
-97.4519501 -106.9805527 110.7648773
-98.5565567 -107.0048828 110.7722855
-99.6854019 -107.0337982 110.7500610
-132.3271790 -109.9449768 96.7852325
-133.7203979 -110.2023315 95.3633728
-52.0991669 -109.7051239 79.1097565
-53.1703682 -109.3417969 81.6085510
-54.1580200 -109.0401077 83.7370911
-76.4884949 -106.1388626 105.9247208
-77.5632401 -106.0866013 106.4302444
-78.6390915 -106.0370178 106.9110413
-79.7316437 -105.9910126 107.3690491
-80.8279572 -105.9490814 107.8005905
-86.2993164 -105.8190308 109.4899979
-87.4054794 -105.8040543 109.7436905
-88.4942398 -105.7901154 109.9623260
-90.7270050 -105.7978363 110.3561783
-91.8350372 -105.7867966 110.5120239
-92.9329910 -105.7914047 110.6502075
-97.4221649 -105.8484268 110.9224548
-98.5342865 -105.8745499 110.9228287
-99.6664276 -105.9025116 110.9014969
-132.2556610 -108.7524567 97.1754761
-133.6446838 -109.0001450 95.7811584
-52.1009102 -108.4919662 79.5947113
-74.2957840 -105.1330719 104.9411392
-75.3829346 -105.0664444 105.5135956
-76.4750061 -105.0145721 106.0536957
-77.5514374 -104.9635773 106.5624237
-80.8095703 -104.8263397 107.9285278
-81.9138641 -104.7913742 108.3233490
-90.7152634 -104.6615372 110.4709625
-91.8190918 -104.6590195 110.6404495
-98.5209122 -104.7504730 111.0565796
-99.6535950 -104.7813339 111.0300980
-100.7882385 -104.8112411 110.9835434
-101.9498520 -104.8534546 110.9083176
-103.0733032 -104.8898010 110.8148651
-104.2076645 -104.9353485 110.6935806
-105.3553162 -104.9849014 110.5442123
-132.2176971 -107.5752029 97.4884186
-133.5876007 -107.8115997 96.1277084
-135.0404663 -108.0880737 94.6048737
-52.0869713 -107.2757492 80.0607529
-74.2837906 -104.0078888 105.0547867
-75.3569031 -103.9487305 105.6172791
-76.4665070 -103.8845215 106.1729736
-77.5455780 -103.8330536 106.6842804
-91.8090515 -103.5425491 110.7504425
-101.9276657 -103.7255707 111.0382080
-108.8047562 -104.0320206 110.0311279
-132.1752014 -106.4039536 97.7636566
-133.5286865 -106.6324463 96.4312515
-52.0697708 -106.0781631 80.4256134
-72.1377869 -103.0191193 103.9202118
-73.2088470 -102.9469299 104.5592270
-74.2743607 -102.8820496 105.1539078
-75.3527603 -102.8211441 105.7196045
-106.4890747 -102.7915955 110.5621872
-107.6530685 -102.8510895 110.3510132
-108.7975693 -102.9106064 110.1146240
-132.1351929 -105.2381821 97.9950104
-133.5071716 -105.4674988 96.6624680
-51.0410385 -105.2593460 78.0905151
-52.0520134 -104.8912582 80.7315521
-72.1260300 -101.8998108 103.9927673
-73.1972733 -101.8278122 104.6250076
-74.2757797 -101.7637939 105.2210236
-75.3514404 -101.7061920 105.7780457
-108.7920151 -101.7966843 110.1779099
-132.1106873 -104.0827179 98.1707611
-133.4626617 -104.3029251 96.8757782
-134.8769226 -104.5500946 95.4271393
-51.0397186 -104.0625916 78.4514160
-52.0358620 -103.7174072 80.9683838
-72.1302643 -100.7811356 104.0360565
-108.7823486 -100.6805573 110.2177887
-134.8278046 -103.3861847 95.6207962
-51.0150719 -102.8915634 78.6438293
-52.0275993 -102.5499268 81.1569061
-72.1223831 -99.6744385 104.0412521
-106.4678116 -99.4591064 110.6615753
-107.6249390 -99.5133438 110.4629898
-108.7781372 -99.5717621 110.2321777
-134.8205566 -102.2369537 95.7441177
-49.9779816 -102.1239929 75.9139404
-51.0142517 -101.7250443 78.8062286
-52.0181885 -101.3934174 81.2775955
-72.1290131 -98.5628510 104.0390778
-75.3480377 -98.3769531 105.8170853
-76.4438782 -98.3253860 106.3462830
-106.4756088 -98.3562241 110.6477814
-107.6250000 -98.4085388 110.4463806
-108.7799301 -98.4667740 110.2183380
-134.8002472 -101.0908051 95.8331604
-50.9883385 -100.5733795 78.8801880
-52.0174408 -100.2437897 81.3510132
-72.1218719 -97.4596252 103.9985962
-107.6344147 -97.3090668 110.4100342
-108.7838898 -97.3656082 110.1781158
-134.7873535 -99.9534149 95.8586044
-136.1526642 -100.1917419 94.3884735
-50.9839478 -99.4242401 78.9284058
-52.0168686 -99.1035538 81.3597641
-72.1319580 -96.3577042 103.9426270
-108.7889557 -96.2669601 110.1169357
-109.9536438 -96.3279266 109.8588867
-111.1210327 -96.3921051 109.5785751
-134.7881470 -98.8225250 95.8501053
-136.1356506 -99.0524902 94.4104614
-50.9803238 -98.2876892 78.8892822
-52.0226059 -97.9692154 81.3276825
-72.1434860 -95.2616577 103.8483276
-109.9651337 -95.2324524 109.7776108
-111.1193390 -95.2951965 109.4977417
-134.7883911 -97.6946335 95.8181076
-136.1525726 -97.9254684 94.3630676
-72.1539383 -94.1691513 103.7212143
-109.9773026 -94.1405563 109.6637650
-111.1467972 -94.2042007 109.3766479
-134.7924805 -96.5725250 95.7419510
-136.1573944 -96.8005524 94.2901459
-49.9906616 -96.3992157 75.8206940
-72.1629791 -93.0796967 103.5756073
-73.2362366 -93.0170364 104.1989441
-108.8353195 -92.9944153 109.7698746
-109.9998856 -93.0528412 109.5180283
-111.1524353 -93.1140213 109.2420654
-134.8211365 -95.4597778 95.6021118
-136.1636047 -95.6803284 94.1843719
-50.0354156 -95.2803650 75.6246262
-51.0536461 -94.9214325 78.4472809
-52.0456085 -94.6176453 80.8507538
-70.0223618 -92.1294861 102.0631866
-71.0918427 -92.0583649 102.7537918
-72.1815338 -91.9908752 103.4218369
-73.2626801 -91.9325256 104.0249634
-108.8513870 -91.9078140 109.6169510
-134.8363037 -94.3492737 95.4394379
-50.0739212 -94.1727676 75.3387299
-51.0671921 -93.8178253 78.1567230
-52.0686493 -93.5113144 80.6062012
-70.0343475 -91.0439072 101.8674774
-73.2831726 -90.8485947 103.8278656
-74.3570862 -90.7888031 104.4317093
-108.8764877 -90.8228302 109.4471283
-134.8686829 -93.2458801 95.2218781
-51.0895920 -92.7168274 77.8419189
-52.0940247 -92.4116058 80.3093643
-70.0585785 -89.9618683 101.6460266
-73.2880783 -89.7662811 103.6246414
-74.3724442 -89.7071686 104.2340698
-110.0704041 -89.8014145 108.9725342
-111.2257156 -89.8633804 108.6846008
-112.4124222 -89.9293289 108.3624878
-113.5801086 -89.9989471 108.0142212
-134.8884735 -92.1459579 94.9784241
-136.2777100 -92.3646088 93.5158920
-51.1114845 -91.6267548 77.4388351
-52.1182976 -91.3208237 79.9365387
-70.0861740 -88.8840027 101.3907318
-71.1513367 -88.8145447 102.0814590
-72.2434540 -88.7490997 102.7553101
-73.3150406 -88.6877594 103.3799896
-74.3944626 -88.6312866 103.9848099
-110.0910873 -88.7234879 108.7382431
-111.2606201 -88.7849121 108.4492493
-112.4415512 -88.8508606 108.1227875
-113.6192627 -88.9208374 107.7674713
-134.9407959 -91.0566025 94.6444168
-51.1390419 -90.5454636 76.9560623
-52.1463814 -90.2377472 79.4950409
-74.4147797 -87.5570374 103.7070770
-113.6512527 -87.8448792 107.5031433
-132.2854462 -89.5739670 96.9363403
-133.6046295 -89.7602539 95.7070923
-134.9812469 -89.9737244 94.2570801
-51.1618271 -89.4657288 76.4298248
-52.1842499 -89.1617508 78.9974213
-74.4478073 -86.4858551 103.4171143
-75.5177383 -86.4339447 103.9770584
-76.6135712 -86.3870010 104.5305786
-77.6828308 -86.3378143 105.0490265
-108.9984741 -86.5215912 108.4411545
-113.6946411 -86.7703857 107.2087250
-132.3302917 -88.4901047 96.5819778
-133.6659851 -88.6774902 95.3273163
-135.0311432 -88.8864899 93.9087448
-51.1906433 -88.3928070 75.8406525
-52.2164459 -88.0898514 78.4335938
-53.2403336 -87.8194351 80.7446365
-54.2492447 -87.5838776 82.7496948
-76.6412811 -85.3182678 104.2049713
-77.7210846 -85.2728882 104.7221985
-107.8739777 -85.4015961 108.3626938
-109.0291672 -85.4533081 108.1278992
-110.2056122 -85.5084763 107.8676910
-111.3715820 -85.5673523 107.5816345
-112.5437393 -85.6319122 107.2559814
-113.7243652 -85.7005005 106.8918076
-132.4020996 -87.4129944 96.1669083
-133.7235565 -87.5998764 94.9061127
-52.2427368 -87.0192184 77.8645248
-53.2882042 -86.7496338 80.2014008
-54.2908440 -86.5140152 82.2273254
-76.6750107 -84.2533722 103.8569412
-77.7620239 -84.2093735 104.3681946
-106.7569962 -84.2852478 108.2337189
-107.9196548 -84.3344116 108.0263214
-109.0771484 -84.3871307 107.7947845
-110.2522430 -84.4413147 107.5313492
-111.4164276 -84.5001907 107.2392120
-112.6036835 -84.5640182 106.9034576
-113.7791367 -84.6315765 106.5394669
-132.4653015 -86.3390198 95.7137451
-133.8148651 -86.5321655 94.3927917
-53.3244781 -85.6885376 79.5626984
-54.3427811 -85.4473267 81.6685791
-76.7060089 -83.1863861 103.4779205
-77.7981567 -83.1470184 103.9909439
-78.8816071 -83.1069794 104.4764328
-106.8041077 -83.2232437 107.8737564
-132.5425110 -85.2708817 95.2173767
-133.8768616 -85.4596481 93.9081955
-52.3199883 -84.9036713 76.4030762
-53.3754501 -84.6327362 78.8732834
-54.3821030 -84.3914261 81.0053864
-76.7515411 -82.1270828 103.0876541
-80.0099640 -82.0109100 104.5453873
-81.0978699 -81.9815369 104.9690247
-82.1993332 -81.9512558 105.3718185
-88.8018951 -81.8591003 107.1771774
-89.9053802 -81.8520889 107.3864746
-91.0072403 -81.8509140 107.5797348
-92.1236801 -81.8505783 107.7316055
-93.2360535 -81.8450012 107.8837204
-97.7298126 -81.9059601 108.1489792
-98.8590012 -81.9278870 108.1535492
-99.9862976 -81.9483337 108.1423111
-101.1104279 -81.9772644 108.1128998
-102.2723389 -82.0038300 108.0424194
-103.4061356 -82.0378189 107.9455261
-104.5458145 -82.0784302 107.8170624
-105.7019424 -82.1159210 107.6574249
-106.8604202 -82.1617966 107.4774780
-132.6200409 -84.2033691 94.6856766
-133.9568481 -84.3937683 93.3519058
-53.4280510 -83.5865021 78.0855713
-54.4165497 -83.3413849 80.2440262
-76.7806091 -81.0681229 102.6537476
-82.2384033 -80.8957138 104.9524002
-86.6222076 -80.8172913 106.2691879
-87.7317352 -80.8074188 106.5285721
-88.8434067 -80.8015289 106.7623596
-92.1655197 -80.7978287 107.3245239
-93.2813721 -80.7923431 107.4624939
-94.4058304 -80.8029404 107.5851440
-95.5261688 -80.8130188 107.6611023
-132.7053833 -83.1440048 94.0942917
-134.0537720 -83.3363266 92.7273560
-53.4844818 -82.5489807 77.2156143
-54.4747467 -82.2966003 79.4608459
-76.8271027 -80.0105438 102.1961594
-77.9159851 -79.9705124 102.7283173
-78.9999847 -79.9246826 103.2251968
-82.2854538 -79.8366318 104.5055161
-83.3696518 -79.8138885 104.8800507
-84.4784393 -79.7939911 105.2361679
-85.5747528 -79.7745361 105.5458298
-86.6778641 -79.7645264 105.8332367
-87.7763062 -79.7512360 106.0948334
-88.8886108 -79.7447815 106.3358307
-92.2194977 -79.7392426 106.8999481
-93.3235550 -79.7466583 107.0336685
-94.4575500 -79.7521286 107.1417313
-95.5730667 -79.7611542 107.2284164
-132.8097687 -82.0893707 93.4372711
-53.5295906 -81.5135269 76.2550201
-54.5464211 -81.2583923 78.6212463
-76.8762741 -78.9569244 101.7187500
-77.9625397 -78.9158707 102.2493591
-79.0542603 -78.8745728 102.7443695
-80.1466064 -78.8456879 103.2098465
-81.2302704 -78.8109283 103.6310043
-82.3242798 -78.7866364 104.0393372
-101.2728577 -78.8109283 106.7884293
-102.4146118 -78.8416519 106.7229919
-103.5636139 -78.8714142 106.6254044
-104.7190552 -78.9070511 106.4945221
-105.8625641 -78.9468079 106.3392944
-107.0237122 -78.9876556 106.1526031
-132.9173584 -81.0393524 92.7330170
-53.5945206 -80.4815521 75.2382278
-54.6048698 -80.2258530 77.6547699
-76.9222107 -77.9038925 101.2043762
-78.0173111 -77.8630981 101.7359161
-79.1020050 -77.8243408 102.2232056
-80.1957092 -77.7918320 102.6914825
-81.2765350 -77.7582855 103.1281815
-82.3836441 -77.7365875 103.5406342
-101.3417435 -77.7555084 106.2997055
-102.4840088 -77.7864761 106.2318878
-103.6219025 -77.8196793 106.1339569
-104.7742462 -77.8547363 106.0017700
-105.9224854 -77.8955154 105.8427734
-107.0783310 -77.9380264 105.6563263
-133.0283356 -79.9915085 91.9852524
-54.6550446 -79.1950073 76.6004715
-55.7038002 -78.9622040 78.9029846
-56.7057800 -78.7464294 80.8863678
-76.9798431 -76.8550797 100.6586456
-78.0641785 -76.8125687 101.1782532
-82.4318085 -76.6815567 102.9985733
-101.3960876 -76.7032394 105.7845230
-105.9882507 -76.8422089 105.3134537
-107.1397400 -76.8885880 105.1268311
-130.4529114 -78.5995865 93.7999115
-131.7835388 -78.7680359 92.5522766
-133.1520233 -78.9486771 91.1736603
-55.7688675 -77.9413605 77.8247528
-56.7891273 -77.7197952 79.9420242
-77.0337677 -75.8060303 100.0712280
-78.1261902 -75.7697525 100.5951920
-82.4894104 -75.6326675 102.4502335
-101.4670410 -75.6587219 105.2372742
-106.0603333 -75.7960434 104.7543335
-107.2256851 -75.8359985 104.5531845
-130.5667114 -77.5584335 92.9997787
-131.9116974 -77.7288895 91.7098694
-133.2995605 -77.9080124 90.2865829
-55.8500481 -76.9245300 76.7042923
-56.8668747 -76.6962128 78.8968964
-77.0902710 -74.7610626 99.4481659
-78.1800995 -74.7223511 99.9877014
-79.2651520 -74.6798859 100.5042572
-80.3526001 -74.6435852 100.9938049
-81.4535370 -74.6177444 101.4532928
-82.5473175 -74.5903625 101.8726044
-101.5342941 -74.6136780 104.6561813
-102.6845856 -74.6382751 104.5755234
-103.8273010 -74.6756439 104.4694290
-104.9929276 -74.7061386 104.3229828
-106.1290436 -74.7503738 104.1643219
-107.3057404 -74.7900467 103.9572601
-128.0492554 -76.2154236 94.4455338
-129.3645935 -76.3614655 93.3409805
-130.6961365 -76.5210419 92.1362152
-55.9193535 -75.9106979 75.4609222
-56.9487915 -75.6855621 77.7526474
-77.1466904 -73.7160797 98.7893372
-78.2330627 -73.6763153 99.3419113
-79.3282013 -73.6378479 99.8690491
-80.4172668 -73.5985641 100.3624878
-81.5209198 -73.5723724 100.8257294
-82.6201630 -73.5362854 101.2348175
-101.6079102 -73.5678329 104.0440445
-102.7540817 -73.5979004 103.9597473
-103.9094162 -73.6306458 103.8433075
-105.0741043 -73.6616669 103.6994019
-106.2095642 -73.7076263 103.5412140
-107.3793640 -73.7452087 103.3309250
-128.1619263 -75.1814117 93.6069336
-129.4886475 -75.3296585 92.4632950
-130.8327637 -75.4892731 91.2112274
-57.0283661 -74.6772003 76.4783936
-58.0682373 -74.4627228 78.6618576
-59.0668449 -74.2696686 80.5123901
-128.3047333 -74.1461945 92.6835861
-129.6295319 -74.2977371 91.5111084
-58.1499901 -73.4594193 77.3588562
-59.1553574 -73.2577209 79.3301239
-128.4539795 -73.1199341 91.7029648
-129.7819061 -73.2716980 90.4868164
-58.2408905 -72.4623260 75.9408035
-59.2552490 -72.2581635 78.0551682
-128.5971375 -72.0973129 90.6584320
-129.9386902 -72.2600861 89.3749847
-58.3469849 -71.4714813 74.4237213
-59.3536453 -71.2677002 76.6118240
-128.7731018 -71.0819550 89.5064468
-130.1189880 -71.2423096 88.1782532
-59.4695969 -70.2821732 75.0524368
-60.4741020 -70.0819550 77.1643219
-61.5085831 -69.8961105 79.1153183
-126.2764130 -69.7775650 90.6937256
-127.6104507 -69.9191895 89.5370331
-128.9589844 -70.0719452 88.2692947
-59.5708733 -69.3058090 73.2499161
-60.5910416 -69.1023254 75.5632477
-61.6283989 -68.9077988 77.6618118
-126.4462204 -68.7669449 89.4884796
-127.7967682 -68.9084473 88.2665710
55.5127869 -84.9316025 -113.4191513
54.1000366 -84.9395752 -113.2192917
52.6796265 -84.9612427 -113.2345810
51.2776146 -84.9932785 -113.4045105
-60.6935577 -68.1154785 73.7841797
-61.7487183 -67.9319611 76.0227737
-62.7646332 -67.7496948 77.9498825
-63.7819366 -67.5892029 79.6239319
-124.0017090 -67.5011902 90.3830643
-125.3350754 -67.6260681 89.3118973
-126.6465683 -67.7639008 88.1710663
60.9946518 -83.1470337 -110.5222855
59.5582924 -83.0758286 -109.8844299
58.1206589 -83.0525513 -109.3906479
56.7153854 -83.0371857 -109.0449905
55.3004112 -83.0279999 -108.7776489
53.8993263 -83.0517120 -108.6892853
52.4837570 -83.0737686 -108.7295380
51.0876923 -83.1084595 -108.8763123
49.6974449 -83.1561279 -109.1264801
48.3069611 -83.2058945 -109.4858093
45.5367584 -83.4000092 -110.6015167
44.1645584 -83.5165405 -111.4178619
42.7881393 -83.6341400 -112.4168854
-61.8806763 -66.9596558 74.2283401
-62.8966255 -66.7726135 76.3187790
-63.9108162 -66.6062851 78.1155777
-124.1984253 -66.4917297 89.0709152
-125.5332718 -66.6208954 87.9486771
-126.8542480 -66.7630615 86.7431717
66.5971985 -81.6119995 -110.2386169
65.1217041 -81.5219269 -109.0887146
63.6758499 -81.4578705 -108.1569901
62.2302399 -81.4096375 -107.3879852
60.7993507 -81.3653412 -106.7316971
59.3803558 -81.3409500 -106.2215271
49.5527458 -81.4504471 -105.6778793
48.1634712 -81.4985809 -105.9802704
46.7856102 -81.5535736 -106.3945923
45.4044228 -81.6245270 -106.9232407
44.0332870 -81.6962967 -107.5697174
42.6401215 -81.7891922 -108.3766022
41.2774734 -81.8964386 -109.2650146
39.8842468 -82.0837173 -110.3756180
-63.0042114 -65.7877502 74.5038986
-64.0404434 -65.6282806 76.4158478
-121.8127975 -65.2534180 89.6764755
-123.1003952 -65.3668823 88.7182388
-124.3988419 -65.4885712 87.6728668
69.3603897 -80.0390472 -108.8635788
67.8483429 -79.9548492 -107.6803284
66.3951187 -79.8769531 -106.5955658
64.9346008 -79.8196411 -105.6849442
63.5034561 -79.7710114 -104.9287109
62.0713272 -79.7428436 -104.3011017
60.6522293 -79.7109680 -103.7599487
59.2371979 -79.6856842 -103.3288116
49.4281387 -79.8039322 -102.8883591
48.0397644 -79.8491058 -103.1594391
46.6605835 -79.9078674 -103.5285492
45.2789917 -79.9661789 -103.9706116
43.9079285 -80.0472870 -104.5451508
42.5240707 -80.1220398 -105.2155228
41.1684532 -80.2040710 -105.9811478
39.7915802 -80.3076553 -106.8935852
38.4237709 -80.4298019 -107.9083252
37.0479393 -80.6043396 -109.1396179
-64.2021103 -64.6758423 74.5464706
-122.0015411 -64.2529831 88.2953033
-123.3047943 -64.3688965 87.2713928
-124.6102142 -64.4962311 86.1550674
72.0997925 -78.5739594 -108.2744904
70.6066971 -78.4553833 -106.8575439
69.1559067 -78.3721542 -105.6885300
67.6782303 -78.2859344 -104.6018982
38.3292923 -78.7713623 -104.9917831
36.9578171 -78.8761673 -106.0234985
-64.3460388 -63.7175217 72.3635788
-65.3600464 -63.5499954 74.4930878
-66.3841095 -63.3787766 76.3352203
-122.2067871 -63.2576103 86.7899399
-123.5302277 -63.3834000 85.6865540
74.9114990 -77.1475525 -108.3592987
73.3953247 -77.0005798 -106.6796112
71.9136658 -76.8930740 -105.2424622
70.4375916 -76.7931366 -103.9995117
68.9955902 -76.7403564 -102.9951935
67.5193787 -76.6685410 -102.0551300
38.2368011 -77.1662140 -102.5300064
36.8753128 -77.2609787 -103.4194717
35.4999199 -77.3836823 -104.4616318
34.1286964 -77.5193176 -105.6685104
32.7710571 -77.6463928 -107.0091095
31.3989143 -77.8381271 -108.5289383
-65.4981384 -62.5746078 72.2200928
-66.5474243 -62.4324570 74.3071442
-122.4472885 -62.2716293 85.1214447
-123.7754059 -62.3987579 83.9406433
76.2348022 -75.6198730 -107.0273590
32.7039909 -76.0149078 -104.3920288
31.3519707 -76.1551514 -105.7494354
29.9779816 -76.3169479 -107.3109283
-66.7190323 -61.4787788 71.9597321
-67.7552185 -61.3299942 74.0049515
-68.7717590 -61.1777344 75.7589188
-120.0737457 -61.0580521 85.4763794
-121.3657303 -61.1751862 84.4644012
-122.6966171 -61.2990952 83.2995300
77.5206909 -74.0851669 -105.9236145
76.0345459 -73.9745331 -104.3072433
32.6240616 -74.4406357 -102.1922913
31.2811489 -74.5510101 -103.3855286
29.9145470 -74.6964417 -104.7798004
-68.9593658 -60.2410774 73.5328064
-120.3185959 -60.0848312 83.6523819
-121.6364441 -60.2025261 82.5327606
80.4128342 -72.7818146 -107.0826111
78.8934708 -72.6308365 -105.2071457
77.3751450 -72.5065155 -103.5139313
75.8909149 -72.3961868 -102.0541229
32.5697708 -72.8898926 -100.2766342
31.2092361 -73.0064163 -101.3988953
29.8626919 -73.1120911 -102.6018600
28.4784927 -73.2822495 -103.9648132
-69.1378479 -59.2870064 70.9027710
-70.1748657 -59.1626167 72.8762817
-71.2033615 -59.0218925 74.6280975
-72.2469559 -58.8885193 76.1668777
-73.2832565 -58.7794418 77.5328674
-115.4529495 -58.7091408 85.3513336
-116.7037201 -58.7991753 84.5883560
-117.9925690 -58.8995590 83.7087402
-119.2754593 -59.0059509 82.7366791
-120.5924683 -59.1141129 81.6382904
81.7960663 -71.3235474 -106.5520325
80.2305069 -71.1670685 -104.5975037
78.7384338 -71.0521240 -102.9229736
77.2318726 -70.9419250 -101.4122925
75.7670135 -70.8614807 -100.1299210
32.5296249 -71.3483887 -98.5445175
31.1868019 -71.4483185 -99.5586929
29.7994556 -71.5732193 -100.7418518
28.4336739 -71.6988831 -101.9974365
-70.3768158 -58.2182159 70.0603333
-71.4108734 -58.0949898 72.0874481
-72.4483719 -57.9623756 73.8115082
-73.4762344 -57.8300629 75.3323975
-115.6896515 -57.7388496 83.4972076
-116.9708328 -57.8328857 82.6289825
-118.2640991 -57.9317741 81.6582336
83.1482315 -69.8873901 -106.2689667
81.6194611 -69.7492676 -104.2719574
35.2117920 -69.6466980 -95.3123703
33.8488770 -69.7368851 -96.1161041
32.4856606 -69.8364792 -97.0126953
31.1434631 -69.9308853 -97.9661179
-72.6562729 -57.0145798 71.0840073
-73.6919327 -56.9007607 72.8515167
-74.7256317 -56.7887955 74.3981171
-75.7602081 -56.6749229 75.7654266
-113.4344025 -56.5985947 82.9816284
-114.6802444 -56.6831703 82.2520447
-115.9619293 -56.7745934 81.3939667
-117.2561569 -56.8675995 80.4422302
82.9731598 -68.3043594 -104.0330276
81.4641571 -68.1889420 -102.2316742
35.1729050 -68.1608200 -94.0041809
33.8217621 -68.2365189 -94.7634125
32.4416885 -68.3362503 -95.6392899
31.1002598 -68.4215851 -96.5639191
-74.9667816 -55.8778152 71.6700134
-75.9883423 -55.7636147 73.2454987
-113.7139587 -55.6389694 80.8141022
-114.9751053 -55.7332153 79.9892197
-116.2762451 -55.8132439 79.0281219
84.3819199 -66.9145432 -104.0867310
82.8473969 -66.7806015 -102.1641541
81.3413391 -66.6685867 -100.5153351
35.1299591 -66.6927261 -92.8180237
33.7672920 -66.7966385 -93.5493317
-76.2323990 -54.8194618 70.1363220
-77.3064499 -54.7476807 71.7594833
-78.3546829 -54.6463394 73.1711578
-79.4071274 -54.5399628 74.4192963
-80.4588165 -54.4620476 75.5877228
-109.0085602 -54.3965530 81.1320801
-110.2425003 -54.4606667 80.5791092
-111.4975891 -54.5315552 79.9295044
-112.7453537 -54.6151428 79.2081757
-114.0279770 -54.7011528 78.3543167
85.7921982 -65.5359726 -104.3106461
84.2580719 -65.3951035 -102.2992706
82.7253113 -65.2719269 -100.5311508
81.2331390 -65.1759186 -99.0066681
35.0843430 -65.2286835 -91.7086105
-78.6217880 -53.7289085 70.0095825
-79.6751862 -53.6452713 71.5112457
-80.7214508 -53.5494957 72.8139648
-109.3180923 -53.4510765 78.7181854
-110.5616760 -53.5254211 78.0735397
-111.8330383 -53.5994720 77.2957916
-113.0952225 -53.6862297 76.4460220
87.2030792 -64.1578445 -104.6938782
85.6378937 -64.0060577 -102.5258789
84.1192322 -63.8840218 -100.6905823
37.7841911 -63.6436310 -89.5277100
36.4243927 -63.7035942 -90.0896301
35.0565681 -63.7732239 -90.6987000
-81.0076599 -52.6232872 69.4628296
-82.0781021 -52.5789566 70.8164368
-83.1532669 -52.5064392 71.9827499
-84.2167282 -52.4218521 72.9757996
-85.2951508 -52.3592606 73.9508896
-86.3778915 -52.3057709 74.8009415
-87.4887466 -52.2540207 75.4969482
-99.9882584 -52.1676712 78.7011719
-101.1552582 -52.1970863 78.6428833
-102.3419342 -52.2207298 78.4721985
-103.5418625 -52.2538910 78.2469482
-104.7283783 -52.2964516 77.9649506
-105.9588013 -52.3442993 77.5670090
-107.1716080 -52.4018936 77.1143341
-108.4080124 -52.4515419 76.5516434
-109.6461868 -52.5321922 75.9016266
-110.9233170 -52.6227951 75.1046066
88.6709137 -62.8174133 -105.3497162
87.0659790 -62.6424065 -102.9938965
85.5426636 -62.5238266 -101.0420380
84.0159988 -62.4059982 -99.2999573
37.7498703 -62.1980095 -88.6392365
36.3889656 -62.2607956 -89.1910477
-83.4828796 -51.5913315 68.2492599
-84.5490875 -51.5567474 69.5353851
-85.6254807 -51.4840584 70.6734009
-86.6920624 -51.4225311 71.6344986
-87.7950287 -51.3675766 72.4951172
-100.2965164 -51.2337418 75.9984589
-101.4751358 -51.2622490 75.8976898
-102.6644058 -51.2899590 75.6916275
-103.8788300 -51.3300552 75.4000015
-105.0747375 -51.3914948 75.0559998
-106.3130188 -51.4512329 74.5360641
90.1116104 -61.4688492 -106.1058884
88.5335236 -61.3039970 -103.6860809
86.9644318 -61.1586456 -101.5331497
37.7268982 -60.7693710 -87.8242340
-87.0688629 -50.5295792 67.5906448
-88.1500397 -50.4745789 68.7118607
-89.2519379 -50.4593239 69.5743866
-90.3607101 -50.4135971 70.3269043
-91.4561691 -50.3762856 70.9809113
-92.5722885 -50.3573265 71.5336151
-95.9934692 -50.3082619 72.5675583
-97.1442337 -50.3162384 72.7432404
-98.3056107 -50.3315315 72.8315506
-99.4728012 -50.3387718 72.8355865
-100.6594543 -50.3556747 72.7348251
-105.5092545 -50.4943619 71.3655930
-106.7602768 -50.5640411 70.6897430
89.9744186 -59.9609756 -104.4980469
88.3918610 -59.8062935 -102.1784973
86.8534012 -59.6825638 -100.2142258
37.6900291 -59.3504105 -87.0728378
-93.0231781 -49.4795151 67.1163864
-96.4311447 -49.4374199 68.4013443
-97.5688553 -49.4607544 68.3548279
-98.7647476 -49.4754601 68.6508026
-99.9344788 -49.4544907 68.6020126
-101.1341858 -49.4841385 68.4252014
91.4566116 -58.6401672 -105.5607986
89.8444977 -58.4734039 -103.0457382
37.6625481 -57.9272346 -86.3652191
91.3529587 -57.1552544 -104.1851883
89.7508774 -57.0069351 -101.8180695
37.6319771 -56.5218697 -85.7242432
92.8170776 -55.8412743 -105.4660034
91.2365112 -55.6886559 -102.9501343
89.6631393 -55.5566406 -100.7437286
37.6026077 -55.1176109 -85.1487579
94.4102402 -54.5745392 -107.1247177
92.7374573 -54.3870583 -104.3131943
91.1433716 -54.2367973 -101.8804321
89.5795212 -54.1114731 -99.7753525
37.5927773 -53.7160721 -84.6274033
92.6391830 -52.9335861 -103.2412567
37.5639954 -52.3266296 -84.1591644
92.5455780 -51.4884834 -102.2922058
37.5461235 -50.9313126 -83.7073212
94.0729446 -50.1988831 -103.9506531
92.4677963 -50.0587769 -101.4813919
37.5364914 -49.5430412 -83.3125916
95.6482239 -48.9316711 -105.9472580
94.0158615 -48.7756653 -103.1942978
92.4242249 -48.6455688 -100.8340302
37.5177917 -48.1602249 -82.9987488
95.5631485 -47.4971237 -105.1457901
37.5039139 -46.7874298 -82.7147675
36.1463776 -46.8290329 -83.1695251
97.2207947 -46.2570419 -107.5868683
95.4943390 -46.0742226 -104.4906158
37.4820099 -45.4099159 -82.4588242
36.1353912 -45.4524040 -82.9169159
95.4481277 -44.6652679 -103.9606628
56.5188255 -43.6841393 -79.9848022
55.1634254 -43.6972809 -79.8948288
53.7772026 -43.7158012 -79.8539047
52.4226608 -43.7268219 -79.8405838
37.4766922 -44.0354576 -82.2363434
36.1269760 -44.0767975 -82.6989136
34.7725143 -44.1228409 -83.2088623
95.4069443 -43.2597237 -103.5299606
56.5069656 -42.3331146 -79.8143921
52.4112358 -42.3686790 -79.6807556
37.4662514 -42.6704216 -82.0571594
36.0894051 -42.7155762 -82.5369415
34.7573280 -42.7479324 -83.0334167
97.0337524 -42.0071640 -106.0394745
95.3614349 -41.8620377 -103.1772461
62.0006218 -40.9499512 -80.4356995
60.6330719 -40.9541626 -80.1890717
59.2345238 -40.9502945 -79.9582596
57.8779640 -40.9603882 -79.8263168
56.4830322 -40.9656601 -79.7141342
52.4004555 -41.0076904 -79.5808258
51.0333862 -41.0213318 -79.6157532
49.6711502 -41.0454559 -79.6763000
48.3147888 -41.0628204 -79.7637787
46.9475365 -41.0838242 -79.8847351
34.7443695 -41.3846397 -82.8744431
33.3905029 -41.4302788 -83.3998718
97.0286789 -40.6117630 -105.7728577
95.3374481 -40.4710579 -102.9369965
61.9848900 -39.5941238 -80.3449249
60.6047363 -39.5953941 -80.0966568
53.7572441 -39.6395187 -79.5258789
52.3921280 -39.6470947 -79.5055847
51.0165749 -39.6653748 -79.5298996
49.6552658 -39.6888618 -79.5835800
48.3048134 -39.7017670 -79.6630402
46.9432297 -39.7231712 -79.7881622
34.7396927 -40.0190964 -82.7654724
33.3890076 -40.0629539 -83.2978058
32.0179558 -40.1106186 -83.8940277
30.6653404 -40.1611137 -84.5200958
61.9865761 -38.2412834 -80.3029785
60.6151237 -38.2433701 -80.0749130
53.7446632 -38.2823257 -79.4491730
52.3871346 -38.2955246 -79.4194260
48.3108330 -38.3466721 -79.5993729
46.9256897 -38.3717041 -79.7452164
42.8597260 -38.4481659 -80.3829803
41.5024376 -38.4771156 -80.6641159
40.1543198 -38.5078812 -80.9819870
38.7849960 -38.5427780 -81.3602295
29.3011379 -38.8448029 -85.1423187
61.9809227 -36.8881111 -80.2958069
60.6032448 -36.8906136 -80.0616226
59.2206192 -36.8944588 -79.8332443
55.1091003 -36.9134369 -79.4451370
53.7311783 -36.9257889 -79.3986359
52.3754578 -36.9412079 -79.3833771
48.2881622 -36.9972839 -79.6151733
46.9310226 -37.0161476 -79.7275543
42.8576126 -37.0916176 -80.3801498
38.7673683 -37.1855774 -81.3338318
29.3006268 -37.4785309 -85.1188660
27.9487171 -37.5308418 -85.8416061
59.2236938 -35.5447273 -79.8798447
57.8500252 -35.5505447 -79.7162704
56.4754105 -35.5584450 -79.5753479
55.1110535 -35.5660553 -79.4727631
53.7327042 -35.5780869 -79.4273071
52.3717384 -35.5924034 -79.4260941
51.0002785 -35.6080704 -79.4665833
49.6438217 -35.6253090 -79.5361404
48.2824020 -35.6431732 -79.6316910
44.2008057 -35.7116356 -80.1394348
42.8311920 -35.7397194 -80.4078979
38.7802277 -35.8276215 -81.3461761
29.3061562 -36.1140938 -85.1111603
27.9594955 -36.1637344 -85.8324738
26.5802937 -36.2186508 -86.6284180
25.2315006 -36.2741547 -87.4588318
14.3150921 -36.8604813 -96.8781662
12.9468737 -36.9566536 -98.5106506
11.5946703 -37.0598946 -100.2903748
59.2265739 -34.1964798 -79.9387665
57.8367920 -34.2007561 -79.7543182
56.4659996 -34.2074699 -79.6074905
55.0876007 -34.2181702 -79.5330048
53.7307816 -34.2301331 -79.5001221
52.3834381 -34.2432938 -79.4997177
50.9968643 -34.2589264 -79.5291443
49.6377869 -34.2745743 -79.5720367
48.2754440 -34.2917900 -79.6542053
44.1985817 -34.3586998 -80.1773300
42.8465958 -34.3863411 -80.4583054
41.4730377 -34.4149246 -80.7583923
40.1349907 -34.4430618 -81.0582123
38.7700462 -34.4742355 -81.4179153
29.2929020 -34.7529755 -85.1645584
27.9409828 -34.8019028 -85.8907166
26.5854778 -34.8539581 -86.6775131
25.2273445 -34.9088402 -87.5189667
23.8697853 -34.9663124 -88.4149933
22.5082569 -35.0273972 -89.3840179
21.1473598 -35.0919228 -90.4230347
19.7793217 -35.1601486 -91.5361938
18.4324265 -35.2314758 -92.7151794
17.0509434 -35.3091507 -94.0212936
15.7003059 -35.3899956 -95.3935394
14.3052626 -35.4794540 -96.9387131
12.9400845 -35.5734673 -98.5772858
11.5738544 -35.6749306 -100.3706894
96.9725494 -33.6914597 -105.6149445
95.2977753 -33.5791702 -102.8767395
61.9766541 -32.8428116 -80.4677200
60.5981865 -32.8448296 -80.2317352
59.2185555 -32.8529053 -79.9975204
55.1054802 -32.8701859 -79.6174774
51.0013771 -32.9104004 -79.6124115
49.6536827 -32.9258194 -79.6403275
48.2861366 -32.9418411 -79.7295685
44.2068405 -33.0094910 -80.2724686
42.8324852 -33.0359192 -80.5588379
38.7755432 -33.1211166 -81.5004959
12.9412956 -34.1916809 -98.6737061
11.5668545 -34.2908707 -100.4791107
96.9827957 -32.3226929 -105.8974609
95.3255386 -32.2121811 -103.1331329
61.9774246 -31.4963512 -80.5919037
60.5858307 -31.5012760 -80.3457718
55.0960770 -31.5253582 -79.7293091
50.9932556 -31.5629692 -79.7433090
49.6452522 -31.5767307 -79.7698669
48.2802277 -31.5949898 -79.8752060
45.5692062 -31.6358795 -80.1475983
44.2040367 -31.6617432 -80.4060669
42.8499832 -31.6858444 -80.6638718
38.7753716 -31.7694473 -81.6086121
12.9329891 -32.8129654 -98.8410873
11.5753231 -32.9096527 -100.6368027
96.9781036 -30.9569244 -106.2316666
95.3397980 -30.8473053 -103.4277191
61.9698105 -30.1550770 -80.7571640
60.6068573 -30.1530037 -80.5314560
55.1098557 -30.1803474 -79.9118347
48.2651367 -30.2494659 -80.0673981
46.9140358 -30.2696552 -80.1699219
45.5555420 -30.2909393 -80.3556442
44.1813202 -30.3132477 -80.5877457
42.8637657 -30.3422623 -80.8152237
41.4780464 -30.3624763 -81.1029053
40.1421585 -30.3910179 -81.4137802
38.7721214 -30.4203320 -81.7807541
12.9388275 -31.4358788 -99.0585938
11.5536146 -31.5314465 -100.9074707
10.1778555 -31.6337547 -102.9061508
97.0123291 -29.5924759 -106.6650543
95.3397903 -29.4871273 -103.7797852
61.9741707 -28.8127899 -80.9770889
60.6038895 -28.8127193 -80.7484436
59.2207718 -28.8192787 -80.5475616
57.8468475 -28.8246498 -80.3786469
56.4724541 -28.8292770 -80.2285690
55.0983772 -28.8409252 -80.1313019
48.2891006 -28.9099312 -80.2512207
46.9024086 -28.9242172 -80.3938828
45.5574570 -28.9445763 -80.5838852
44.1838074 -28.9684906 -80.8046570
42.8347092 -28.9928570 -81.0563507
41.4702721 -29.0168076 -81.3500595
40.1201324 -29.0406761 -81.6448135
38.7705841 -29.0719109 -81.9976349
12.9166660 -30.0620499 -99.3678894
11.5584221 -30.1551743 -101.2040710
10.1902094 -30.2627983 -103.2977142
95.3994293 -28.1276608 -104.3262329
12.9209023 -28.6892452 -99.7020950
11.5731878 -28.7825508 -101.5628281
10.2168245 -28.8902912 -103.8002930
97.1387329 -26.8734169 -107.9164734
95.4321594 -26.7733555 -104.9121399
12.9083443 -27.3162079 -100.1291428
11.5620213 -27.4087086 -102.0111084
95.4947968 -25.4163036 -105.5891266
12.9267101 -25.9465427 -100.5799408
11.5481758 -26.0342827 -102.5090637
95.5591354 -24.0662994 -106.4032440
12.9224329 -24.5780106 -101.1346436
11.5459967 -24.6638508 -103.1089706
10.1705647 -24.7601967 -105.4042130
95.6487045 -22.7087727 -107.3274841
93.9746475 -22.6302795 -104.4881058
92.4030533 -22.5550690 -102.1585236
12.9205904 -23.2128868 -101.7696228
11.5707550 -23.2991791 -103.7598267
92.4689026 -21.2025547 -102.9769287
12.9252758 -21.8433533 -102.4846802
11.5712986 -21.9311543 -104.5189362
92.5091400 -19.8582230 -103.8644562
12.9261341 -20.4788837 -103.2966766
11.5812492 -20.5704193 -105.4161835
92.6001282 -18.5168724 -104.9682236
12.9381561 -19.1176624 -104.1947479
11.5852900 -19.2026100 -106.3848267
92.6977768 -17.1657600 -106.1713181
91.1084671 -17.1094284 -103.7613983
89.5434952 -17.0525532 -101.6296463
18.4228745 -17.4973946 -98.2198639
17.0454140 -17.5494537 -99.7357025
15.6966343 -17.6144753 -101.3413162
14.3132935 -17.6826515 -103.1688843
12.9368582 -17.7543468 -105.2060013
92.8190384 -15.8093605 -107.5089035
91.2166977 -15.7613125 -105.0303116
89.6188660 -15.7102852 -102.7318726
18.4388580 -16.1414108 -99.0651245
17.0578346 -16.1917477 -100.6260910
15.6935701 -16.2517471 -102.3143997
14.3139181 -16.3183136 -104.2177734
91.3284988 -14.4139004 -106.3971710
89.6967773 -14.3678694 -103.9555359
18.4517746 -14.7836075 -100.0040131
17.0585728 -14.8290863 -101.6323700
91.4671631 -13.0569019 -107.9278259
89.7980576 -13.0290337 -105.3496170
18.4567986 -13.4209185 -101.0643768
89.9211578 -11.6757755 -106.9162674
88.3455353 -11.6308651 -104.6119385
86.7879639 -11.5950775 -102.5646820
18.4634151 -12.0586348 -102.2219543
17.0691776 -12.1043959 -103.9695587
88.4701691 -10.2744684 -106.1751633
86.8953094 -10.2493353 -104.0326843
18.4790955 -10.7009869 -103.4928894
17.0996208 -10.7460842 -105.3277969
87.0002289 -8.9072676 -105.6310806
21.2258511 -9.2466755 -101.6481934
19.8472023 -9.2836657 -103.2182922
18.5152931 -9.3427505 -104.8778915
17.1135864 -9.3784389 -106.8336792
87.1413956 -7.5641146 -107.5214615
21.2576866 -7.8886452 -103.0104218
19.8755932 -7.9230614 -104.6630020
18.5058746 -7.9676585 -106.4741058
87.3234177 -6.1917820 -109.6439667
85.7149506 -6.1840191 -107.2442017
84.1869736 -6.1453314 -105.2191849
82.6478577 -6.1139894 -103.3926239
81.1452713 -6.0936155 -101.8080215
24.0066071 -6.4503374 -101.5867157
22.6281147 -6.4799242 -103.0041046
21.2748070 -6.5253944 -104.5145874
19.8994236 -6.5694947 -106.2553940
85.9225922 -4.7985353 -109.4316330
84.3116302 -4.8011999 -107.1408005
82.7655945 -4.7782192 -105.1859131
81.2544785 -4.7478194 -103.4769287
24.0291634 -5.0931239 -103.0949097
22.6619129 -5.1329527 -104.5821838
19.9361362 -5.2347836 -108.1216202
82.9042435 -3.4262102 -107.2344284
81.3691864 -3.4059148 -105.3302612
26.7972298 -3.6691561 -102.0458527
25.4065838 -3.6822722 -103.3855820
24.0574646 -3.7253742 -104.7964020
83.1028824 -2.0412633 -109.5660095
81.5065613 -2.0573487 -107.4590302
26.8156052 -2.2997217 -103.7474594
25.4466324 -2.3301239 -105.1293411
81.6857681 -0.7003806 -109.9710007
80.1295090 -0.6882167 -107.9353638
78.6554642 -0.6577818 -106.2780075
26.8638878 -0.9392713 -105.5939789
25.4874077 -0.9632525 -107.1139221
78.7972717 0.6734769 -108.6308060
26.8969593 0.4309084 -107.7356720
25.5312099 0.4027604 -109.3750534
79.0245361 2.0794449 -111.4946976
77.4306488 2.0418215 -109.4943085
75.9150391 2.0645263 -107.8119965
74.4126740 2.0894525 -106.3524323
72.9587631 2.0924909 -105.0687943
32.4047012 1.8919716 -104.7422562
31.0416145 1.8778588 -105.8773499
29.6681881 1.8541917 -107.1255951
28.3111076 1.8300436 -108.5127640
26.9254112 1.8205414 -110.1773605
76.1092072 3.4510965 -110.5934219
74.5777435 3.4430034 -108.9224243
73.1111069 3.4575648 -107.5104980
32.4663925 3.2691996 -106.9474182
31.1032753 3.2427602 -108.1593475
74.7904358 4.8176603 -111.9819717
73.2736816 4.7953157 -110.3379211
71.7935867 4.8213029 -108.9243546
70.2868652 4.8234377 -107.6368027
68.8331833 4.8425913 -106.6079636
67.3757019 4.8429551 -105.6463089
38.0046272 4.7003422 -105.3820648
36.6263657 4.6887388 -106.2264709
35.2691879 4.6695499 -107.1562653
33.9042282 4.6576443 -108.2339172
32.5325317 4.6391869 -109.4633713
31.1806831 4.6065493 -110.8369217
73.5167694 6.2167645 -113.8480759
71.9766541 6.1709738 -112.0696259
70.4687576 6.1805520 -110.5842743
68.9776611 6.1922383 -109.3437347
67.5156708 6.1971560 -108.2564240
38.0865669 6.0663896 -107.7913589
36.7189941 6.0591993 -108.7477875
35.3484726 6.0446949 -109.8218231
32.6077423 6.0044608 -112.4527664
69.1927261 7.6047735 -112.6462479
67.6928329 7.5534468 -111.3674850
66.2387848 7.5556993 -110.2626953
64.7808075 7.5668268 -109.3174438
63.3298111 7.5681267 -108.5431824
61.8948555 7.5755186 -107.9168091
60.4724731 7.5655160 -107.3423996
59.0545921 7.5673742 -106.8919525
43.6683464 7.4909921 -107.6318817
42.2899551 7.4865494 -108.2339630
40.9170799 7.4761004 -108.9295349
39.5357094 7.4676480 -109.7479401
38.1724167 7.4465084 -110.6689301
36.7964020 7.4436889 -111.7663574
67.9426804 8.9828091 -115.3384705
66.4391785 8.9207096 -113.9123230
64.9624939 8.9269829 -112.7463531
63.5032730 8.9379501 -111.8200836
62.0391998 8.9270105 -111.0177765
60.6139297 8.9352341 -110.3701553
59.1861153 8.9269409 -109.8078003
43.7723236 8.8808651 -110.6035004
42.3900871 8.8654022 -111.2849655
41.0408440 8.8474026 -112.0563126
39.6580467 8.8467236 -112.9900055
38.2648506 8.8745127 -114.1189041
60.8151550 10.3320684 -114.0687485
59.3711700 10.2977524 -113.4103165
57.9200249 10.3027458 -112.8919525
56.5047188 10.3045139 -112.5339127
55.0652466 10.2855740 -112.2084122
53.6815491 10.2886581 -112.0583267
52.2499847 10.2910891 -112.0455551
50.8565369 10.2845898 -112.1217957
49.4441605 10.2867479 -112.3161621
48.0656586 10.2824974 -112.5967712
46.6924591 10.2794847 -112.9846191
45.2919083 10.2529202 -113.5031891
43.9043045 10.2379026 -114.1928482
42.5246887 10.2612724 -114.9997635
56.7231407 11.7524385 -116.9570923
55.2739754 11.7428989 -116.5554047
53.8854523 11.7404661 -116.3227997
52.4599228 11.7268686 -116.2824631
51.0491753 11.6597900 -116.3856964
49.6470642 11.6417923 -116.6223450
48.2564545 11.6513824 -116.9603577
-93.3147507 -146.6939087 78.9606934
-97.3816452 -146.6034698 79.6993790
-89.7782593 -145.8455811 79.8089828
-90.3095932 -145.7810516 80.1945419
-90.8525009 -145.7326050 80.5050278
-91.3639450 -145.6795959 80.7814331
-91.8983154 -145.6185913 81.0314636
-92.4578857 -145.5688477 81.2053223
-93.0405121 -145.5053711 81.4442673
-96.5044632 -145.4630127 82.0882645
-97.0485306 -145.5133667 82.0902634
-97.6194534 -145.5518799 82.1435242
-98.2257385 -145.6102905 82.0955963
-98.8517990 -145.6576691 82.0209656
-99.4701767 -145.7064819 81.9056931
-86.7483749 -145.1920166 79.7587814
-87.0449524 -144.9352417 80.6485291
-104.0621185 -145.1865540 82.1937027
-84.5023193 -144.5243225 79.8371506
-85.0326691 -144.3666077 80.4217606
-86.5560684 -144.1829376 81.7742996
-87.0453262 -144.1259766 82.2554245
-87.5829086 -144.0353394 82.6948013
-88.2037354 -143.9765167 83.1020508
-103.7921753 -144.1222687 84.2562180
-104.4833984 -144.2636261 83.9161377
-105.1415787 -144.3868256 83.5520859
-105.7605133 -144.4776611 83.1961060
-107.3158035 -143.7842560 84.0098190
-80.9340973 -143.3203125 79.7097626
-81.4240570 -143.1834412 80.3753510
-81.9437561 -143.0395813 81.0572205
-82.4793777 -142.9091034 81.7030182
-107.0696259 -142.8168488 85.7159500
-107.6897812 -142.9547424 85.3791122
-108.1247559 -142.1709900 86.5313950
-78.5380707 -141.9689941 80.4063416
-79.0961380 -141.7555389 81.2867889
-107.9384995 -141.2734833 87.9103928
-108.6268387 -141.3918152 87.5122986
-109.3444672 -141.5330200 87.0385513
-77.8522873 -141.1555634 81.2891083
-76.6608734 -140.5757446 81.2477646
-77.1732407 -140.4265442 81.9813004
-77.7190781 -140.2803192 82.7491302
-112.6703720 -140.4555664 87.1770020
-75.5189590 -139.9837036 81.2184372
-112.4950485 -139.5980988 88.4564438
-73.4174728 -139.7643280 79.1539459
-73.9418793 -139.5257568 80.2898941
-74.4437637 -139.3479462 81.2186203
-74.9104996 -139.2384338 81.9151764
-75.4006119 -139.0947723 82.6407852
-112.3307877 -138.7717896 89.6429596
-112.9766312 -138.8981781 89.2026672
-113.6897659 -139.0572662 88.6609650
-73.2878494 -138.8354340 80.7745819
-113.5265350 -138.2205200 89.8207932
-72.6226120 -138.1486969 81.2350082
-73.1580429 -137.9723511 82.1785507
-113.3741226 -137.4297485 90.8747635
-114.0992279 -137.5753784 90.3572235
-114.7791901 -137.7123413 89.8485031
-70.3612595 -137.1905670 80.1623077
-70.8476868 -137.0134277 81.0473785
-69.7983704 -136.4724884 80.6741028
-118.1095123 -136.0889740 89.9003677
-69.2196884 -135.7982635 81.0684357
-69.7008362 -135.6359863 81.9329834
-117.9483719 -135.2951660 90.9053497
-119.2842865 -134.8589630 90.5273590
-119.1807785 -134.1037598 91.3884659
-119.8652878 -134.2432251 90.7655640
-120.5175629 -134.3732605 90.1327667
-121.1315460 -134.4917603 89.4938660
-120.3467407 -133.5690308 91.0833664
-66.2494278 -133.5873108 80.3879242
-120.2267151 -132.8764648 91.8892365
-65.6825638 -132.9635315 80.5020370
-66.1804428 -132.7804718 81.5252533
-66.0936966 -132.0202179 82.5447006
-121.1968613 -131.6203613 92.6004944
-121.8327484 -131.7533112 92.0370712
-122.4909439 -131.9149628 91.4514771
-64.4892578 -130.9911499 81.7488785
-64.9727020 -130.8291168 82.6418839
-123.6667023 -130.7686462 91.7341766
-63.9247475 -130.4080658 81.7426224
-63.8462830 -129.6788483 82.6126404
-123.4483490 -129.3439484 93.2213669
-83.4403915 -126.2936096 100.9942093
-123.3388290 -128.6461639 93.8806610
-63.7278557 -128.2364349 84.2862244
-83.3811951 -125.7407532 101.2618103
-123.2275848 -127.9351501 94.5320511
-123.9774857 -128.1032257 93.8590012
-63.6984940 -127.5061340 85.0773849
-83.3292542 -125.1186218 101.6435699
-124.5612640 -127.5404129 93.8254623
-61.0040741 -127.7289658 80.4302521
-61.5337219 -127.5027542 81.6318359
-62.0458908 -127.3110352 82.7459564
-62.5946045 -127.1329575 83.8642120
-63.1201553 -126.9714432 84.8571472
-63.6490288 -126.8076706 85.7732162
-83.3700180 -124.3694458 102.1955643
-85.5319672 -124.3190689 102.8444443
-86.0701523 -124.3440552 103.0888596
-124.4696121 -126.8389816 94.4423676
-124.4007111 -126.1813660 95.0129929
-59.9161186 -126.6551285 79.8369522
-60.4222412 -126.4428558 81.0035706
-124.3091125 -125.5094757 95.5878525
-126.7571487 -125.3180313 93.8407593
-127.4196091 -125.4705429 93.2228928
-59.3660049 -125.3692322 80.4091034
-126.6540451 -124.6365662 94.4390182
-58.2033958 -123.6498718 80.3660126
-127.7671432 -122.9286118 94.7678986
-58.1413994 -122.9679871 81.0245285
-127.6924362 -122.2647781 95.2331467
-128.4130249 -122.4177017 94.5357971
-129.1735992 -122.5835114 93.7718506
-58.0932693 -122.2807922 81.6892700
-128.9774933 -121.2539139 94.7378311
-129.6951599 -121.4004517 93.9796600
-130.4145203 -121.5605392 93.1793289
-131.0675201 -121.6937790 92.4430008
-58.0182266 -120.9282837 82.9364929
-130.2598419 -120.8615265 93.7066193
-57.9902382 -120.2553940 83.4850464
-130.0704803 -118.9343796 95.0689850
-56.7866516 -117.9734344 83.3098373
-131.2117004 -117.2968750 94.9409485
-131.1288605 -116.6546860 95.3361816
-131.8115540 -116.7975769 94.6464920
-132.5380402 -116.9587708 93.9028625
-81.2506409 -113.0946426 106.4408035
-132.4520874 -116.3117142 94.2813568
-132.3577271 -115.0683670 94.9466095
-133.0713348 -115.2149200 94.2230530
-79.5452881 -111.4280853 106.2207947
-80.0942841 -111.4128647 106.4517899
-80.6409836 -111.3866272 106.6726837
-81.2004700 -111.3545990 106.8893738
-132.2760162 -114.4359741 95.2855377
-132.2398529 -113.8190994 95.5724182
-53.5637283 -113.9182358 79.7919312
-132.2052460 -113.2097626 95.8346405
-132.9167175 -113.3519211 95.1197891
-133.6482086 -113.4999466 94.3700867
-81.7263565 -109.6106567 107.4772720
-82.2619781 -109.6010742 107.6735916
-84.4240417 -109.5358810 108.3706360
-81.7053299 -109.0436707 107.5904922
-84.4160080 -108.9713821 108.4875412
-86.0732193 -108.9314499 108.9518890
-86.6355057 -108.9210510 109.0896149
-87.1949692 -108.9135818 109.2116623
-87.7370071 -108.9141235 109.3230515
-52.4351082 -112.4426651 78.2383575
-81.6980209 -108.4739609 107.7036362
-84.4043503 -108.4068604 108.5973511
-133.5023346 -111.6571503 95.1599884
-134.2182770 -111.7958145 94.4281616
-52.4186211 -111.8087234 78.6085358
-81.6869583 -107.9044647 107.8098068
-84.3956604 -107.8208466 108.7048264
-133.4316711 -111.0411148 95.4125748
-52.3933067 -111.1828003 78.9583282
-84.3869553 -107.2659225 108.7983627
-134.8765411 -110.7380219 94.0394974
-52.3814125 -110.5490265 79.3238297
-84.3740692 -106.7001724 108.8861465
-134.8121033 -110.1169052 94.3000488
-89.3336792 -106.0705643 110.0947571
-89.8882675 -106.0649796 110.2017899
-93.7723083 -106.0732422 110.7128296
-96.5872955 -106.1143341 110.8727570
-81.6483917 -105.6442566 108.1407242
-82.2028732 -105.6201324 108.3344269
-89.3309326 -105.5176163 110.1444092
-93.7616806 -105.5153656 110.7812119
-96.5748825 -105.5531311 110.9466095
-78.3533173 -105.2059326 106.8949738
-78.8962479 -105.1833191 107.1328430
-79.4427948 -105.1602173 107.3625565
-79.9917297 -105.1368256 107.5838928
-82.7266159 -105.0396042 108.5494614
-88.1983337 -104.9691544 109.9600601
-88.7114258 -105.0111084 109.9851608
-92.6471558 -104.9435043 110.7157745
-93.1940613 -104.9475403 110.7811050
-96.0035858 -104.9859848 111.0065765
-96.5720596 -104.9923630 111.0175858
-97.1273193 -105.0002441 111.0262833
-97.6945496 -105.0173416 111.0296478
-51.2866287 -108.4885483 77.6966476
-92.6518402 -104.3881302 110.7762146
-90.9672165 -103.8157425 110.6195297
-99.3700485 -103.9375687 111.1268845
-99.9300156 -103.9494019 111.1081009
-100.4944534 -103.9630051 111.0860596
-101.0639420 -103.9803391 111.0582352
-103.9095306 -104.0790634 110.8485184
-104.4816132 -104.1533203 110.7810059
-105.0414429 -104.1846085 110.7276688
-105.6615448 -104.1778641 110.6535263
-106.2200546 -104.1809998 110.5309525
-107.9537811 -104.2671814 110.1926041
-134.6187744 -107.1238174 95.2420044
-135.3299561 -107.2555695 94.4941635
-105.6750412 -103.6000290 110.6767807
-106.1976776 -103.6169968 110.5669479
-106.7844238 -103.6446609 110.4585037
-107.3691254 -103.6737518 110.3496857
-107.9407501 -103.7025070 110.2367401
-134.6029510 -106.5339737 95.3858032
-76.1781845 -103.0594406 106.1143799
-76.7263718 -103.0327072 106.3815536
-77.2683487 -103.0065689 106.6355286
-77.7999573 -102.9850006 106.8791046
-91.5225296 -102.7071762 110.7798691
-92.0798416 -102.7079391 110.8391724
-105.6119461 -103.0320816 110.7068558
-134.5749359 -105.9433670 95.5327301
-50.2876511 -106.4832230 75.5912781
-50.7975960 -106.2632370 77.0871887
-51.3038063 -106.0564499 78.5395660
-76.1683502 -102.4987411 106.1525497
-105.6320114 -102.4816971 110.7253723
-134.5666656 -105.3630371 95.6351166
-135.2562561 -105.4890671 94.9127350
-135.9606628 -105.6210556 94.1639938
-50.2733383 -105.8783646 75.7846451
-76.1691132 -101.9428787 106.1788101
-105.6194229 -101.9216080 110.7566223
-106.1975937 -101.9429169 110.6622238
-106.7732620 -101.9665146 110.5677948
-107.3498154 -101.9959717 110.4647751
-107.9244843 -102.0272293 110.3522797
-135.9202118 -105.0308380 94.2864914
-50.2636681 -105.2742691 75.9871826
-76.1751709 -101.3866882 106.1926804
-105.6030731 -101.3610611 110.7917633
-135.8954010 -104.4453125 94.3927078
-50.2355461 -104.6820755 76.1291122
-72.9249191 -101.0105057 104.4896011
-73.4678421 -100.9847031 104.7840424
-74.0313110 -100.9423370 105.0930862
-75.1183090 -100.9479218 105.6684189
-75.6261749 -100.8585739 105.9244308
-76.1678696 -100.8312988 106.1949234
-135.8708191 -103.8602982 94.4957123
-50.2355881 -104.0765839 76.3384857
-73.3941574 -100.4718781 104.6467056
-75.1429138 -100.3263168 105.6826859
-107.9118958 -100.3575592 110.4084244
-135.8812103 -103.2869949 94.5559692
-105.5932159 -99.1451797 110.7962875
-105.6072388 -98.5945282 110.7887268
-72.9261932 -98.2335434 104.5212555
-74.5335770 -98.1427307 105.4222031
-105.6048279 -98.0424423 110.7829742
-49.7191620 -101.3443527 75.3294601
-50.2471008 -101.1319656 76.8533707
-75.0634842 -97.5617218 105.6765976
-75.6146088 -97.5334091 105.9430237
-106.7805405 -97.5450211 110.5802383
-137.2588348 -100.6902084 93.1169434
-75.0593567 -97.0122070 105.6724854
