-120.9342346 -107.9733658 104.1850586
-122.2887878 -108.1872406 103.0231552
-59.4442825 -107.4536285 91.1453400
-60.4416122 -107.1859741 93.0456467
-61.4819336 -106.9444885 94.8184662
-62.5516777 -106.7098312 96.4475098
-63.5448647 -106.5427475 97.7565002
-79.4417419 -105.0128784 110.1570969
-80.5751419 -104.9476929 110.6936722
-81.7016296 -104.8750839 111.1715622
-82.7361450 -104.8457642 111.4555511
-83.7731781 -104.8650436 111.7473831
-84.8852158 -104.8346252 112.1154327
-88.1584625 -104.7850494 112.8971558
-89.2407303 -104.7884445 113.0878220
-90.4050293 -104.7793655 113.2773132
-91.5559464 -104.7903671 113.4161911
-92.6039886 -104.7913971 113.5346222
-93.6665344 -104.7970123 113.6261978
-120.7820358 -106.6930389 105.2397461
-122.1200256 -106.8883820 104.1331787
-59.3262596 -106.1333618 92.4750595
-85.9667358 -103.5972748 113.0898285
-87.0643616 -103.6002502 113.3264542
-88.0975876 -103.5925598 113.5223389
-89.1855850 -103.5766449 113.7191772
-120.6483841 -105.4291077 106.1980438
-121.9653549 -105.6129456 105.1625137
-58.2752724 -105.0517807 91.9536667
-59.2521286 -104.8142242 93.7136612
-85.9128113 -102.4182816 113.6646881
-86.9987183 -102.4083710 113.9095917
-88.0446625 -102.4065628 114.1003189
-89.1309967 -102.4076157 114.2791595
-120.5266266 -104.1837921 107.0716476
-121.8385239 -104.3587036 106.0859528
-123.1704483 -104.5516815 105.0028992
-124.4273071 -104.7377167 103.9158859
-58.1847382 -103.7598953 93.0957947
-59.1633759 -103.5389786 94.7633286
-85.8522644 -101.2334747 114.2058792
-89.0800552 -101.2252579 114.8189011
-123.0470428 -103.3045731 105.8844910
-124.2907944 -103.4804306 104.8470459
-125.5563965 -103.6772003 103.7162552
-57.1021652 -102.7329254 92.3056183
-58.1177559 -102.4793320 94.1556931
-59.1011696 -102.2762299 95.7344818
-85.7908096 -100.0745010 114.6902695
-89.0373688 -100.0483856 115.3295975
-122.9064178 -102.0610504 106.7127914
-124.1448669 -102.2275772 105.7249298
-125.4125824 -102.4165802 104.6266327
-126.7612991 -102.6425323 103.3621292
-57.0372734 -101.4475784 93.3504486
-85.7449493 -98.9074783 115.1410599
-86.8412781 -98.8946762 115.4004974
-87.8897324 -98.8836823 115.6097717
-88.9830170 -98.8864899 115.7870636
-125.2848969 -101.1742935 105.4646225
-126.6167755 -101.3804932 104.2402267
-54.9014931 -100.7558441 90.0893555
-55.9156799 -100.4608154 92.2772751
-56.9680977 -100.1963043 94.2592163
-85.6991119 -97.7457199 115.5707092
-86.7904205 -97.7380905 115.8251190
-87.8561783 -97.7325058 116.0335541
-88.9416504 -97.7275848 116.2133636
-125.1776657 -99.9520493 106.2094650
-126.4890289 -100.1449432 105.0412521
-127.8627625 -100.3613281 103.6761780
-129.2380371 -100.6195374 102.2005997
-53.8564072 -99.7736740 88.9025726
-54.8353081 -99.4766235 91.1275024
-127.7470245 -99.1328049 104.4588699
-53.7894363 -98.4986267 89.9380951
-54.7746582 -98.2252655 92.0260315
-127.6485748 -97.9172363 105.1535568
-128.9847565 -98.1416321 103.7998734
-53.7204056 -97.2489243 90.8099136
-54.7185516 -96.9903793 92.8118362
-127.5488739 -96.7109146 105.7986298
-128.8772888 -96.9087830 104.5260315
-52.7017899 -96.2896652 89.4525223
-53.6737823 -96.0158615 91.5867462
-54.6784439 -95.7666702 93.5399551
-127.4606171 -95.5144501 106.3790894
-128.7921143 -95.7128296 105.1463394
-130.0912018 -95.9171371 103.8860168
-51.6076088 -95.3893738 87.7097168
-52.6515427 -95.0545502 90.2151489
-76.8443451 -92.2556458 114.3427200
-77.8996201 -92.2186279 114.7917175
-78.9840088 -92.1793060 115.2230530
-80.0727768 -92.1500092 115.6262512
-81.1714630 -92.1166840 116.0116119
-82.2370987 -92.0979462 116.3499603
-96.5558853 -92.1066742 118.4367065
-97.6492157 -92.1317444 118.4276581
-98.7599487 -92.1539764 118.3876648
-99.9143219 -92.1991730 118.3030243
-129.9948730 -94.7115402 104.4637833
-51.5757179 -94.1424255 88.5353317
-52.6070633 -93.8340149 90.9130020
-76.8147202 -91.1297302 114.5995178
-77.8792191 -91.0886688 115.0523071
-78.9534607 -91.0548630 115.4762268
-80.0418701 -91.0223846 115.8831406
-81.1420746 -90.9916534 116.2651596
-82.2135239 -90.9665527 116.5982361
-96.5243378 -90.9812927 118.6782227
-97.6224594 -91.0097504 118.6842194
-99.8849716 -91.0832977 118.5785141
-129.9066162 -93.5195618 104.9809341
-52.5756378 -92.6230545 91.5383606
-76.7975769 -89.9989395 114.8347778
-77.8537750 -89.9632416 115.2811279
-82.1844559 -89.8465424 116.8379898
-83.2741013 -89.8174438 117.1537476
-84.3623276 -89.8092270 117.4219055
-85.4627228 -89.7965546 117.6771240
-86.5554886 -89.7897873 117.9167786
-87.6312103 -89.7800446 118.1298065
-88.7294312 -89.7767181 118.3133926
-92.0330811 -89.7864075 118.7203903
-93.1456909 -89.8038788 118.7987518
-94.2516556 -89.8149261 118.8519135
-95.3766251 -89.8362503 118.8796387
-96.4983673 -89.8636475 118.8993912
-100.9986343 -89.9845581 118.6761551
-102.1110001 -90.0204544 118.5462799
-129.8479156 -92.3410797 105.4305725
-131.1920319 -92.5502319 104.1033630
-50.4838409 -92.0380325 87.2262726
-51.5146942 -91.7116318 89.8054733
-52.5324783 -91.4364319 92.0444107
-76.7767334 -88.8810577 115.0327072
-77.8421173 -88.8399811 115.4849091
-88.7082672 -88.6672974 118.4894562
-92.0163269 -88.6767197 118.9094849
-93.1239548 -88.6940384 118.9943848
-94.2311935 -88.7031403 119.0461578
-95.3580933 -88.7225266 119.0701447
-96.4721832 -88.7396240 119.0966187
-100.9693298 -88.8622208 118.8776855
-102.0891266 -88.8997650 118.7442093
-129.7745972 -91.1656799 105.8525314
-131.1179047 -91.3693619 104.5335541
-50.4664650 -90.8169327 87.8658142
-74.5913849 -87.8506775 114.2111206
-75.6800766 -87.8070145 114.7279358
-76.7587509 -87.7611389 115.2117233
-77.8217926 -87.7254333 115.6524963
-88.6985474 -87.5475388 118.6464462
-89.7880402 -87.5490341 118.8126144
-90.9035950 -87.5565338 118.9596710
-96.4481812 -87.6265106 119.2579422
-102.0599518 -87.7826385 118.9268799
-103.1918793 -87.8259354 118.7787552
-104.3339005 -87.8702698 118.6026688
-105.4926987 -87.9227295 118.3935776
-106.6414642 -87.9754181 118.1634674
-107.7730713 -88.0297852 117.9114456
-108.9275131 -88.0922241 117.6209869
-110.1037216 -88.1594543 117.2897949
-111.2878265 -88.2305908 116.9296875
-129.7213440 -90.0027695 106.2080002
-131.0444794 -90.1962051 104.9297485
-50.4311676 -89.6223526 88.3713303
-74.5845032 -86.7293930 114.3819656
-77.8051147 -86.6160736 115.8005600
-90.8905182 -86.4474564 119.1148224
-102.0453415 -86.6701202 119.0834885
-103.1651764 -86.7085800 118.9364777
-104.3126144 -86.7572556 118.7574692
-105.4661865 -86.8034439 118.5548325
-106.6238556 -86.8588943 118.3215942
-107.7637329 -86.9178925 118.0680695
-108.9036331 -86.9720001 117.7840118
-110.0727615 -87.0364075 117.4605026
-111.2595673 -87.1069641 117.1069565
-129.6753082 -88.8456116 106.5168991
-130.9880981 -89.0317917 105.2761230
-50.4171333 -88.4331436 88.8455276
-72.4337463 -85.7258759 113.3840485
-73.4965515 -85.6721344 113.9576416
-74.5696259 -85.6233902 114.5075989
-77.8067932 -85.5002823 115.9319305
-104.2985458 -85.6464157 118.8838577
-105.4473877 -85.6940155 118.6827164
-106.6015625 -85.7475128 118.4574738
-110.0735016 -85.9399567 117.6228638
-111.2283783 -85.9907150 117.2551270
-129.6206665 -87.6932983 106.7910538
-130.9453278 -87.8778915 105.5514526
-132.3209686 -88.0834198 104.1909943
-50.3905487 -87.2596436 89.1994324
-72.4247284 -84.6134872 113.4933014
-73.4858551 -84.5634918 114.0592270
-104.2881241 -84.5424194 118.9707947
-105.4292221 -84.5872803 118.7748795
-106.5832367 -84.6394196 118.5607452
-111.2259064 -84.8852997 117.3590851
-129.6030884 -86.5530701 106.9955902
-130.9177246 -86.7315903 105.7780991
-132.2591553 -86.9256439 104.4455109
-133.7003784 -87.1556091 102.9246368
-49.3616791 -86.3924866 87.0029297
-50.3779335 -86.0952454 89.5069962
-68.1503372 -83.7508545 110.9826965
-69.2159729 -83.6844330 111.6776581
-70.2844467 -83.6219177 112.3412628
-71.3644028 -83.5610046 112.9895325
-72.4192963 -83.5063782 113.5844955
-73.4876938 -83.4574432 114.1465683
-104.2905731 -83.4441986 119.0342255
-105.4248428 -83.4870453 118.8441849
-106.5718536 -83.5363235 118.6334305
-111.2162323 -83.7757645 117.4410934
-132.2303772 -85.7820358 104.6435699
-49.3599739 -85.2263718 87.2804184
-50.3662109 -84.9388885 89.7467651
-68.1458664 -82.6444931 111.0459900
-69.2025909 -82.5805435 111.7311783
-106.5718460 -82.4360352 118.6800232
-107.7086411 -82.4884033 118.4274597
-108.8582306 -82.5445023 118.1528168
-110.0275345 -82.6068497 117.8430939
-111.2032471 -82.6698456 117.5039825
-132.1971283 -84.6397247 104.8217926
-48.3578873 -84.3879623 84.7716827
-49.3695107 -84.0650406 87.5186081
-50.3467598 -83.7947311 89.9009933
-68.1511688 -81.5400085 111.0836716
-69.2096710 -81.4761887 111.7697601
-106.5658188 -81.3379440 118.7075653
-132.1770630 -83.5066681 104.9480667
-48.3543167 -83.2303848 84.9609528
-49.3500519 -82.9222260 87.6387405
-50.3485184 -82.6518021 90.0366974
-68.1448517 -80.4442215 111.0782013
-69.2107773 -80.3804321 111.7691498
-70.2755432 -80.3216248 112.4226761
-71.3587189 -80.2658310 113.0570145
-106.5676270 -80.2453690 118.7124329
-132.1635590 -82.3778229 105.0281525
-49.3504639 -81.7807083 87.7461548
-50.3467255 -81.5185852 90.1041107
-68.1506958 -79.3486481 111.0588150
-69.2163162 -79.2855835 111.7510605
-107.7041550 -79.2044525 118.4337921
-108.8653183 -79.2598953 118.1547699
-132.1595764 -81.2565002 105.0580292
-133.5399017 -81.4515762 103.6466675
-49.3506317 -80.6475983 87.7883682
-50.3499832 -80.3893127 90.1371613
-68.1614838 -78.2547379 111.0190430
-69.2244568 -78.1929932 111.7090073
-73.4991379 -77.9860840 114.1341553
-107.7136993 -78.1156921 118.3869019
-108.8705597 -78.1693039 118.1158524
-132.1612244 -80.1394196 105.0507889
-133.5376129 -80.3318253 103.6358719
-47.3773804 -80.1734009 81.8681641
-48.3687477 -79.8173523 85.0770264
-49.3506432 -79.5215607 87.7657394
-50.3481216 -79.2690353 90.0921783
-63.9278946 -77.4577332 107.7725296
-64.9702454 -77.3789444 108.6144028
-66.0375900 -77.3037109 109.4309692
-67.1096420 -77.2316284 110.2137604
-68.1631546 -77.1668243 110.9375153
-69.2341385 -77.1051788 111.6311569
-70.3014374 -77.0482788 112.2862549
-71.3755493 -76.9956131 112.9099884
-72.4390564 -76.9517593 113.4852982
-106.5861893 -76.9816360 118.5521698
-107.7250900 -77.0302887 118.3111954
-108.8750305 -77.0830078 118.0419159
-132.1730194 -79.0271759 105.0051804
-133.5369873 -79.2151184 103.6035767
-47.3740540 -79.0478745 81.7709656
-48.3882713 -78.6917343 85.0202789
-49.3553238 -78.4051590 87.6643524
-50.3515358 -78.1556396 89.9914703
-63.9293022 -76.3671875 107.6735992
-67.1171875 -76.1439362 110.1151199
-68.1773529 -76.0804367 110.8348083
-69.2344208 -76.0208511 111.5214081
-70.3047791 -75.9638214 112.1821442
-71.3905182 -75.9109268 112.8124695
-106.6015930 -75.8997192 118.4508820
-107.7382278 -75.9481125 118.2084656
-108.8954926 -76.0008011 117.9339752
-132.1719513 -77.9165878 104.9394226
-133.5545349 -78.1050262 103.5183563
-134.9305725 -78.3018188 102.0263214
-48.3760185 -77.5789185 84.8464279
-63.9442863 -75.2801132 107.5442200
-67.1305542 -75.0598755 109.9877014
-70.3191452 -74.8814926 112.0614777
-71.3906708 -74.8301010 112.6782608
-107.7452393 -74.8675232 118.0872116
-108.9009018 -74.9191818 117.8143311
-132.1981812 -76.8134842 104.8112030
-48.3742752 -76.4712448 84.6208344
-63.9452896 -74.1968613 107.3722076
-65.0093536 -74.1174927 108.2503281
-66.0725327 -74.0447998 109.0619583
-67.1383743 -73.9787292 109.8230896
-70.3353271 -73.8018112 111.9062729
-71.4133224 -73.7518997 112.5249405
-107.7651062 -73.7895203 117.9418793
-108.9331360 -73.8407516 117.6679611
-132.2097626 -75.7122040 104.6625366
-48.3985100 -75.3692627 84.3468246
-70.3407822 -72.7252197 111.7198334
-71.4278412 -72.6761932 112.3453979
-106.6547470 -72.6652298 118.0230408
-107.7934799 -72.7134399 117.7744598
-108.9560089 -72.7640610 117.4987564
-132.2380371 -74.6172180 104.4581070
-133.6306763 -74.7961121 103.0479355
-48.4246483 -74.2781906 83.9615173
-70.3668518 -71.6521149 111.5180969
-71.4417267 -71.6008530 112.1394119
-108.9749146 -71.6903763 117.3024445
-132.2881470 -73.5272522 104.1987686
-133.6704254 -73.7049255 102.7828369
-48.4794197 -73.1862640 83.5912170
-49.4555969 -72.9094620 86.3266830
-50.4433289 -72.6648102 88.7365875
-72.5247955 -70.4826050 112.5081940
-107.8507156 -70.5694351 117.3482590
-109.0086975 -70.6175919 117.0765991
-110.1452255 -70.6714172 116.7841187
-111.3367386 -70.7281952 116.4384308
-132.3234558 -72.4387817 103.9230194
-133.7048187 -72.6158295 102.4916458
-49.4866447 -71.8260269 85.8941650
-50.4745903 -71.5815430 88.3401337
-72.5568085 -69.4149780 112.2589798
-110.1932755 -69.5998840 116.5375900
-111.3650970 -69.6574554 116.1861877
-132.3715363 -71.3554688 103.5950241
-49.5152359 -70.7519989 85.3584442
-50.5178719 -70.5027161 87.8971710
-72.5722961 -68.3466110 111.9745026
-73.6521454 -68.3061676 112.5478668
-74.7122650 -68.2646866 113.0846329
-110.2273102 -68.5308380 116.2702332
-111.4032364 -68.5886688 115.9096069
-132.4434052 -70.2767944 103.2034836
-133.8269043 -70.4475937 101.7692490
-49.5594215 -69.6785278 84.7998505
-50.5498466 -69.4322815 87.3412781
-72.6013870 -67.2810669 111.6754303
-73.6807480 -67.2394409 112.2466583
-74.7494049 -67.2045288 112.7881165
-107.9532013 -67.3539734 116.5785446
-109.1098328 -67.4048538 116.2926102
-110.2534485 -67.4671783 115.9686813
-111.4329529 -67.5222778 115.6142807
-132.4848633 -69.1985626 102.8109818
-49.5655899 -68.6112213 84.1015778
-50.5839462 -68.3685837 86.7112961
-74.7833252 -66.1421890 112.4607925
-75.8522263 -66.1058731 112.9552917
-76.9339142 -66.0747833 113.4414597
-106.8453217 -66.2609253 116.4686661
-107.9941864 -66.3033829 116.2243347
-109.1601257 -66.3499527 115.9457397
-132.5629272 -68.1265793 102.3396149
-50.6250114 -67.3063354 86.0453262
-74.8120499 -65.0812073 112.0932159
-75.8957672 -65.0484009 112.5977097
-76.9732208 -65.0178375 113.0860748
-78.0453110 -64.9905090 113.5436172
-79.1331787 -64.9627838 113.9739380
-87.8293457 -64.8620300 116.3738403
-88.9319000 -64.8586960 116.5699158
-105.7413712 -65.1561279 116.3468857
-106.8825989 -65.1995392 116.1275101
-108.0302963 -65.2430038 115.8832855
-109.1897125 -65.2898254 115.6036377
-132.6421967 -67.0561905 101.8262329
-50.6815948 -66.2460022 85.3424377
-77.0032349 -63.9567375 112.7050323
-78.0818100 -63.9293060 113.1640854
-83.5094757 -63.8331299 115.0150375
-86.7756348 -63.8110733 115.8030243
-87.8800354 -63.8080215 116.0126266
-88.9747772 -63.8038177 116.2023468
-101.2220459 -63.9612732 116.6110687
-102.3613510 -63.9904022 116.4972153
-103.5093689 -64.0237198 116.3506546
-104.6470490 -64.0583801 116.1735382
-105.7786484 -64.0988007 115.9817047
-106.9274063 -64.1384048 115.7659302
-130.0429993 -65.6864166 103.9242706
-131.3927002 -65.8347626 102.6334076
-132.7475891 -65.9892349 101.2582092
-50.7189598 -65.1957245 84.4822159
-77.0495911 -62.9021606 112.3061981
-78.1208649 -62.8734093 112.7597198
-82.4523926 -62.7926407 114.3022461
-83.5430374 -62.7763062 114.6360321
-86.8194122 -62.7535629 115.4062042
-87.9132843 -62.7547913 115.6202774
-89.0135269 -62.7510605 115.8107147
-90.1120224 -62.7518387 115.9777603
-91.2147522 -62.7500687 116.1238708
-95.6671066 -62.8030434 116.4324646
-96.7729187 -62.8146477 116.4271622
-97.8935318 -62.8327560 116.4061737
-99.0214310 -62.8560677 116.3735809
-100.1454773 -62.8794403 116.3073120
-101.2745514 -62.9073105 116.2139359
-102.4035568 -62.9393463 116.0959091
-103.5514603 -62.9683533 115.9441833
-104.6833344 -63.0052109 115.7779770
-105.8332672 -63.0414810 115.5879898
-106.9814606 -63.0800629 115.3679352
-130.1373291 -64.6226883 103.3529968
-131.4808044 -64.7726822 102.0500031
-50.7632523 -64.1459656 83.5597916
-51.7422371 -63.9110184 86.1451492
-52.7843628 -63.7180481 88.4018021
-77.0811768 -61.8443947 111.8702545
-78.1585999 -61.8180313 112.3294525
-79.2447662 -61.7949486 112.7652969
-80.3235626 -61.7708511 113.1634827
-81.4167938 -61.7535439 113.5400543
-82.4999390 -61.7375717 113.8897171
-83.5878601 -61.7247391 114.2177429
-86.8662796 -61.6988220 114.9981461
-87.9628601 -61.6952019 115.2108688
-89.0657806 -61.6939964 115.3999710
-90.1506500 -61.6996918 115.5599213
-91.2670898 -61.7023849 115.7044067
-92.3480453 -61.6910210 115.8559113
-95.7171555 -61.7294044 116.0188980
-130.2279816 -63.5637054 102.7434540
-131.5768433 -63.7115593 101.4150009
-52.8529663 -62.6726608 87.5620575
-77.1368561 -60.7975502 111.4234009
-78.2073059 -60.7664375 111.8816452
-79.2921448 -60.7422295 112.3154373
-80.3744354 -60.7228279 112.7171631
-81.4561310 -60.6992607 113.0862350
-82.5504150 -60.6866226 113.4409637
-83.6376724 -60.6689453 113.7660904
-86.9118729 -60.6456528 114.5678024
-88.0096283 -60.6461754 114.7825775
-89.1065521 -60.6430817 114.9659653
-93.5368271 -60.6662979 115.4706726
-94.6417389 -60.6774788 115.5322952
-95.7561111 -60.6921120 115.5664291
-130.3237915 -62.5084152 102.0830994
-131.6876831 -62.6572189 100.7106247
-52.9217606 -61.6325912 86.6588440
-53.9199371 -61.4519653 88.7510376
-54.9416885 -61.2846107 90.6837997
-83.6860657 -59.6237106 113.2950897
-84.7682648 -59.6071968 113.5837173
-85.8651962 -59.6014633 113.8560333
-86.9641037 -59.5956650 114.1017303
-88.0622253 -59.5942307 114.3170471
-89.1575928 -59.5952225 114.5026169
-93.5850067 -59.6159973 114.9987946
-130.4284668 -61.4554672 101.3625031
-131.8029633 -61.6057205 99.9466705
-53.9768791 -60.4104385 87.8140564
-54.9991989 -60.2379265 89.8222351
-83.7332764 -58.5681114 112.7921371
-84.8241959 -58.5608635 113.0867844
-85.9150391 -58.5494194 113.3553238
-87.0122528 -58.5455971 113.6003113
-88.1077271 -58.5394058 113.8127136
-89.2117462 -58.5355225 114.0052414
-90.3123779 -58.5427895 114.1806335
-91.4198074 -58.5435333 114.3128128
-92.5234909 -58.5540428 114.4202271
-93.6429596 -58.5639343 114.5005493
-130.5463867 -60.4070244 100.5787964
-131.9176941 -60.5585098 99.1325531
-53.0381470 -59.5632858 84.4995651
-54.0489044 -59.3775940 86.7994995
-55.0752258 -59.1996727 88.9087372
-128.0047913 -59.0873222 102.3006287
-129.3326416 -59.2173309 101.0756378
-130.6705017 -59.3614044 99.7347183
-54.1309547 -58.3502541 85.6797638
-55.1371307 -58.1688766 87.8473740
-128.1364594 -58.0426559 101.4627304
-129.4619598 -58.1768074 100.2058487
-130.8229980 -58.3176041 98.8095779
-54.2098808 -57.3239136 84.4416122
-55.2171288 -57.1436920 86.7086639
-128.2634583 -57.0026779 100.5668335
-55.2918816 -56.1208572 85.4482422
-128.3996277 -55.9724884 99.6006546
-55.3870621 -55.1025238 84.0757446
-56.4042130 -54.9305458 86.3527374
-57.4128532 -54.7734871 88.3504028
-125.9253693 -54.6816978 101.0168304
-127.2208481 -54.8012657 99.8714981
-128.5562439 -54.9277611 98.5871887
-56.4965248 -53.9099083 84.9887466
-57.5025978 -53.7503815 87.0843964
-126.0730209 -53.6460190 100.0004349
-127.3796844 -53.7646561 98.8009491
-56.6151962 -52.9093857 83.4722137
-57.6077232 -52.7378159 85.6852875
-126.2261124 -52.6176224 98.9146729
60.5267982 -65.1274338 -103.2841415
59.1119308 -65.0728683 -102.8482208
57.6931725 -65.0617752 -102.5168915
56.3000908 -65.0543213 -102.3179626
54.8950272 -65.0887985 -102.3135376
53.5123291 -65.1019745 -102.3499146
52.1190605 -65.1385422 -102.5462723
50.7439842 -65.1660919 -102.8147430
49.3743477 -65.2048187 -103.2744598
48.0050621 -65.2751617 -103.9881973
-55.6876259 -52.0930786 78.8422165
-56.7065659 -51.8968124 81.7318954
-57.7168884 -51.7317200 84.1434402
-126.3977661 -51.5888367 97.7355957
67.5018845 -63.6215172 -103.2573853
66.0499191 -63.5409203 -102.1624756
64.5933304 -63.4899635 -101.2201233
63.1675301 -63.4526176 -100.4863739
61.7442207 -63.4287796 -99.9126053
60.3235321 -63.4085655 -99.4328766
47.8290024 -63.6171837 -100.0118103
46.4722290 -63.6604767 -100.5917206
45.1033974 -63.7467804 -101.3457336
43.7367325 -63.8547745 -102.1828766
-57.8105927 -50.7119904 82.4162903
-58.8232040 -50.5747986 84.6265259
-59.8462257 -50.4333267 86.6493759
-123.9459839 -50.3356209 98.8752365
-125.2445831 -50.4470901 97.7369461
-126.5974121 -50.5637589 96.4450226
68.7451401 -62.0383224 -100.4731064
67.2747955 -61.9402542 -99.4450684
65.8507538 -61.9023018 -98.5929565
64.4079437 -61.8584442 -97.8419800
62.9933548 -61.8383369 -97.2612457
61.5729218 -61.8186531 -96.7669754
60.1668091 -61.8123245 -96.3924408
47.7054405 -62.0194550 -96.9447098
46.3444672 -62.0745506 -97.4571381
44.9675140 -62.1362534 -98.0845718
43.6146736 -62.1959877 -98.7999344
42.2535667 -62.2715530 -99.6630249
-58.9274750 -49.5556488 82.8860779
-59.9609756 -49.4231873 85.0412827
-124.1294632 -49.3106003 97.6144562
-125.4491501 -49.4221992 96.3963470
72.9307404 -60.5971718 -100.8872910
71.4592285 -60.5154419 -99.4929428
69.9928436 -60.4402199 -98.2743607
68.5593872 -60.3935089 -97.3174667
42.1411514 -60.7048798 -96.8072357
40.7963409 -60.7693176 -97.6506958
39.4284019 -60.8676910 -98.6639099
38.0873108 -60.9617805 -99.7642670
36.7227097 -61.0995560 -101.0648117
-60.0669365 -48.4163857 83.2571030
-61.1034737 -48.2868195 85.3591537
-62.1114349 -48.1514359 87.1730347
-121.7167664 -48.0877304 98.4649811
-123.0018997 -48.1847267 97.4212799
-124.3223724 -48.2960854 96.2414551
75.7011719 -59.1583328 -100.6602173
74.2186890 -59.0729103 -99.1371765
72.7353592 -58.9930649 -97.7711792
71.2713776 -58.9277000 -96.5962982
69.8315887 -58.8830948 -95.6145248
68.3982315 -58.8431625 -94.7575684
42.0471268 -59.1601486 -94.3917618
40.6952286 -59.2247047 -95.1408691
39.3393784 -59.2940445 -95.9949799
37.9765854 -59.3951035 -97.0197601
36.6405716 -59.4687729 -98.0999756
-61.2415581 -47.2886009 83.5476608
-62.2475700 -47.1579628 85.5090485
-121.9089203 -47.0675392 97.1142807
-123.1989059 -47.1699600 96.0053864
78.5326462 -57.8076668 -101.0613327
76.9988403 -57.6717987 -99.2472610
75.5030899 -57.5755272 -97.6695328
74.0325546 -57.4924088 -96.3194351
36.5481377 -57.9353638 -95.6137314
35.1969223 -58.0317726 -96.7313309
33.8634720 -58.1251640 -98.0192719
32.4798050 -58.2653580 -99.4846649
-61.3612404 -46.2780876 81.4629211
-62.3776016 -46.1540680 83.6433182
-63.3904648 -46.0346413 85.5088959
-64.3977509 -45.9194641 87.1974030
-119.5299606 -45.8654594 97.6975327
-120.8120117 -45.9547043 96.7240601
-122.1230164 -46.0502281 95.6343765
78.3141098 -56.1894379 -98.0831909
76.8071747 -56.1021500 -96.5048370
75.3471146 -56.0358925 -95.1829224
73.8852539 -55.9661255 -94.0049057
36.4825974 -56.3982239 -93.4610672
35.1295967 -56.4921646 -94.5087662
33.7797928 -56.5866470 -95.6766586
32.4226036 -56.6916428 -96.9824753
31.0753937 -56.8182945 -98.4181976
29.6900043 -56.9981537 -100.1096420
-63.5411873 -45.0457726 83.6015625
-64.5412827 -44.9256134 85.4027176
-119.7412033 -44.8493729 96.2296219
-121.0306244 -44.9428635 95.1887741
-122.3527679 -45.0340500 94.0223389
81.1652985 -54.8609428 -99.0709839
79.6261139 -54.7362671 -97.1867371
78.1414642 -54.6446571 -95.5970612
76.6616135 -54.5725632 -94.2215958
31.0175495 -55.2611732 -96.0899124
29.6605721 -55.3855667 -97.5790100
-63.6834602 -44.0400620 81.3942261
-64.7056885 -43.9454727 83.3937302
-65.7301102 -43.8216629 85.2200623
-66.7521896 -43.7101669 86.8137817
-117.4040222 -43.6686592 96.5339661
-118.6775742 -43.7477303 95.6289673
-119.9685135 -43.8342323 94.6166077
-121.2703247 -43.9260063 93.4968872
82.4850464 -53.4136086 -98.3836517
80.9698715 -53.3036499 -96.5306473
79.4692841 -53.2216454 -94.9229889
77.9896698 -53.1424713 -93.5008698
76.5180893 -53.0655136 -92.2321320
30.9652653 -53.7533798 -94.0714569
29.5946522 -53.8600540 -95.4562073
-64.8697891 -42.9449310 81.0858917
-65.8971710 -42.8369141 83.1242676
-66.9183807 -42.7281761 84.9006195
-117.6224060 -42.6567841 94.9337616
-118.9072876 -42.7406387 93.9558640
83.8376236 -51.9919128 -97.9564743
82.3076324 -51.8804054 -96.0364532
33.6017609 -52.0991783 -90.1931305
32.2435150 -52.1808701 -91.2021027
30.8952045 -52.2719307 -92.3072281
29.5437126 -52.3668518 -93.5963287
-67.0829086 -41.7312546 82.6929398
-68.1088486 -41.6379318 84.4156265
-69.1199646 -41.5373764 85.9476089
-115.3090591 -41.4966431 94.9916382
-116.5934906 -41.5667381 94.1119232
-117.8627930 -41.6499023 93.1705933
-119.1589203 -41.7398262 92.0959320
85.2154465 -50.6000786 -97.7773285
83.6852722 -50.4825096 -95.7930298
82.1738358 -50.3896179 -94.0695801
33.5646477 -50.6194763 -88.7038727
32.2014999 -50.7060890 -89.6849060
-68.2972488 -40.6501160 82.0832367
-69.3121796 -40.5612106 83.8004303
-115.5549011 -40.4863892 93.2048950
-116.8491135 -40.5602455 92.2442398
-118.1352615 -40.6518097 91.2062531
86.6016006 -49.2157135 -97.7722321
85.0368729 -49.0810089 -95.6554718
36.2117653 -49.0406685 -85.7740173
34.8534851 -49.1106186 -86.5534515
33.5254898 -49.1815147 -87.3646469
-69.4970551 -39.5706024 81.2711029
-70.5329208 -39.4903107 83.0063858
-71.5758133 -39.4047050 84.5547638
-72.6009216 -39.3168678 85.8934708
-73.6530991 -39.2431450 87.1521225
-113.2884140 -39.3422623 92.9587555
-114.5528564 -39.4135170 92.1425629
-115.8237915 -39.4894104 91.2266617
-117.1288605 -39.5592957 90.1711502
87.9960480 -47.8239555 -97.9255219
86.4231110 -47.6972275 -95.7129364
84.9112015 -47.6106110 -93.8702316
36.1779404 -47.5967712 -84.6106796
34.8274155 -47.6612167 -85.3404007
-71.7784119 -38.4250259 82.0432053
-72.8052216 -38.3393097 83.5782471
-73.8415070 -38.2632217 84.9766922
-113.5564728 -38.3480530 90.9351349
-114.8287201 -38.4264145 90.0139160
89.4219284 -46.4651718 -98.3437805
87.8385162 -46.3322983 -95.9930191
38.8555298 -46.0593643 -82.2898865
37.4933662 -46.1147919 -82.8884811
36.1389694 -46.1735077 -83.5417404
-73.0185089 -37.3479538 80.9146805
-74.0697021 -37.2931671 82.4752655
-75.0884399 -37.2061996 83.8126144
-76.1429214 -37.1400185 85.0670624
-77.1990051 -37.0816803 86.1673889
-78.2623367 -37.0317459 87.1683502
-108.8574066 -37.1087952 91.6647186
-110.0889130 -37.1625481 91.0523605
-111.3286438 -37.2235565 90.3533478
-112.5987091 -37.2819519 89.5282745
-113.8489304 -37.3440590 88.6539307
90.8502350 -45.1147995 -98.9345093
89.2506866 -44.9782295 -96.4455261
87.7139816 -44.8749504 -94.3416214
38.7959824 -44.6606102 -81.3607178
37.4660645 -44.6918144 -81.9179382
-74.3252869 -36.3419952 79.4041138
-75.3434219 -36.2669525 81.0350418
-76.3815918 -36.1836548 82.4434662
-77.4357605 -36.1165771 83.7076187
-78.4825287 -36.0555840 84.8334198
-109.1367798 -36.1163483 89.4501572
-110.3885803 -36.1730766 88.7358093
-111.6348267 -36.2314453 87.9568939
90.6808624 -43.6219215 -97.0816345
38.7729912 -43.2381973 -80.4823456
-75.6330719 -35.2870903 77.5619812
-78.7281494 -35.0812454 82.1076508
-79.7795944 -35.0242996 83.2289886
-80.8418427 -34.9725494 84.2561417
-102.1917419 -34.8736763 89.8462067
-103.3634338 -34.9061584 89.5608292
-104.5679169 -34.9379730 89.1877594
-105.7621841 -34.9801369 88.7650604
-106.9770889 -35.0299606 88.2477951
-108.2034073 -35.0825500 87.6301575
-109.4620132 -35.1325073 86.8977737
92.1416626 -42.2953644 -97.9286270
90.5604858 -42.1688347 -95.5000229
38.7295952 -41.8468094 -79.6983643
-80.0763550 -34.0923271 80.1081543
-81.1211090 -34.0294495 81.2761078
-102.4703064 -33.8835297 87.4364929
-103.6623688 -33.9142075 87.0738144
-104.8691559 -33.9554634 86.6459961
-106.0814209 -33.9991112 86.1300201
-107.3268051 -34.0411148 85.4943390
92.0053635 -40.8297310 -96.3286209
90.4441376 -40.7237930 -94.0962219
41.4056664 -40.3694954 -78.0224915
40.0635185 -40.3994370 -78.4476471
38.7094765 -40.4433022 -78.9328308
-80.4304199 -33.1272430 75.9845428
-81.4532776 -33.0491371 77.5516281
-82.5062332 -32.9894028 78.8845444
-83.5696182 -32.9735794 80.0061874
-84.6330261 -32.9354362 80.9946899
-85.7002716 -32.8999176 81.8231659
-86.8034592 -32.8701859 82.5795288
-87.9018631 -32.8417473 83.2319717
-89.0004959 -32.8163567 83.7653351
-90.1030197 -32.7961082 84.2199020
-91.2225647 -32.7837524 84.6048431
-92.3615875 -32.7708130 84.9097595
-93.4783554 -32.7737198 85.1713409
-94.6237183 -32.7667694 85.3168564
-95.7461395 -32.7776566 85.4356995
-96.9079895 -32.7920380 85.4900589
-98.0655289 -32.8074417 85.4606094
-99.2387390 -32.8254395 85.3576050
-100.4151306 -32.8491821 85.1847687
-101.5948257 -32.8790131 84.9332428
-102.7960052 -32.9163513 84.5926514
-103.9936676 -32.9571457 84.1527405
91.8903809 -39.3869781 -94.9669113
90.3325348 -39.2890587 -92.8501205
41.3792496 -38.9694939 -77.3515930
40.0344315 -39.0102463 -77.7818069
38.6876755 -39.0448380 -78.2531815
-86.0647812 -31.9120026 78.0723724
-87.1492462 -31.8792515 78.9967499
-88.2456741 -31.8718987 79.7522202
-89.3433533 -31.8714447 80.3808060
-90.4459229 -31.8582592 80.9359818
-91.5541306 -31.8498116 81.3790588
-92.6911316 -31.8344193 81.7463379
-93.8157501 -31.8311844 82.0338974
-94.9546204 -31.8187160 82.1981125
-96.0956726 -31.8170471 82.3171539
-97.2608490 -31.8284798 82.3089828
-98.4193420 -31.8714104 82.2616882
-99.6073074 -31.8899593 82.1068878
-100.7873077 -31.9166679 81.8629227
-101.9879761 -31.9469566 81.5154266
-103.2066574 -31.9808445 81.0406342
-104.4260254 -31.9932251 80.4598541
93.4027252 -38.0829468 -96.0898132
91.7888794 -37.9604111 -93.7756042
90.2555923 -37.8730774 -91.7774124
41.3546066 -37.5968094 -76.7555084
40.0051270 -37.6411896 -77.1953964
-91.9870148 -30.8823109 77.1427765
-93.1108704 -30.8822975 77.5960236
-94.2397156 -30.9329433 77.9107590
-98.8778992 -30.9306831 78.0437164
-100.0758209 -30.9342461 77.7462463
93.2611084 -36.6362610 -94.8829269
91.6977463 -36.5398369 -92.7094269
90.1764832 -36.4597015 -90.8070984
41.3357620 -36.2098999 -76.1857758
39.9872398 -36.2548103 -76.6280518
94.7739258 -35.3252945 -96.2893600
93.1712189 -35.2180786 -93.8672409
41.3060226 -34.8397217 -75.6691971
39.9687080 -34.8746605 -76.0945282
94.6700592 -33.9032822 -95.2627106
93.1014862 -33.8141441 -92.9689941
41.2840919 -33.4692688 -75.2120438
39.9489250 -33.5047989 -75.6344681
96.1871414 -32.5988350 -96.9016113
94.5771866 -32.4935913 -94.3316727
93.0258865 -32.4122658 -92.1584702
41.2538528 -32.1078186 -74.8182144
39.9269028 -32.1374207 -75.2223358
96.0980530 -31.1892529 -96.0121613
94.5095367 -31.0957737 -93.5613251
92.9638519 -31.0198097 -91.4559250
41.2313614 -30.7461853 -74.4524078
39.9140472 -30.7682362 -74.8289871
96.0203934 -29.7876434 -95.2501450
60.1643639 -29.1408005 -72.6249847
58.7990685 -29.1452370 -72.4894409
57.4388351 -29.1545048 -72.3811874
56.0631332 -29.1603127 -72.2958603
54.7263947 -29.1669197 -72.2685013
53.3552017 -29.1906471 -72.2865372
41.2194519 -29.3816490 -74.1007614
39.8831863 -29.4120464 -74.4812088
38.5445175 -29.4402847 -74.9032745
97.6019440 -28.5000420 -97.2784119
95.9833450 -28.3994789 -94.6364594
60.1439819 -27.7810631 -72.3359070
58.7737045 -27.7872047 -72.1950378
57.4208984 -27.8025169 -72.0901794
56.0535316 -27.8103409 -72.0235443
54.7046890 -27.8179512 -71.9994507
53.3464622 -27.8372746 -72.0092926
41.2203903 -28.0168839 -73.7891388
39.8730469 -28.0541916 -74.1930389
38.5174522 -28.0849113 -74.6229172
97.5189362 -27.0998669 -96.6360550
95.9094086 -27.0060196 -94.0332108
60.1321526 -26.4415913 -72.0895004
54.6856842 -26.4706478 -71.7698212
53.3307648 -26.4818001 -71.7698669
38.5039558 -26.7225914 -74.3715210
37.1501350 -26.7618313 -74.8408890
97.4595947 -25.7096748 -96.0946121
95.8796692 -25.6270885 -93.5839691
60.1176758 -25.0909004 -71.8890839
54.6696281 -25.1248493 -71.5770416
53.3173332 -25.1395378 -71.5695038
38.4935493 -25.3698483 -74.1610107
37.1602631 -25.3998089 -74.6254349
97.4213409 -24.3270473 -95.6723785
95.8409119 -24.2472229 -93.2022324
60.1008377 -23.7435513 -71.7384644
58.7405739 -23.7522888 -71.5932465
57.3651848 -23.7571430 -71.4873123
56.0034676 -23.7718678 -71.4395981
54.6586037 -23.7762432 -71.3996277
53.2999382 -23.7892151 -71.3942566
51.9504662 -23.8051090 -71.4494629
50.5897942 -23.8190231 -71.5383072
49.2453880 -23.8354836 -71.6462402
47.9129257 -23.8482704 -71.7767334
46.5416069 -23.8760643 -71.9978561
45.2253761 -23.8903809 -72.2404404
43.8466988 -23.9190941 -72.5337524
42.5134888 -23.9386215 -72.8467789
38.4790268 -24.0183506 -73.9913177
37.1527596 -24.0443325 -74.4522247
35.7954903 -24.0789814 -74.9828339
97.3857346 -22.9486103 -95.3443451
95.8004379 -22.8726940 -92.8824768
60.0798492 -22.3983955 -71.5924454
58.7173500 -22.4062557 -71.4479370
57.3469658 -22.4135151 -71.3578796
51.9430771 -22.4573975 -71.3279266
50.5825233 -22.4737167 -71.4143448
49.2323799 -22.4910336 -71.5279236
47.8925018 -22.5065804 -71.6745529
43.8464661 -22.5666943 -72.3924484
42.5139999 -22.5883827 -72.7008209
38.4646721 -22.6675167 -73.8542328
37.1309433 -22.6943550 -74.3184662
35.7836838 -22.7270679 -74.8479843
34.4423790 -22.7588768 -75.4054947
99.0242004 -21.6627693 -97.9294052
97.3744507 -21.5749397 -95.1163101
95.7694931 -21.5002041 -92.6390839
57.3541527 -21.0733509 -71.2689056
51.9202385 -21.1176071 -71.2490311
50.5700569 -21.1300449 -71.3333511
49.2258911 -21.1464920 -71.4561996
43.8257904 -21.2245140 -72.2948761
42.5176392 -21.2410183 -72.5864258
41.1642761 -21.2638054 -72.9317474
39.8115883 -21.2910366 -73.3259125
35.7840576 -21.3731709 -74.7204895
34.4451752 -21.4022980 -75.2721481
33.0943031 -21.4375477 -75.8726501
99.0043182 -20.2856541 -97.7304611
97.3367920 -20.2021046 -94.9188385
95.7589722 -20.1343288 -92.5141754
57.3311653 -19.7305870 -71.2258072
55.9759750 -19.7415676 -71.1591187
54.6316299 -19.7503395 -71.1259460
53.2580948 -19.7624912 -71.1435547
51.9081726 -19.7754345 -71.1989594
50.5651398 -19.7886028 -71.2847214
49.2201157 -19.8050632 -71.4052887
42.4862747 -19.8988724 -72.5207214
41.1406975 -19.9206753 -72.8680878
39.7930641 -19.9453335 -73.2664337
35.7694626 -20.0245075 -74.6527405
34.4213409 -20.0541306 -75.2150116
33.0755386 -20.0859947 -75.8244781
31.7419014 -20.1178589 -76.4500275
98.9835510 -18.9116287 -97.6118088
51.9076653 -18.4358463 -71.1752319
50.5605850 -18.4485397 -71.2601242
46.5124130 -18.4967422 -71.6961060
41.1433449 -18.5741310 -72.8236084
39.7918549 -18.5991402 -73.2308273
33.0768051 -18.7349586 -75.7832413
31.7499599 -18.7653732 -76.4139175
30.4026184 -18.7989655 -77.1137543
29.0412788 -18.8347397 -77.8663025
11.4297543 -19.5214195 -94.7622147
98.9628296 -17.5403881 -97.5675430
51.9091606 -17.0963898 -71.1889038
50.5490112 -17.1097298 -71.2728424
46.5164337 -17.1531277 -71.6842880
42.4724579 -17.1934013 -72.4947968
41.1469650 -17.2317123 -72.8380356
39.8063354 -17.2539253 -73.2347641
33.0780411 -17.3849945 -75.7736130
31.7225266 -17.4159737 -76.4310837
30.3949833 -17.4478455 -77.1303406
29.0543976 -17.4819012 -77.8932343
14.1812954 -17.9962025 -90.8139191
12.8313646 -18.0635223 -92.6609116
11.4540920 -18.1367607 -94.6922302
98.9741516 -16.1731091 -97.6582947
51.9050598 -15.7581654 -71.2335815
50.5458221 -15.7711716 -71.3150787
49.1835098 -15.7841673 -71.4358063
47.8577728 -15.7999325 -71.5787354
43.8054161 -15.8517284 -72.2957840
42.4727898 -15.8699837 -72.5772095
30.3825874 -16.0980186 -77.1904602
29.0387897 -16.1304970 -77.9483871
27.7123070 -16.1638222 -78.7352066
26.3633060 -16.1989155 -79.5756989
25.0013733 -16.2361050 -80.4956589
23.6573563 -16.2755871 -81.4915543
22.3071785 -16.3174534 -82.5653229
20.9658394 -16.3606720 -83.6863861
19.5964317 -16.4069824 -84.9170074
18.2586002 -16.4560127 -86.2276077
16.8971729 -16.5084381 -87.6597748
15.5391121 -16.5637836 -89.1998367
14.1837301 -16.6236305 -90.8689270
12.8155727 -16.6886463 -92.7282562
11.4454603 -16.7577667 -94.7537308
98.9779434 -14.8076658 -97.8211899
51.9130592 -14.4215822 -71.2981186
50.5568314 -14.4332323 -71.3804474
49.2010841 -14.4468794 -71.5134659
47.8473053 -14.4644642 -71.6879501
43.8090477 -14.5114031 -72.3732910
42.4659996 -14.5291109 -72.6696930
30.3701248 -14.7480888 -77.2802353
29.0293846 -14.7792778 -78.0227051
27.6948929 -14.8114815 -78.8120575
26.3412342 -14.8453465 -79.6727142
25.0067749 -14.8812857 -80.5853348
23.6543732 -14.9190779 -81.5876236
22.2970085 -14.9588795 -82.6663513
20.9684925 -15.0006733 -83.7787781
19.5998631 -15.0448484 -85.0110626
18.2604427 -15.0915928 -86.3203888
16.8940201 -15.1420422 -87.7580948
15.5454254 -15.1946926 -89.2887726
14.1704359 -15.2520885 -90.9932785
12.8038273 -15.3147717 -92.8621216
11.4452791 -15.3819199 -94.9034805
99.0091171 -13.4447155 -98.1270599
97.3359528 -13.3855648 -95.3030396
95.7600021 -13.3319464 -92.8935547
76.6455383 -13.0402994 -76.5527649
75.2446136 -13.0312977 -75.8991699
73.8430786 -13.0260487 -75.2781677
72.4412537 -13.0212746 -74.7120056
71.0431747 -13.0192204 -74.2010803
69.6621552 -13.0157223 -73.7296524
62.7833176 -13.0210447 -72.0790558
61.4219131 -13.0256615 -71.8734894
60.0320396 -13.0335636 -71.6822662
58.6855583 -13.0383377 -71.5688019
51.9084778 -13.0835705 -71.4176331
50.5619354 -13.1004820 -71.5070801
49.2019577 -13.1110830 -71.6479416
47.8283844 -13.1215048 -71.8321533
46.4984627 -13.1380444 -71.9902496
45.1698341 -13.1552305 -72.2080078
43.8108215 -13.1712980 -72.4732361
42.4769783 -13.1898670 -72.7713242
11.4543781 -14.0063362 -95.1004486
99.0415115 -12.0819225 -98.4988403
97.3650894 -12.0274620 -95.6385880
95.7757568 -11.9770470 -93.1812134
76.6542892 -11.7015629 -76.7315750
75.2522964 -11.6930904 -76.0648346
73.8372421 -11.6894112 -75.4331360
72.4412003 -11.6862307 -74.8822098
71.0587234 -11.6806107 -74.3800735
69.6725388 -11.6802330 -73.9075317
62.7826920 -11.6874561 -72.2502823
58.6844101 -11.7071810 -71.7238541
51.9001808 -11.7460241 -71.5990906
50.5409393 -11.7591419 -71.6846008
49.1990166 -11.7739830 -71.8005447
47.8668747 -11.7867584 -71.9435654
46.5155487 -11.8027468 -72.1252670
45.1619339 -11.8150234 -72.3495865
43.8220596 -11.8347015 -72.6095123
42.4610596 -11.8482847 -72.9457550
11.4551506 -12.6323471 -95.3532944
97.3856430 -10.6707668 -96.0319824
95.8120804 -10.6212635 -93.5816879
76.6634216 -10.3636713 -76.9409943
75.2489853 -10.3578777 -76.2544327
71.0705414 -10.3462515 -74.5791626
69.6809769 -10.3436575 -74.1132736
62.7941208 -10.3543854 -72.4611664
58.6936607 -10.3667965 -71.9087296
51.9152031 -10.4122581 -71.7795639
50.5729141 -10.4286814 -71.8586884
46.5115013 -10.4634571 -72.3214569
45.1853065 -10.4821749 -72.5298004
14.1741390 -11.1446676 -91.6718826
12.8077812 -11.1983194 -93.5809937
11.4543419 -11.2591162 -95.6925507
97.4264984 -9.3140230 -96.5378876
95.8207245 -9.2687454 -94.0013733
76.6860199 -9.0246372 -77.2035904
75.2692871 -9.0176754 -76.5128479
71.0779419 -9.0118904 -74.8163681
69.6776276 -9.0136919 -74.3561325
62.7974052 -9.0169134 -72.6804047
61.4252548 -9.0259914 -72.4496078
60.0592270 -9.0276861 -72.2700500
58.6905174 -9.0381432 -72.1350403
51.9199219 -9.0782871 -71.9968185
50.5568237 -9.0867977 -72.0835114
46.5123672 -9.1266937 -72.5512619
45.1809845 -9.1423893 -72.7683868
14.1715479 -9.7775068 -92.0328827
12.8098879 -9.8296690 -93.9575119
97.4706879 -7.9577045 -97.0856934
95.8724670 -7.9161625 -94.5546265
49.2154007 -7.7642274 -72.4573669
47.8539047 -7.7729816 -72.6397934
46.5254631 -7.7920856 -72.8283539
45.1774368 -7.8048553 -73.0434341
14.1687088 -8.4089298 -92.4580765
12.8078079 -8.4604502 -94.4281998
11.4355106 -8.5136652 -96.6298447
97.5695572 -6.5924106 -97.8236694
95.9199905 -6.5634117 -95.1818008
49.2261009 -6.4318495 -72.7666473
47.8682098 -6.4420118 -72.9501724
46.5224228 -6.4528151 -73.1380157
45.1719055 -6.4669003 -73.3586349
14.1623297 -7.0440464 -92.9645691
12.7928562 -7.0907831 -94.9898529
11.4381714 -7.1381083 -97.1520538
95.9615631 -5.2100239 -95.8748322
14.1573544 -5.6753111 -93.5499039
12.8084974 -5.7211194 -95.5767136
96.0206146 -3.8588529 -96.6783981
14.1772499 -4.3101044 -94.1754913
12.7904263 -4.3501997 -96.3060913
11.4142666 -4.3864241 -98.5887756
96.1635132 -2.4883306 -97.6917648
94.4983826 -2.4753644 -95.0978699
92.9386063 -2.4492688 -92.8878860
14.1712589 -2.9420180 -94.9201050
12.8013878 -2.9766023 -97.0540085
94.5761261 -1.1218326 -96.0751801
93.0137787 -1.0943094 -93.7970734
14.1879539 -1.5742705 -95.7203979
94.6565552 0.2282995 -97.1659241
93.0919800 0.2553468 -94.7952194
19.6183147 -0.0859635 -89.6340866
18.2704849 -0.1134482 -91.1407776
16.8920174 -0.1375670 -92.8304520
15.5354443 -0.1689586 -94.6548386
14.1713772 -0.1972113 -96.6653366
94.7932129 1.6031572 -98.4244690
93.1569977 1.6036251 -95.8534698
19.6204929 1.2761811 -90.4463120
18.2796402 1.2524869 -91.9873123
93.2635880 2.9676008 -97.0765228
19.6209812 2.6426840 -91.3408813
18.3107224 2.6108003 -92.8781738
93.3658600 4.3218441 -98.5051270
19.6345692 4.0087142 -92.3102646
18.2854614 3.9888699 -93.9588928
93.5137024 5.6932425 -100.1570053
91.8675079 5.6863866 -97.4819870
90.3121567 5.6959972 -95.1926193
19.6459656 5.3742499 -93.3819046
18.2995682 5.3582435 -95.0865479
92.0041809 7.0484753 -99.1410370
90.4350052 7.0553694 -96.7039185
19.6634750 6.7441201 -94.5556488
90.5685425 8.4195414 -98.3767700
88.9893494 8.4201345 -96.0860901
87.4455109 8.4263039 -94.0936203
22.3982639 8.1433096 -92.5846100
21.0535278 8.1288071 -94.1218567
19.6775703 8.1227322 -95.8779984
18.3199959 8.1191149 -97.7559509
89.1042328 9.7770138 -97.7717667
87.5364685 9.7775269 -95.6114655
22.4064140 9.5192842 -93.8912964
21.0535221 9.5098801 -95.5223160
19.6929607 9.5015650 -97.3283691
89.2921295 11.1812763 -99.6914978
87.6840744 11.1523914 -97.3791809
86.1304321 11.1457195 -95.3869553
84.6395874 11.1482906 -93.6784210
25.1472912 10.8991299 -92.3289032
23.7959442 10.8961887 -93.7402954
22.4334641 10.8903160 -95.3139954
21.1007385 10.8691349 -97.0139465
86.2531281 12.5113831 -97.1415329
84.7448349 12.5132484 -95.2993851
25.1664696 12.2825518 -93.7563782
23.8174477 12.2745018 -95.2301559
86.4028625 13.8859739 -99.1471481
84.8675003 13.8738766 -97.1359558
27.9076729 13.6600847 -92.6130066
26.5393200 13.6619892 -93.9042511
25.2016106 13.6543798 -95.2937317
86.6045074 15.2969112 -101.5317688
85.0217743 15.2444258 -99.2932281
27.9309273 15.0429401 -94.1677094
26.5760117 15.0438614 -95.5280762
25.2209892 15.0454988 -97.0563507
85.2407684 16.6668072 -101.7548523
83.6623230 16.6175613 -99.5582123
82.1264191 16.6132603 -97.6444397
80.6207657 16.6090240 -95.9821167
79.1227722 16.5900917 -94.4912186
30.6779346 16.4159412 -93.3673553
29.3224297 16.4297047 -94.5726547
27.9674911 16.4312439 -95.8928986
26.6254921 16.4237156 -97.3462372
83.8789139 18.0395489 -102.1548691
82.2646332 17.9770355 -99.9247208
80.7457428 17.9732876 -98.0842819
79.2616425 17.9685326 -96.5031967
30.7219391 17.8090248 -95.1077805
29.3586044 17.8105354 -96.3963699
28.0179443 17.8178253 -97.8154755
26.6438732 17.8398857 -99.4451752
80.9536285 19.3984585 -100.5789795
79.4041748 19.3453674 -98.7911987
77.9424667 19.3416309 -97.2619476
76.4556046 19.3255768 -95.8779602
30.7585030 19.2055836 -97.0817032
29.3957863 19.2221527 -98.5027771
79.6091156 20.7557220 -101.4970779
78.1045303 20.7259445 -99.7320709
76.6078796 20.7152309 -98.1991425
30.8231621 20.5931263 -99.2818527
29.4680290 20.5990486 -100.8406754
76.7723618 22.0919323 -100.8357925
75.2656403 22.0827827 -99.3296661
73.7985458 22.0902538 -98.0282745
36.2778320 21.9792900 -96.7809296
34.9305458 21.9810734 -97.8157654
33.5773392 21.9869461 -99.0045471
32.2056847 22.0102386 -100.3887787
30.8678379 22.0291061 -101.8647003
75.4724274 23.5088158 -102.2285156
73.9529190 23.4716816 -100.6989059
36.3484802 23.3860168 -99.1465912
35.0015259 23.3898621 -100.3128815
33.6534767 23.3979797 -101.6329498
74.1807785 24.9450455 -103.9701004
72.7026443 24.8793583 -102.4438858
71.2090149 24.8366165 -101.1026001
69.7383270 24.8334751 -99.9724045
68.2870178 24.8141899 -98.9676590
66.8530731 24.8181915 -98.1230011
65.4409943 24.8011723 -97.3659439
41.8621101 24.7653084 -98.0438538
40.5118599 24.7730141 -98.8135529
39.1418037 24.7796154 -99.7012329
37.7798958 24.7921295 -100.7374344
36.4325447 24.7944355 -101.9148560
35.0673676 24.8317318 -103.2727661
71.4416962 26.2971592 -104.6115723
67.0123367 26.2208652 -101.0233002
65.5977325 26.2025566 -100.1397629
41.9491501 26.1967239 -100.8018188
40.6013908 26.1889973 -101.6370697
39.2333374 26.2038727 -102.6627884
37.8866768 26.2208385 -103.8945160
67.2299728 27.6778851 -104.6061172
65.7768097 27.6199684 -103.5333252
64.3245239 27.6050835 -102.6578064
62.8725510 27.5798187 -101.9420853
61.4525299 27.5779648 -101.3887482
60.0452766 27.5802174 -100.8938141
58.6496544 27.5874748 -100.5516815
57.2250710 27.5888977 -100.3243484
55.8324242 27.5845737 -100.1773834
54.4343796 27.5724411 -100.0905151
53.0555038 27.5723896 -100.1135330
51.6720886 27.5728855 -100.2449875
50.2803726 27.5850506 -100.5060425
48.8978004 27.5731163 -100.8014526
47.5415573 27.5809021 -101.2267761
46.1809692 27.5768051 -101.7289886
44.7976990 27.5876408 -102.3904877
43.4454269 27.5850716 -103.1312790
42.0759888 27.5952225 -104.0461731
66.0525665 29.1407375 -108.0329285
60.2306061 29.0149994 -104.4928741
58.8237953 29.0145702 -104.0521622
57.4009514 29.0060406 -103.7300797
56.0028534 29.0049000 -103.5668030
54.5906982 28.9951763 -103.4843521
53.2121582 28.9969921 -103.5040054
51.8259087 28.9998436 -103.6545639
50.4257622 28.9990711 -103.9197311
49.0476112 29.0008812 -104.2731323
47.6865654 29.0244484 -104.7795563
46.3116989 29.0562363 -105.4041748
44.9429054 29.0835876 -106.2187119
43.5853424 29.0997772 -107.2001572
54.8070869 30.5167484 -107.8913498
53.4243202 30.5115032 -107.8600235
52.0242538 30.5155621 -108.0399017
-87.9935150 -128.1676483 85.3166656
-88.5353317 -128.0948792 85.8000259
-89.0818939 -128.0359497 86.2230072
-89.6239700 -127.9723434 86.6307449
-90.1616440 -127.9443665 86.8970871
-90.6911774 -127.9132309 87.1425629
-91.2262192 -127.8812103 87.4007950
-91.7724991 -127.8625793 87.5888901
-92.3353653 -127.8388672 87.7797546
-92.9103088 -127.8070221 87.9522781
-93.4963989 -127.7907410 88.0475159
-94.0818024 -127.7534485 88.1278763
-96.3599854 -127.8419266 88.1178055
-96.9389343 -127.8946304 88.0913239
-97.5353241 -127.9306335 88.0352936
-99.7169495 -127.1156387 89.6114273
-84.3180389 -126.5478210 87.5081024
-84.8257828 -126.4603500 87.9823380
-85.3329163 -126.3848801 88.3934937
-99.4797592 -126.1319427 91.5606766
-103.0952682 -126.5471191 90.0314407
-103.7369537 -126.6685638 89.6370239
-79.7490768 -125.4622421 86.5205994
-80.2356110 -125.3397369 87.2332001
-80.7452164 -125.2157516 87.9253006
-81.2531433 -125.1139297 88.5287781
-81.7722473 -125.0005951 89.1221161
-105.1692963 -125.1334534 92.1025238
-105.7324677 -125.1973953 91.8292694
-77.8505020 -123.9504166 88.2656555
-78.3896866 -123.8010559 88.9948273
-107.2087631 -123.7124557 94.0497284
-75.4681778 -122.7231293 88.4695511
-75.9775772 -122.5863724 89.2086945
-108.1536636 -122.2447128 95.9245834
-108.8200607 -122.3553391 95.4808350
-109.4501724 -122.4583282 95.0356903
-110.0735321 -122.5665283 94.5641403
-111.7686234 -122.0704956 94.3836060
-72.7149658 -121.6927719 87.4886246
-111.5532761 -121.2180099 95.7684402
-72.5829849 -120.8070221 89.0823517
-112.7258987 -120.6946564 95.9598541
-71.9307709 -120.1355286 89.6152039
-72.4697876 -119.9915161 90.4807358
-112.5471802 -119.8896027 97.1448593
-113.7741623 -119.3865891 97.1737900
-113.6130829 -118.5907440 98.2161255
-113.4683838 -117.8371124 99.2042313
-67.4945984 -118.1615143 87.5783005
-68.0417023 -117.9274750 88.7439423
-113.3340225 -117.1240234 100.1354065
-113.9878464 -117.2266541 99.6626129
-114.5958710 -117.3093719 99.2194290
-115.1976013 -117.4071045 98.7386398
-115.8071823 -117.5048370 98.2348480
-116.4510880 -117.6316071 97.6826477
-116.9934082 -117.0453491 98.1284866
-66.7982635 -116.6930695 89.1801147
-116.8565369 -116.2986755 99.0728531
-119.2143250 -114.6725998 99.2012100
-64.9296722 -114.1619263 90.6528549
-65.4232254 -114.0371780 91.4807739
-119.0625458 -113.9089737 100.1194458
-119.7095261 -114.0405960 99.5737534
-64.3685684 -113.5639420 90.7335815
-118.9436035 -113.2094498 100.9188843
-119.5759201 -113.3291931 100.3896332
-63.8315315 -112.9592514 90.8348160
-64.3083649 -112.8365326 91.6556549
-118.8462372 -112.5312576 101.6635056
-62.2307777 -112.7444000 88.7092896
-118.7471466 -111.8476334 102.3803940
-62.1657104 -111.9967957 89.6700897
-118.6422424 -111.1812592 103.0534363
-119.2640076 -111.2742920 102.5663910
-119.8705978 -111.3686676 102.0717087
-120.4895859 -111.4689331 101.5595322
-121.1373062 -111.5958176 101.0138245
-122.2900467 -110.4783859 101.1615829
-61.9871292 -109.8669968 92.2907791
-81.5878983 -107.6271896 109.4961395
-84.2038422 -107.5763855 110.2131729
-89.1257935 -107.5061874 111.4772568
-89.6791687 -107.5054169 111.5858917
-90.2601242 -107.5014191 111.6928253
-90.8534927 -107.5044327 111.7771530
-91.4449158 -107.5064621 111.8465271
-92.0038071 -107.5068130 111.9022827
-59.8761177 -109.8022690 88.8935699
-60.3833961 -109.6292725 89.9863205
