-59.2251816 -89.1232147 102.1811981
-60.2512207 -88.9289856 103.7791595
-80.3679504 -87.3118668 119.2021637
-81.4345093 -87.2985382 119.5051956
-116.8595276 -88.7925110 113.5068512
-118.0713196 -88.9257660 112.6018677
-119.3189392 -89.0871582 111.5897064
-57.1474457 -88.2406769 100.0685349
-58.1348572 -88.0297012 101.8388367
-119.1562576 -87.8300476 112.6909943
-120.4528580 -88.0044403 111.5767746
-56.0204620 -87.1892853 99.4540253
-57.0637817 -86.9513550 101.4054871
-58.0441284 -86.7672882 103.0378113
-119.0158081 -86.5981445 113.6974487
-120.2927856 -86.7530060 112.6522064
-121.6301956 -86.9342041 111.4316864
-56.9806938 -85.6910248 102.5831070
-57.9683609 -85.5196686 104.1277771
-121.4931183 -85.6994019 112.4509125
-53.8579407 -85.1164474 97.8673172
-54.8478508 -84.8729706 99.9756622
-55.8649139 -84.6543808 101.8916168
-56.9101906 -84.4461517 103.6538010
-57.9048843 -84.2861481 105.1305695
-121.3506546 -84.4767456 113.3921814
-122.6518860 -84.6472321 112.2416687
-123.9238586 -84.8252106 111.0358810
-52.8007736 -84.0999603 96.9444580
-53.7797813 -83.8428040 99.1229553
-123.7668152 -83.5873108 112.0070114
-52.7286415 -82.8260040 98.1818161
-53.7062073 -82.5905838 100.2431793
-123.6402664 -82.3710785 112.8641968
-124.9666138 -82.5633926 111.6241608
-52.6640396 -81.5748825 99.2927856
-53.6308327 -81.3651352 101.2151031
-123.5212631 -81.1701889 113.6513748
-124.8401184 -81.3510666 112.4391479
-52.5951691 -80.3434143 100.2678223
-53.5716133 -80.1458282 102.1136246
-123.4150848 -79.9779739 114.3762741
-124.7084351 -80.1406403 113.2168655
-126.0599670 -80.3317032 111.9251404
-50.5107841 -79.6234589 96.7487717
-51.5451698 -79.3489304 99.1242294
-52.5439377 -79.1262283 101.1612473
-53.5361176 -78.9374008 102.9448929
-125.9376831 -79.1280365 112.6336060
-51.4911003 -78.1359253 99.9982452
-52.4948158 -77.9286423 101.9429932
-53.4981422 -77.7438812 103.6756821
-125.8314972 -77.9401245 113.3028107
-51.4526749 -76.9299774 100.7956467
-125.7357254 -76.7638779 113.9217834
-50.3677368 -75.9706268 99.3351364
-51.4141388 -75.7405167 101.4863129
-125.6458740 -75.5957413 114.4821396
-127.0033951 -75.7696381 113.1782150
-128.3182373 -75.9482803 111.8648376
-49.3341064 -75.0103912 97.8162842
-50.3467407 -74.7737961 100.0647964
-51.3699570 -74.5673141 102.0811615
-125.5840378 -74.4389343 114.9605865
-126.9161224 -74.6011124 113.7169266
-49.3016167 -73.8163071 98.5260696
-50.3099289 -73.5947189 100.6725235
-51.3294830 -73.3991089 102.6128387
-125.5098572 -73.2862396 115.4069290
-126.8355103 -73.4415970 114.1952820
-128.1449585 -73.6080704 112.9277420
-49.2576752 -72.6429443 99.0798035
-75.4130859 -70.3719559 124.0290985
-76.4638290 -70.3479919 124.4298782
-77.5248489 -70.3258667 124.8188477
-80.7615967 -70.2724762 125.8287430
-81.8315048 -70.2543716 126.1048813
-82.9203491 -70.2465057 126.3647690
-83.9933624 -70.2391586 126.5940628
-85.0987549 -70.2420273 126.8031540
-86.1643295 -70.2329330 126.9870911
-87.2502060 -70.2361145 127.1401138
-88.3404694 -70.2448273 127.2641449
-89.4460602 -70.2513428 127.3642883
-90.5452423 -70.2666931 127.4438171
-91.6234589 -70.2713547 127.5091553
-92.7255707 -70.2885284 127.5443954
-93.8297195 -70.3062744 127.5556030
-94.9481812 -70.3245163 127.5403900
-96.0504608 -70.3498917 127.4960175
-97.1531830 -70.3786316 127.4288940
-98.2657318 -70.4030991 127.3349762
-99.4164124 -70.4432678 127.2084579
-100.5337906 -70.4785919 127.0675201
-101.6438675 -70.5145035 126.8995132
-102.7724533 -70.5558090 126.6943817
-128.0710144 -72.4518356 113.3701935
-49.2350159 -71.4730148 99.6035156
-75.3927612 -69.2711182 124.2210770
-76.4523010 -69.2450562 124.6276855
-77.5147018 -69.2213058 125.0176392
-80.7468643 -69.1702881 126.0105438
-81.8210144 -69.1632690 126.2758408
-83.9752274 -69.1398392 126.7667923
-85.0784149 -69.1404266 126.9815216
-86.1514435 -69.1391296 127.1660919
-87.2357559 -69.1381760 127.3201141
-88.3222198 -69.1421661 127.4435272
-89.4235840 -69.1552658 127.5439606
-90.5129395 -69.1629639 127.6302032
-91.5996475 -69.1759262 127.6931992
-92.6983109 -69.1920547 127.7289886
-93.8112335 -69.2088013 127.7460022
-94.9342575 -69.2295609 127.7306213
-96.0348434 -69.2538147 127.6907501
-97.1390991 -69.2795410 127.6301041
-98.2548599 -69.3097992 127.5269089
-99.3829193 -69.3405304 127.4028778
-102.7506409 -69.4548569 126.8897400
-128.0036316 -71.3016434 113.7628326
-48.1961823 -70.5332489 97.8720398
-49.2178268 -70.3090439 100.0799789
-66.8766632 -68.4909973 120.0307999
-67.9280701 -68.4373169 120.6867218
-68.9801559 -68.3926697 121.3027649
-70.0538559 -68.3461609 121.9005356
-71.1186676 -68.3044052 122.4544601
-72.1654968 -68.2699585 122.9752884
-73.2334061 -68.2293625 123.4865494
-74.2965164 -68.2019882 123.9495316
-75.3744812 -68.1735229 124.3856735
-88.3153458 -68.0605545 127.6029434
-95.9853516 -68.1496735 127.9034958
-99.3623962 -68.2419739 127.5717316
-102.7314758 -68.3543167 127.0648880
-127.9461899 -70.1583099 114.1179352
-129.2784119 -70.3241425 112.8028870
-48.1761169 -69.3699036 98.3304214
-49.1930313 -69.1579819 100.4712524
-66.8659821 -67.3879395 120.1995392
-67.9104233 -67.3393250 120.8514404
-71.0996017 -67.2082520 122.6020813
-72.1558380 -67.1724548 123.1223297
-73.2166367 -67.1364822 123.6219711
-100.4610443 -67.1821136 127.5744553
-101.5804749 -67.2183914 127.4105377
-102.7115936 -67.2567673 127.2194290
-127.8928528 -69.0197678 114.4323959
-129.2174988 -69.1805878 113.1313934
-48.1595993 -68.2154846 98.7250900
-49.1693764 -68.0165405 100.7900467
-66.8593903 -66.2902832 120.3338852
-67.9113159 -66.2399368 120.9926910
-71.0943909 -66.1140366 122.7284546
-72.1419449 -66.0804749 123.2392426
-73.2139740 -66.0410919 123.7405701
-100.4538498 -66.0896225 127.6927338
-101.5626907 -66.1233215 127.5312424
-102.6950607 -66.1637268 127.3440933
-103.8355331 -66.2074661 127.1263809
-104.9771118 -66.2498093 126.8744202
-127.8657379 -67.8928375 114.6778564
-129.1749725 -68.0466919 113.4088593
-49.1606636 -66.8772888 101.0707855
-66.8451691 -65.1974869 120.4329453
-67.9055252 -65.1445618 121.0916443
-68.9575195 -65.1022110 121.6990967
-70.0353241 -65.0605011 122.2847137
-71.0909271 -65.0202942 122.8340149
-72.1398773 -64.9861450 123.3462524
-100.4448013 -65.0031204 127.7903290
-101.5546646 -65.0364456 127.6235580
-104.9673615 -65.1587143 126.9746857
-127.8278961 -66.7661057 114.8961792
-129.1416321 -66.9170761 113.6249161
-130.4974670 -67.0844955 112.2417679
-48.1290359 -65.9401245 99.2102280
-49.1421127 -65.7479706 101.2768707
-68.9557953 -64.0118408 121.7770081
-70.0158997 -63.9722061 122.3538895
-104.9571915 -64.0705795 127.0495682
-106.0845337 -64.1154099 126.7742157
-107.2307129 -64.1660004 126.4720230
-108.3739853 -64.2156906 126.1439972
-109.5411224 -64.2717133 125.7781982
-127.7978592 -65.6463089 115.0700378
-129.1172485 -65.7954025 113.7998428
-130.4618378 -65.9561310 112.4403076
-48.1231194 -64.8088455 99.4059143
-49.1325073 -64.6240463 101.4446259
-68.9571533 -62.9233322 121.8313293
-70.0200500 -62.8851700 122.4033432
-106.0825043 -63.0289955 126.8266678
-107.2255096 -63.0784683 126.5215225
-108.3656769 -63.1276550 126.1954880
-109.5419006 -63.1853790 125.8285294
-127.7722168 -64.5302353 115.2019348
-129.0875702 -64.6753769 113.9511108
-47.1269150 -63.8816376 97.3682709
-48.1140976 -63.6838608 99.5488358
-49.1292267 -63.5013390 101.5786591
-66.8382263 -61.9268799 120.6105957
-67.8897247 -61.8834152 121.2454224
-68.9481354 -61.8398361 121.8511810
-70.0191040 -61.8010445 122.4278793
-109.5354233 -62.0972252 125.8578339
-127.7633438 -63.4198723 115.2875061
-129.0685272 -63.5601959 114.0562134
-46.0855713 -62.9953117 94.8548355
-47.1304283 -62.7582779 97.4563293
-48.1090546 -62.5645027 99.6427307
-49.1263390 -62.3863831 101.6573639
-66.8360977 -60.8452492 120.6001129
-67.8952026 -60.7999954 121.2458115
-109.5384750 -61.0138245 125.8623734
-127.7478561 -62.3121758 115.3463058
-129.0745544 -62.4535370 114.0968781
-130.3950195 -62.6016998 112.7721939
-131.7825623 -62.7688255 111.2697906
-64.7275085 -59.8648415 119.1725006
-65.7974854 -59.8115044 119.9025650
-66.8496323 -59.7630310 120.5845032
-67.8955994 -59.7201958 121.2195816
-109.5329819 -59.9311371 125.8498383
-117.7862091 -60.3920670 122.3477325
-130.3877563 -61.4926682 112.7976685
-131.7532654 -61.6551208 111.3057175
-133.1576233 -61.8357315 109.6400452
-64.7480774 -58.7813377 119.1433868
-65.8056717 -58.7312737 119.8621826
-68.9632721 -58.6002998 121.7890244
-106.0880890 -58.7066345 126.7929382
-107.2286301 -58.7526093 126.4837799
-108.3789978 -58.8007278 126.1640167
-109.5440521 -58.8526993 125.8033066
-117.7955017 -59.3067474 122.3012314
-118.9950333 -59.3860779 121.6489639
-130.3953400 -60.3881340 112.7863617
-131.7553711 -60.5476341 111.2960968
-133.1523285 -60.7247581 109.6335907
-64.7532425 -57.7038231 119.0665283
-65.8023834 -57.6548157 119.7764053
-107.2433243 -57.6771584 126.4271622
-127.7591705 -59.0124245 115.2872696
-129.0748291 -59.1445847 114.0666962
-130.3985291 -59.2863464 112.7412643
-131.7682190 -59.4447632 111.2416992
-133.1675568 -59.6195679 109.5718307
-64.7565384 -56.6279259 118.9634094
-65.8199615 -56.5790253 119.6825943
-66.8636169 -56.5342484 120.3520737
-67.9255524 -56.4916496 121.0006104
-107.2625275 -56.6046753 126.3214417
-127.7707367 -57.9192352 115.1935730
-129.0897217 -58.0497169 113.9692383
-130.4209442 -58.1894608 112.6441345
-131.7737427 -58.3434334 111.1654892
-46.1044388 -57.4299088 94.5937576
-47.1552658 -57.2164612 97.1796646
-66.8793182 -55.4616699 120.2322388
-67.9350662 -55.4193001 120.8806915
-103.8370972 -55.4103966 127.0096817
-104.9874344 -55.4485779 126.7733002
-106.1238556 -55.4891930 126.5038376
-107.2704697 -55.5332527 126.2014847
-127.8010941 -56.8304062 115.0501709
-129.1058807 -56.9578896 113.8349915
-47.1569786 -56.1219101 96.9541550
-66.8959656 -54.3914795 120.0808868
-67.9474487 -54.3500900 120.7279816
-103.8621445 -54.3424683 126.8616867
-107.2931595 -54.4632034 126.0631485
-127.8288574 -55.7435799 114.8802338
-129.1227570 -55.8687706 113.6695404
-130.4704895 -56.0037918 112.3397980
-47.1792793 -55.0351944 96.6518402
-66.9112625 -53.3225250 119.9002304
-67.9635010 -53.2823334 120.5478821
-69.0218353 -53.2448349 121.1628952
-70.0836334 -53.2108269 121.7374268
-103.8799667 -53.2765732 126.7015533
-107.3029480 -53.3951492 125.9009171
-127.8581696 -54.6590004 114.6797256
-129.1622314 -54.7837486 113.4521637
-130.4942322 -54.9162979 112.1259155
-47.1953812 -53.9525185 96.2651978
-66.9247055 -52.2555656 119.7036591
-67.9944611 -52.2160683 120.3640900
-69.0349884 -52.1790085 120.9636536
-70.1017303 -52.1460762 121.5416870
-105.0520935 -52.2476311 126.2753754
-106.1833496 -52.2875137 126.0086365
-107.3346710 -52.3295441 125.7019272
-127.8881836 -53.5771942 114.4426270
-129.2094879 -53.7015266 113.1900711
-130.5349426 -53.8335495 111.8523865
-47.2315826 -52.8704224 95.8943863
-69.0637436 -51.1148338 120.7521286
-70.1258926 -51.0808792 121.3256531
-105.0745621 -51.1840897 126.0700378
-127.9305878 -52.4983139 114.1576004
-129.2462921 -52.6217995 112.9022675
-47.2459564 -51.7917786 95.4269180
-69.0875320 -50.0531349 120.5020828
-70.1453552 -50.0191040 121.0707169
-71.2189941 -49.9944992 121.6075211
-105.1133881 -50.1209068 125.8270340
-127.9825897 -51.4219437 113.8291168
-129.3000488 -51.5444145 112.5614395
-47.2740593 -50.7153702 94.9184494
-71.2358170 -48.9314156 121.3368530
-72.2976227 -48.9047546 121.8586884
-102.8728485 -48.9944687 126.0115967
-103.9909897 -49.0282669 125.8029022
-105.1434708 -49.0625839 125.5565491
-128.0373535 -50.3496857 113.4645081
-129.3655853 -50.4706688 112.1765976
-130.7016754 -50.5952873 110.8162689
-47.3139229 -49.6462669 94.3227081
-71.2646637 -47.8713264 121.0526428
-72.3268051 -47.8445778 121.5797348
-73.3920670 -47.8181725 122.0756836
-74.4511795 -47.7964554 122.5495834
-75.5228882 -47.7752151 123.0010529
-99.5287247 -47.8474236 126.2304382
-102.9185486 -47.9328308 125.7173843
-104.0386200 -47.9670296 125.5074615
-105.1904373 -48.0016899 125.2572021
-128.0952148 -49.2766151 113.0659332
-129.4296875 -49.3964119 111.7649536
-47.3744316 -48.5832367 93.6738510
-48.3569756 -48.4060097 96.1439285
-49.3465462 -48.2467651 98.3327103
-73.4163055 -46.7613602 121.7478027
-97.3194580 -46.7494011 126.1235352
-98.4454803 -46.7703819 126.0258865
-99.5582275 -46.7959824 125.9081726
-100.6971359 -46.8192139 125.7623367
-101.8142319 -46.8483429 125.5994720
-102.9465485 -46.8800507 125.4121475
-106.3614578 -46.9842453 124.6645126
-107.5135651 -47.0212173 124.3550110
-110.9889984 -47.1534042 123.2412720
-112.1558228 -47.2057953 122.8009644
-128.1576538 -48.2078514 112.6275787
-129.4978790 -48.3269882 111.3030548
-48.3999443 -47.3439064 95.4477692
-49.4016991 -47.1824417 97.7367477
-73.4545441 -45.7062454 121.4167633
-82.0253754 -45.5898781 124.4131927
-83.1148682 -45.5887833 124.6966629
-86.3489761 -45.5746918 125.3128891
-98.4879761 -45.7135239 125.6863480
-99.5994339 -45.7414246 125.5755615
-100.7361679 -45.7651100 125.4340973
-101.8545685 -45.7932014 125.2699738
-103.0054092 -45.8205948 125.0685806
-106.4096756 -45.9242401 124.3145142
-107.5726624 -45.9609985 123.9964828
-111.0339966 -46.0948296 122.8877335
-112.2072906 -46.1444321 122.4366837
-128.2416229 -47.1397247 112.1272278
-129.5763245 -47.2568665 110.7969818
-47.4181099 -46.4536362 92.0342255
-48.4388809 -46.2847710 94.6737213
-49.4477119 -46.1215096 97.0478210
-73.4995422 -44.6544151 121.0537415
-74.5550842 -44.6308517 121.5138779
-75.6212845 -44.6105347 121.9542160
-76.6945572 -44.5966949 122.3815155
-77.7671127 -44.5784798 122.7748489
-78.8381958 -44.5663452 123.1355896
-79.9126587 -44.5572548 123.4691010
-80.9890747 -44.5474205 123.7721252
-82.0702362 -44.5414505 124.0598450
-83.1538849 -44.5308304 124.3198547
-84.2296524 -44.5318069 124.5459900
-85.3184204 -44.5290298 124.7533035
-86.4015503 -44.5329590 124.9369659
-87.4992065 -44.5362968 125.0923004
-88.5820160 -44.5368767 125.2260971
-89.6830139 -44.5436478 125.3440857
-90.7763290 -44.5467720 125.4387436
-91.8752213 -44.5610275 125.5034714
-92.9788589 -44.5715904 125.5346222
-98.5182800 -44.6581688 125.3377838
-106.4489746 -44.8723259 123.9463882
-107.6123962 -44.9072952 123.6248627
-108.7630081 -44.9481392 123.2827759
-109.9221344 -44.9912262 122.9064865
-111.0927811 -45.0380249 122.4907608
-112.2624207 -45.0872879 122.0422211
-128.3124542 -46.0759621 111.6012650
-48.4865265 -45.2281494 93.8127747
-49.4934998 -45.0643463 96.2743378
-73.5257263 -43.5973549 120.6375732
-74.5861664 -43.5775719 121.1102295
-75.6570435 -43.5560799 121.5600967
-76.7210312 -43.5417862 121.9846268
-77.8074951 -43.5275650 122.3840637
-78.8706589 -43.5118103 122.7408905
-79.9495239 -43.5027771 123.0802078
-81.0241394 -43.4902878 123.3889771
-82.1059875 -43.4893913 123.6790848
-83.1972351 -43.4853821 123.9395294
-84.2671814 -43.4804840 124.1670074
-85.3595123 -43.4799652 124.3780594
-86.4360123 -43.4790688 124.5618591
-87.5380707 -43.4834290 124.7175598
-88.6205139 -43.4902916 124.8464661
-89.7167664 -43.4923935 124.9594040
-90.8107605 -43.5024376 125.0525513
-91.9204254 -43.5079155 125.1123886
-93.0186920 -43.5210495 125.1459808
-94.1127548 -43.5341263 125.1552353
-95.2338257 -43.5508652 125.1385651
-96.3386993 -43.5675354 125.1023026
-97.4560699 -43.5859222 125.0461426
-98.5606918 -43.6096382 124.9603653
-106.5014572 -43.8131065 123.5472946
-107.6701126 -43.8513565 123.2205048
-108.8137894 -43.8932800 122.8737717
-109.9771881 -43.9350777 122.4865265
-111.1512299 -43.9804840 122.0652466
-112.3236694 -44.0293961 121.6155548
-128.4093933 -45.0132332 111.0036316
-49.5392303 -44.0105705 95.4190979
-50.5407104 -43.8672409 97.6191864
-51.5627289 -43.7371597 99.6142273
-125.8754807 -43.7406654 112.8429642
-127.2044144 -43.8417053 111.6299438
-128.5054169 -43.9508133 110.3637619
-49.5933914 -42.9566193 94.5047379
-50.5995560 -42.8142548 96.7733459
-51.6204758 -42.6831055 98.8266678
-125.9725189 -42.6821899 112.2038345
-127.2871323 -42.7840576 110.9813690
-128.6051636 -42.8924179 109.6753540
-50.6340599 -41.7516518 95.8708649
-51.6622009 -41.6271286 97.9495392
-126.0697479 -41.6249619 111.5166245
-127.3914490 -41.7260132 110.2587891
-50.6686821 -40.7059402 94.9771271
-51.7281036 -40.5771027 97.0529099
-126.1819763 -40.5719833 110.7643585
-127.5120697 -40.6781044 109.4635468
-50.7666321 -39.6522865 93.7258453
-51.8062515 -39.5356064 96.0344696
-126.2968597 -39.5189285 109.9601440
-127.6625671 -39.6197815 108.5706329
-51.8738594 -38.4937744 94.8722229
-126.4314880 -38.4664230 109.0932541
-51.9680138 -37.4580498 93.6540985
-52.9521027 -37.3282661 95.8405914
-53.9442787 -37.2106209 97.8004227
-123.9637375 -37.2305069 110.6079178
-125.2634735 -37.3201256 109.4384155
-126.5696259 -37.4174461 108.1559448
62.1864777 -46.7373390 -97.2322845
60.7612228 -46.7283974 -96.8123398
59.3855743 -46.7304039 -96.5574722
57.9842606 -46.7137527 -96.4269333
56.5950623 -46.6755066 -96.4707184
55.2126579 -46.7393608 -96.6395874
53.8415146 -46.8078461 -96.9138870
52.4840317 -46.8466530 -97.3704987
-52.0310745 -36.4085045 92.2721405
-53.0257263 -36.2927437 94.5440140
-54.0347672 -36.1740723 96.6714783
-124.0929565 -36.1819191 109.6925964
-125.4227142 -36.2702713 108.4489670
67.6262665 -45.1350479 -95.4720840
66.1858063 -45.0996170 -94.5510178
64.7854004 -45.0911942 -93.9081497
63.3627396 -45.0682678 -93.3489304
61.9616508 -45.0526962 -92.9147949
60.5571899 -45.0629234 -92.6429596
53.6632652 -45.1344795 -92.7814484
52.3021202 -45.1676636 -93.1497726
50.9271927 -45.2221642 -93.6555023
49.5762825 -45.2716408 -94.2419128
48.2263947 -45.3509064 -94.9609833
-53.1202240 -35.2546425 93.1843033
-54.1266098 -35.1389923 95.4175262
-89.1434326 -34.0471077 120.1905823
-90.2389374 -34.0531464 120.3028412
-91.3449097 -34.0609093 120.3808441
-92.4575806 -34.0656471 120.4238968
-93.5691681 -34.0816116 120.4532471
-94.6693878 -34.0949478 120.4550323
-124.2336273 -35.1334953 108.7026291
-125.5528717 -35.2258148 107.4247284
73.2139130 -43.7928314 -96.0687103
71.7449493 -43.7017746 -94.6209717
70.2789230 -43.6259995 -93.4169617
68.8485794 -43.5967903 -92.4744797
67.4159622 -43.5643272 -91.6334686
65.9983139 -43.5415726 -90.9474030
64.5885315 -43.5260925 -90.3876419
63.1773148 -43.5102158 -89.9253311
61.7919312 -43.5113258 -89.6082077
60.3881264 -43.5187187 -89.3850555
53.5084801 -43.6076431 -89.5879517
52.1500664 -43.6387062 -89.9053040
50.7843895 -43.6669350 -90.2941513
49.4325180 -43.7023430 -90.7830200
48.0708466 -43.7581673 -91.4113770
46.7259445 -43.8348007 -92.1401978
45.3683777 -43.8771553 -93.0017014
44.0269737 -43.9474564 -94.0175400
42.6797867 -44.0512695 -95.2606583
-54.2214661 -34.1071091 94.0164490
-89.2087021 -32.9981995 119.5068512
-90.3171005 -33.0061302 119.6196136
-91.4238510 -33.0166626 119.6961441
-92.5250320 -33.0226822 119.7419815
-93.6391296 -33.0368652 119.7739639
-94.7554321 -33.0449257 119.7718201
-124.3886719 -34.0892639 107.6295013
-125.7234497 -34.1801414 106.2834167
74.4506607 -42.2134743 -93.4620361
72.9542999 -42.1536026 -92.1298065
71.5215378 -42.1125107 -91.0081024
42.5639305 -42.4490852 -91.7858582
41.2336769 -42.5183640 -92.8812027
39.8697357 -42.6697388 -94.2177124
-54.3222504 -33.0750999 92.4439240
-55.3275566 -32.9583397 94.7211990
-56.3310165 -32.8551025 96.6968079
-89.2897034 -31.9531479 118.7928314
-90.3955460 -31.9585571 118.9042511
-93.7236481 -31.9848614 119.0581589
-94.8308792 -32.0032616 119.0537338
-119.4183121 -32.7366180 110.8667297
-120.6650009 -32.8033981 109.9292831
-121.9511490 -32.8754807 108.8749466
-123.2421417 -32.9578247 107.7339249
-124.5594025 -33.0435257 106.4685440
77.1714401 -40.8093300 -93.0090256
75.6694336 -40.7315674 -91.4739227
74.2283554 -40.6896400 -90.2199173
72.7694244 -40.6351585 -89.0831375
71.3403778 -40.5917892 -88.1231079
42.4491653 -40.9585266 -88.9797058
41.1100388 -41.0141830 -89.9534836
39.7782516 -41.0831528 -91.0578232
38.4195824 -41.1971626 -92.3592529
-54.4174309 -32.0348854 90.6711197
-55.4373016 -31.9248981 93.1702118
-56.4341583 -31.8206692 95.2576523
-89.3714828 -30.9062252 118.0387421
-90.4779892 -30.9111347 118.1550446
-93.8200684 -30.9373531 118.3000412
-94.9216309 -30.9547596 118.2921219
-119.5570679 -31.6900063 109.8248291
-120.8221588 -31.7575817 108.8344879
-122.1203003 -31.8321304 107.7327118
-123.4283981 -31.9101830 106.5308380
78.4364929 -39.3303146 -91.3824463
76.9581833 -39.2618866 -89.8752365
39.6894455 -39.5775604 -88.4404144
38.3349648 -39.6569023 -89.6126480
36.9897995 -39.7629204 -90.8864136
-56.5421295 -30.7892609 93.6831131
-57.5507431 -30.6967678 95.6553040
-58.5505981 -30.6065445 97.4261475
-91.6814880 -29.8702278 117.4337769
-92.7838745 -29.8820038 117.4850388
-93.8996353 -29.8956928 117.5042191
-95.0171661 -29.9009972 117.4836960
-119.7263031 -30.6433029 108.6860962
-120.9878845 -30.7151623 107.6640472
81.2263412 -37.9667702 -91.7360001
79.7191315 -37.8915863 -90.0655823
78.2484741 -37.8353615 -88.6098862
76.7938843 -37.7797127 -87.3313065
39.6056137 -38.1059914 -86.1981201
38.2587471 -38.1661263 -87.2295914
36.9324455 -38.2378387 -88.3848267
35.5875092 -38.3120003 -89.6893005
34.2654457 -38.3975525 -91.1044006
-57.6658173 -29.6660271 94.0095749
-58.6515846 -29.5677643 95.8862152
-91.7715607 -28.8321991 116.5882721
-92.8797913 -28.8355865 116.6355743
-94.0004425 -28.8500004 116.6549759
-95.1102829 -28.8595657 116.6352081
-119.9004745 -29.6015759 107.4627762
-121.1695175 -29.6755257 106.3904419
82.5120621 -36.5281792 -90.7164154
81.0138474 -36.4556389 -88.9910431
79.5467529 -36.3936653 -87.5211334
34.1845512 -36.9098587 -88.7007675
32.8289948 -37.0224838 -90.1958160
-57.7803230 -28.6359329 92.2007523
-58.7711525 -28.5494080 94.2296753
-59.7971878 -28.4600487 96.1170197
-60.8113937 -28.3783207 97.7524490
-120.0898972 -28.5506287 106.1324997
-121.3717499 -28.6335316 104.9925690
85.3769913 -35.2130356 -91.9798584
83.8348846 -35.1083527 -89.9341431
82.3304062 -35.0435829 -88.1835556
80.8523560 -34.9881821 -86.6835098
79.3761292 -34.9335289 -85.3636780
34.1156998 -35.4493942 -86.6001892
32.7699318 -35.5252800 -87.9353256
-58.9011765 -27.5132389 92.3637466
-59.9206161 -27.4336929 94.3696365
-60.9387856 -27.3504944 96.1738510
-120.2801666 -27.5243225 104.7277222
-121.5904083 -27.5946999 103.4750061
85.1671143 -33.7109451 -89.3705292
36.7342758 -33.8788452 -82.6216583
35.3863297 -33.9434204 -83.6486206
34.0637169 -33.9943581 -84.7319489
32.7222977 -34.0649986 -85.9748840
-60.0502548 -26.4015846 92.4495850
-61.0670776 -26.3271866 94.4002991
-62.0838547 -26.2467308 96.1242371
-63.0883408 -26.1762676 97.6384888
-117.9225311 -26.3438721 105.4296036
-119.1948624 -26.4128189 104.3602753
-120.5103760 -26.4834404 103.1393967
86.5205536 -32.3253632 -89.0232086
84.9852905 -32.2492599 -87.1486816
36.6853638 -32.4439697 -81.0891724
35.3408127 -32.4985886 -82.0436554
34.0013008 -32.5661659 -83.0871506
32.6591034 -32.6316147 -84.2588043
-61.2091484 -25.2916393 92.4441452
-62.2289200 -25.2220058 94.2881470
-63.2212906 -25.1474533 95.9190979
-118.1338654 -25.3103485 103.8735962
-119.4068604 -25.3822021 102.7271729
89.4342499 -31.0320034 -91.0534592
87.8849487 -30.9495831 -88.8533478
86.3636932 -30.8789444 -86.9417191
84.8499146 -30.8213921 -85.2746048
39.3114815 -30.9235821 -78.1006393
37.9552307 -30.9772377 -78.8748169
36.6365356 -31.0211792 -79.6935349
35.2776871 -31.0859413 -80.6274796
-62.3912430 -24.2036076 92.2173386
-63.3749657 -24.1254768 94.0006561
-113.3108826 -24.0445061 106.0574875
-114.5476227 -24.0963364 105.2381210
-115.8043442 -24.1504822 104.3228836
-117.0651245 -24.2116127 103.3068848
-118.3841248 -24.2708778 102.1266861
-119.6929474 -24.3299370 100.8686981
90.8367004 -29.6732426 -91.2022934
89.2487411 -29.5685730 -88.8273010
87.7040100 -29.4878273 -86.7853622
86.2201538 -29.4362602 -85.1058807
84.7261353 -29.3921280 -83.5911407
39.2681656 -29.5167160 -76.8914337
37.9100914 -29.5709801 -77.6406326
36.5990410 -29.6117325 -78.4173889
35.2441368 -29.6661720 -79.3022614
-62.5431709 -23.1558380 89.7777786
-63.5497437 -23.1097736 91.8210678
-113.5210876 -23.0037384 104.4878998
-114.7640228 -23.0576935 103.6072693
-116.0444031 -23.1144180 102.6022797
-117.3168259 -23.1720810 101.5082092
90.6313019 -28.2052422 -89.0160828
41.8958359 -28.0490150 -74.5642014
40.5587234 -28.0865364 -75.1443176
39.2214737 -28.1249352 -75.7908173
37.8802147 -28.1637421 -76.4853592
-63.7144051 -22.0640965 89.2401886
-64.7347870 -22.0229149 91.3080139
-65.7538147 -21.9518814 93.1355896
-66.7611694 -21.8876114 94.7187042
-67.7829285 -21.8248863 96.1346054
-111.2447357 -21.8748875 104.4360504
-112.4832611 -21.9204903 103.6557846
-113.7425995 -21.9668846 102.7758102
-115.0065155 -22.0180244 101.8016281
92.0350800 -26.8512516 -89.4045334
90.4876480 -26.7772102 -87.1752472
41.8690948 -26.6582260 -73.5458221
40.5226631 -26.6977158 -74.1281128
39.1777802 -26.7446327 -74.7620544
-65.9438553 -20.9293098 90.6733246
-66.9461975 -20.8676605 92.4286118
-67.9579468 -20.8034286 94.0155334
-111.4765625 -20.8336449 102.6688690
-112.7294006 -20.8801155 101.8127747
91.8859863 -25.4216461 -87.5985031
90.3440170 -25.3547630 -85.5295563
41.8361664 -25.2706223 -72.6239166
40.4871712 -25.3141346 -73.1944275
-67.1533432 -19.8426476 89.8083038
-68.1610336 -19.7886047 91.5857239
-69.1662750 -19.7374001 93.1799774
-70.1997528 -19.6816044 94.5820923
-109.2446594 -19.7148056 102.3188782
-110.4934921 -19.7550869 101.5490189
-111.7450714 -19.8006153 100.6962891
-112.9982071 -19.8510761 99.7460175
93.3220749 -24.0779076 -88.2309418
91.7568588 -24.0076275 -86.0180969
90.2157516 -23.9476643 -84.0862045
41.7839127 -23.9116707 -71.8066559
40.4587097 -23.9241600 -72.3570480
-69.3722687 -18.6997662 90.5446396
-70.4120712 -18.6690521 92.1347885
-109.4976654 -18.6846180 100.3115082
-110.7629776 -18.7228031 99.4351959
-112.0146255 -18.7668190 98.4980698
94.7767792 -22.7522335 -89.0530472
93.1818542 -22.6654816 -86.6731873
41.7516632 -22.5351124 -71.0244370
-70.6408844 -17.6309299 89.2124786
-71.6690140 -17.5987663 90.8598557
-72.6921082 -17.5580292 92.3339233
-73.7097092 -17.5066071 93.6149368
-74.7523270 -17.4665527 94.7536545
-104.9037933 -17.4979095 100.7591324
-106.1287231 -17.5249691 100.1699066
-107.3297424 -17.5669727 99.5531540
-108.5599976 -17.6092930 98.8257294
-109.7938080 -17.6537533 97.9992065
94.6069031 -21.3222847 -87.4953766
93.0636902 -21.2655983 -85.3147278
41.7315979 -21.1622543 -70.2827606
-72.9314423 -16.5264969 89.3449860
-73.9533691 -16.5017242 90.8631897
-74.9900055 -16.4629612 92.1709442
-105.1815186 -16.4654770 98.5330048
-106.3953705 -16.5031967 97.8894730
-107.6209183 -16.5380688 97.1579208
96.0994492 -20.0025692 -88.6482925
94.5024719 -19.9312820 -86.1952133
92.9665070 -19.8788471 -84.1398926
44.3556709 -19.7577477 -68.7394943
43.0242043 -19.7815704 -69.1531677
41.6949997 -19.8035488 -69.5992355
-75.2492676 -15.4182606 88.9781342
-76.3010559 -15.4075365 90.4030304
-77.3348007 -15.3709087 91.5786819
-78.3886185 -15.3391705 92.6709290
-79.4298401 -15.3088417 93.6293030
-100.6722717 -15.3234110 98.0296631
-101.8493958 -15.3502665 97.6478958
-103.0609970 -15.3721552 97.1552887
-104.2725372 -15.4053841 96.6140747
-105.4902344 -15.4336033 95.9693604
-106.7360840 -15.4478226 95.2038727
97.5995331 -18.6857872 -89.9457169
95.9545288 -18.5963020 -87.2764587
94.3930588 -18.5397282 -85.0165176
92.8779144 -18.4953270 -83.0831070
44.3307343 -18.3955688 -68.1305237
43.0075722 -18.4177284 -68.5310593
41.6693497 -18.4483471 -68.9749603
-77.6228867 -14.3113384 88.1803207
-78.6651230 -14.3007622 89.4867249
-79.7105713 -14.2999086 90.5892258
-100.9945831 -14.2990828 95.3739929
-102.1827393 -14.3259411 94.9039154
-103.4019318 -14.3532104 94.3269043
95.8676376 -17.2115841 -86.1444702
44.2941666 -17.0443249 -67.5735016
42.9656067 -17.0682526 -67.9776764
-80.0561523 -13.2470274 86.7325592
-81.1022568 -13.2273388 87.9613647
-82.1620941 -13.2376852 88.9932938
-83.2287903 -13.2220945 89.8911591
-84.3098221 -13.2096014 90.7189865
-85.3804474 -13.1889038 91.4137573
-86.4690704 -13.1722431 91.9850922
-87.5672150 -13.1632309 92.4717560
-88.6692886 -13.1578045 92.8887787
-89.7749863 -13.1503668 93.2065735
-90.8994598 -13.1530313 93.4715500
-92.0213242 -13.1521187 93.6305618
-93.1610413 -13.1583767 93.7199097
-94.2961502 -13.1724138 93.7594223
-95.4492798 -13.1882753 93.7180176
-96.6209946 -13.2003193 93.5748291
-97.7741852 -13.2194052 93.3772278
-98.9683990 -13.2300978 93.0698547
-100.1534958 -13.2361965 92.6870728
-101.3593674 -13.2367401 92.1983109
97.3282318 -15.8831444 -87.4389496
95.7775345 -15.8297272 -85.1229019
44.2726707 -15.6966305 -67.0619507
42.9520836 -15.7096443 -67.4544830
-84.6856384 -12.1705303 86.6371765
-87.9262772 -12.1461544 88.8215866
-89.0298386 -12.1602859 89.3279724
-90.1370392 -12.1504745 89.7032623
-91.2724686 -12.1431141 89.9683075
-92.3941803 -12.1534157 90.1802979
-93.5309906 -12.1585979 90.2707062
-94.6886368 -12.1591263 90.2611542
-95.8374557 -12.1398945 90.1801300
-97.0107956 -12.1342812 89.9881363
97.2375259 -14.4967108 -86.4235001
95.6914520 -14.4518108 -84.2027893
44.2425613 -14.3545952 -66.5910873
42.9309807 -14.3658113 -66.9803238
97.1595230 -13.1244879 -85.5375366
95.6271973 -13.0849161 -83.4160004
44.2289658 -12.9982967 -66.1629715
42.9110336 -13.0189342 -66.5578079
98.6882477 -11.8046522 -87.2297211
97.0929337 -11.7551212 -84.7705078
95.5505219 -11.7161179 -82.7007751
44.2106209 -11.6633759 -65.7949066
42.8871346 -11.6771593 -66.1873016
100.2365494 -10.4880123 -89.2043915
98.6029053 -10.4311972 -86.4316711
97.0249176 -10.3891468 -84.0817719
95.4862900 -10.3523226 -82.0701599
44.1981888 -10.3171597 -65.4500122
42.8631248 -10.3396454 -65.8509674
41.5389481 -10.3543005 -66.2610474
100.1553497 -9.1129780 -88.4395981
98.5458984 -9.0656319 -85.7711945
41.5139961 -9.0166512 -65.9655304
101.7895508 -7.8045616 -90.8737488
100.0835190 -7.7429733 -87.7834549
98.5133667 -7.7052717 -85.2490082
41.5098839 -7.6747274 -65.6991501
40.1666527 -7.6975470 -66.1402283
100.0336304 -6.3798504 -87.2563324
98.4543991 -6.3445106 -84.7683716
52.1538887 -6.2260427 -63.2130013
50.8353539 -6.2330952 -63.3532944
49.4814110 -6.2544718 -63.5356369
48.1658516 -6.2628508 -63.7537079
46.8178787 -6.2779465 -64.0341797
45.4890747 -6.2939377 -64.3419800
41.4903526 -6.3413954 -65.4784470
40.1561852 -6.3570256 -65.9265747
101.6283951 -5.0599222 -89.7219238
99.9897614 -5.0175934 -86.8229065
98.4171906 -4.9875755 -84.3982391
52.1431732 -4.9023323 -63.0371323
50.8171463 -4.9073610 -63.1705132
49.4721985 -4.9182453 -63.3493347
48.1463470 -4.9315357 -63.5794945
46.8037643 -4.9453306 -63.8590393
45.4868011 -4.9587750 -64.1511230
41.4724350 -5.0041537 -65.2927780
40.1447372 -5.0189838 -65.7394943
38.8209419 -5.0384684 -66.2188873
101.6167145 -3.6997344 -89.3688965
65.6019592 -3.4941995 -63.3758316
64.2377701 -3.4971335 -63.1607170
62.9075089 -3.5070639 -62.9968834
61.5385361 -3.5117669 -62.8521919
60.1793594 -3.5156269 -62.7369156
58.8278732 -3.5200908 -62.6606979
52.1389961 -3.5666013 -62.8842621
50.8033142 -3.5807550 -63.0364838
46.7906456 -3.6134667 -63.6995850
45.4669342 -3.6266923 -64.0015869
38.8042297 -3.7013645 -66.0803833
37.4665642 -3.7181325 -66.6122818
101.5951080 -2.3392553 -89.0530548
65.5844650 -2.1662722 -63.2599869
64.2175598 -2.1715896 -63.0514679
60.1515770 -2.1961439 -62.6719360
58.8361397 -2.1977987 -62.5883484
52.1297989 -2.2378628 -62.7735023
50.7789726 -2.2503331 -62.9521027
45.4580307 -2.2956588 -63.9002991
38.8039513 -2.3651969 -65.9604874
37.4661674 -2.3805852 -66.4998474
36.1368256 -2.3982389 -67.0780106
101.5433731 -0.9789565 -88.7777557
68.3090439 -0.8343507 -63.7476387
66.9435272 -0.8366003 -63.4453812
65.5806122 -0.8418276 -63.1851311
64.2189407 -0.8461649 -62.9850159
58.8146667 -0.8699307 -62.5196152
57.4877243 -0.8782573 -62.4721565
56.1329079 -0.8852403 -62.4626617
54.7934494 -0.8932750 -62.4921532
53.4624023 -0.9017669 -62.5732422
52.1028404 -0.9124469 -62.7196388
50.7676315 -0.9229460 -62.8977432
49.4235229 -0.9329298 -63.0764923
45.4432755 -0.9654124 -63.8305511
36.1296463 -1.0606635 -67.0101318
34.7881088 -1.0775352 -67.6491165
101.5396729 0.3776175 -88.6824341
68.2840652 0.4921619 -63.7009201
66.9218750 0.4887581 -63.3950768
60.1615143 0.4610245 -62.5351410
54.7805824 0.4321232 -62.4748306
53.4592056 0.4237604 -62.5626106
52.1059227 0.4144951 -62.6906319
50.7768707 0.4069661 -62.8412933
49.4311180 0.3959134 -63.0135345
45.4486313 0.3649697 -63.7797852
36.1264839 0.2757235 -66.9642487
34.7916107 0.2606675 -67.5991440
33.4890976 0.2518061 -68.2818527
13.3757877 -0.0944981 -87.3926620
12.0064592 -0.1313507 -89.8242340
101.5350418 1.7335008 -88.6759949
73.7725220 1.8305537 -65.2627563
72.4059753 1.8281541 -64.7942963
71.0166626 1.8250591 -64.3720398
69.6569138 1.8216012 -64.0211868
68.2811584 1.8175943 -63.6974411
66.9225769 1.8134812 -63.3909149
62.8604584 1.7986975 -62.7556458
61.5009804 1.7922449 -62.6245804
60.1651421 1.7861867 -62.5191917
53.4314880 1.7496074 -62.5738487
52.1050987 1.7400544 -62.6753540
50.7744217 1.7320230 -62.8091545
49.4064789 1.7235892 -63.0221558
48.0867462 1.7136556 -63.2436104
33.4606628 1.5830801 -68.2595673
32.1210861 1.5681857 -68.9919739
30.7977295 1.5529252 -69.7557983
16.0622997 1.3325353 -83.2532501
14.7343416 1.3052965 -85.1776581
13.3794022 1.2749057 -87.3785400
12.0084457 1.2421427 -89.8333435
101.5681000 3.0891526 -88.8093872
73.7639542 3.1568484 -65.2872467
69.6556854 3.1465483 -64.0550613
68.2772675 3.1413822 -63.7332611
66.9132996 3.1377447 -63.4230270
65.5604858 3.1335328 -63.1534958
64.1986847 3.1282997 -62.9569778
62.8520889 3.1225843 -62.8025055
61.4992943 3.1168051 -62.6665573
60.1478119 3.1098232 -62.5551491
58.8053665 3.1030729 -62.5374985
53.4308968 3.0749667 -62.6026154
52.0816727 3.0698848 -62.7308121
50.7678223 3.0597911 -62.8650360
49.4070854 3.0504563 -63.0527306
48.0993195 3.0425367 -63.2611656
33.4562492 2.9203062 -68.2950363
32.1236801 2.9065979 -69.0262375
30.7853413 2.8930879 -69.8072510
29.4511337 2.8791716 -70.6225662
28.1182747 2.8634517 -71.4968262
26.7953415 2.8481705 -72.4635086
25.4402142 2.8319340 -73.5218048
24.1326332 2.8149383 -74.5952148
22.7892742 2.7969251 -75.7909698
21.4732628 2.7802882 -77.0809021
20.1373558 2.7808812 -78.4540405
18.7775154 2.7399042 -79.9056854
17.4220219 2.7176418 -81.5267792
16.0608730 2.6947901 -83.3037872
14.7337933 2.6702929 -85.2112808
13.3688774 2.6432009 -87.4396667
12.0120773 2.6151404 -89.8781586
101.5250702 4.4423895 -88.8726501
73.7567825 4.4820929 -65.3516998
69.6573181 4.4716840 -64.1234055
60.1491089 4.4335661 -62.6218376
58.7951889 4.4292703 -62.5627251
57.4685173 4.4230590 -62.5338020
56.1152077 4.4166260 -62.5454330
54.7771454 4.4074593 -62.5829773
53.4427032 4.4008508 -62.6631889
52.0855484 4.3942323 -62.7808456
50.7654915 4.3861394 -62.8974419
48.0856247 4.3560605 -63.2887573
46.7436180 4.3608875 -63.5910645
45.4402618 4.3490615 -63.8875885
44.0776978 4.3432360 -64.2163010
42.7612991 4.3327398 -64.5839844
41.4331169 4.3230271 -64.9970169
40.1033058 4.3120141 -65.4437790
14.7334375 4.0350313 -85.3235321
13.3646202 4.0120554 -87.5534058
101.5540009 5.7973638 -89.1859283
73.7654190 5.8084927 -65.4713211
72.3996124 5.8047051 -65.0132217
71.0146179 5.7998376 -64.5865479
69.6436920 5.7937603 -64.2130890
60.1487541 5.7582254 -62.7060318
58.7899246 5.7541447 -62.6481705
57.4602623 5.7474113 -62.6359978
56.1051674 5.7402372 -62.6485138
54.7746124 5.7334366 -62.6806793
53.4366684 5.7249045 -62.7516594
52.1034050 5.7210269 -62.8563080
46.7411575 5.6896434 -63.7121277
45.4185181 5.6769309 -63.9885483
41.4280090 5.6548505 -65.1084061
40.0922928 5.6453838 -65.5604095
14.7364883 5.3991537 -85.4991379
13.3662949 5.3811488 -87.7136917
101.5730438 7.1521215 -89.5088120
99.9152603 7.1549201 -86.6531830
98.3471909 7.1613050 -84.2553101
54.7738113 7.0590792 -62.8158798
53.4361191 7.0527554 -62.8935204
52.0986176 7.0436530 -63.0065155
46.7506142 7.0142126 -63.8411255
41.4249001 6.9862161 -65.2497711
40.0896072 6.9775057 -65.7100830
14.7288113 6.7641840 -85.7623520
13.3456955 6.7504511 -88.0061798
99.9644241 8.5071650 -87.0666656
98.3704529 8.5092955 -84.5930405
54.7773247 8.3842983 -62.9937897
53.4384232 8.3778534 -63.0837593
52.0863953 8.3726864 -63.2097778
50.7496338 8.3659058 -63.3744125
49.4039917 8.3604641 -63.5624847
48.0956764 8.3508053 -63.7615051
46.7399025 8.3489351 -64.0247955
41.4300690 8.3168106 -65.4258728
40.0922318 8.3080053 -65.8883514
14.7314205 8.1289234 -86.0803223
13.3614616 8.1171551 -88.3430710
99.9828796 9.8565502 -87.5133820
98.3926010 9.8584499 -84.9975739
65.5581512 9.7539425 -63.8230019
64.2167816 9.7534714 -63.6586761
54.7836533 9.7110844 -63.2133446
53.4410095 9.7040787 -63.2958527
48.0965767 9.6790905 -63.9653931
46.7485619 9.6705990 -64.2373886
45.4376602 9.6644993 -64.5233917
44.0843506 9.6635685 -64.8516159
42.7663994 9.6536121 -65.2222290
41.4307404 9.6465969 -65.6501007
40.0995560 9.6424465 -66.1078339
17.4188538 9.5149364 -82.5953827
16.0640888 9.5037994 -84.4594574
14.7509060 9.4864016 -86.4860535
13.3751402 9.4825325 -88.7993851
101.7504883 11.2291775 -91.2165680
100.0256348 11.2118540 -88.0848770
98.4292068 11.2072697 -85.5032196
65.5742950 11.0799036 -64.0911331
64.2364502 11.0794735 -63.9147491
54.7755547 11.0378399 -63.4569550
53.4519958 11.0295792 -63.5184250
48.0941238 11.0101118 -64.2121582
46.7602348 11.0048695 -64.4765549
45.4225616 11.0009956 -64.7688141
44.1060333 10.9884319 -65.0942230
42.7618752 10.9878607 -65.4845276
41.4278526 10.9841328 -65.9175415
40.1090202 10.9753323 -66.3632584
17.4112244 10.8757553 -83.0206451
16.0756721 10.8676434 -84.9256287
100.0859070 12.5673389 -88.7602539
98.4821014 12.5572910 -86.1296082
54.7964325 12.3636446 -63.7146606
53.4613037 12.3585749 -63.7804413
52.1235809 12.3475561 -63.8984871
50.7684364 12.3528461 -64.0715485
49.4266891 12.3449841 -64.2661438
48.1096191 12.3376884 -64.4821091
17.4286709 12.2351408 -83.4617233
16.0645809 12.2317457 -85.4172440
100.1706238 13.9291592 -89.5937424
98.5235901 13.9115000 -86.8189087
54.8071518 13.6863785 -64.0196533
53.4683075 13.6870651 -64.1005020
52.1244812 13.6841974 -64.2292023
50.7970848 13.6770887 -64.3891449
49.4378738 13.6716290 -64.5759125
48.1255951 13.6668854 -64.7878723
17.4058704 13.6049538 -84.0207977
98.5767746 15.2641659 -87.5853729
97.0023041 15.2518425 -85.1604462
95.4813614 15.2419405 -83.1039276
20.1085224 14.9614935 -81.2331467
18.7692223 14.9635153 -82.8529816
17.4177933 14.9685774 -84.6290436
97.0552902 16.6059589 -85.9597168
95.5328674 16.5936317 -83.8460541
20.1062279 16.3265152 -81.8636093
18.7652740 16.3305302 -83.5253754
98.7866592 17.9947281 -89.5729218
97.1370163 17.9632683 -86.9392166
95.5794525 17.9461365 -84.6739349
20.1320610 17.6865845 -82.5279999
18.7618370 17.6981754 -84.2746658
17.4307175 17.7086887 -86.0888062
98.8767090 19.3643875 -90.8170319
97.2340393 19.3260422 -88.0406418
95.6727676 19.3088036 -85.6680527
20.1188354 19.0565796 -83.3303070
18.7763100 19.0684853 -85.0883255
97.3258209 20.6926632 -89.1891861
95.7505722 20.6610775 -86.7199173
20.1381664 20.4264336 -84.1738358
18.8021336 20.4367676 -85.9712753
97.4539948 22.0735245 -90.5400543
95.8580780 22.0310249 -87.9643936
20.1433487 21.8021431 -85.1290894
18.8031921 21.8183804 -87.0062256
95.9975891 23.4165707 -89.3340378
94.3769226 23.3707905 -86.8759460
92.8190536 23.3428707 -84.7551498
22.8375664 23.1415653 -82.7954941
21.5015221 23.1565628 -84.3884735
20.1665230 23.1726036 -86.1640320
18.8169289 23.2014084 -88.1435013
94.4941101 24.7426128 -88.2475967
92.9234314 24.7062702 -86.0303040
22.8380032 24.5206299 -83.8495026
21.5141144 24.5351124 -85.4713593
20.1634464 24.5621128 -87.3507767
94.6352234 26.1304703 -89.8538513
93.0179443 26.0735474 -87.4135132
91.4859009 26.0446358 -85.3325882
89.9735641 26.0183239 -83.5329132
25.5577946 25.8519630 -81.9468536
24.2172623 25.8723488 -83.3889389
22.8613834 25.8962975 -84.9622116
91.5858612 27.4205055 -86.7394714
90.1003952 27.3929329 -84.8977814
25.5627308 27.2295647 -83.0881500
24.2302227 27.2557564 -84.5813828
91.7192078 28.7991791 -88.4058914
90.1968002 28.7663517 -86.3779907
25.5824757 28.6173763 -84.3343201
24.2597389 28.6398640 -85.8761520
91.8908081 30.2181625 -90.2503204
90.3130112 30.1468735 -88.0326233
25.6063042 29.9998970 -85.6891785
24.2777233 30.0334740 -87.3199539
90.4655151 31.5430698 -89.9309692
88.9164886 31.4873772 -87.8142700
87.3989639 31.4654751 -85.9529190
28.3176403 31.3391399 -84.1817322
26.9905567 31.3648396 -85.5981979
25.6265888 31.4002151 -87.2249451
24.3058872 31.4391022 -88.9352722
90.6758499 32.9807129 -92.2168274
89.0756073 32.8911362 -89.8395691
87.5151520 32.8425598 -87.7335510
28.3488503 32.7376556 -85.6792755
27.0139599 32.7682800 -87.2024612
25.6673717 32.8048515 -88.8956528
89.2803726 34.3223267 -92.1315002
87.6683273 34.2410698 -89.8010330
86.1448746 34.1981049 -87.8564606
84.6436005 34.1639786 -86.1695786
31.0647144 34.0710526 -84.5577393
29.7194481 34.1025963 -85.8702393
28.3892155 34.1381454 -87.3093414
27.0540276 34.1829147 -88.9329681
86.3047256 35.6214027 -89.9861298
84.7873993 35.5617981 -88.1683426
31.0902634 35.4813309 -86.2411041
29.7633457 35.5149345 -87.6191864
84.9507065 36.9745903 -90.4144440
83.4640656 36.9277534 -88.6698608
81.9600525 36.8907242 -87.0601196
33.8157120 36.8236389 -85.5001068
32.4708595 36.8573494 -86.7512970
31.1467342 36.8856506 -88.0951691
29.8128796 36.9300156 -89.6333313
83.6322403 38.3509712 -91.0960846
82.1162109 38.3063393 -89.3038940
33.8623085 38.2409630 -87.4007187
32.5207443 38.2743835 -88.7469177
31.1921673 38.3139877 -90.2347336
29.8721371 38.3652802 -91.8935699
82.3141327 39.7568474 -91.9015427
80.7827911 39.6776733 -90.1239319
79.3008957 39.6448212 -88.5915680
36.5998878 39.5954437 -87.0591888
35.2588539 39.6255341 -88.2175522
33.9216194 39.6656647 -89.5128098
32.5773621 39.7225647 -90.9957581
80.9873199 41.1416321 -92.9593811
79.4618988 41.0642281 -91.1899414
36.6615105 41.0271530 -89.2595825
78.1945572 42.4821548 -92.5784149
76.7291641 42.4365616 -91.0812531
75.2399368 42.3990326 -89.7749863
73.7931976 42.3745728 -88.6599045
42.1032639 42.3271255 -87.4688416
40.7573853 42.3678360 -88.3666534
39.4255295 42.4000206 -89.3692703
38.0732880 42.4286804 -90.5181122
36.7352371 42.4706116 -91.8034821
75.4248276 43.8346672 -92.6926575
73.9634705 43.8037643 -91.4142761
42.1808167 43.7834969 -89.9301758
40.8524132 43.8052750 -90.8916168
39.5165024 43.8434181 -92.0226517
38.1606445 43.9113541 -93.3583603
74.1948166 45.3105392 -94.8011246
72.7044601 45.2240906 -93.4133453
71.2729263 45.1912003 -92.2659073
69.8215790 45.1610565 -91.2873077
68.3804398 45.1375160 -90.4799347
66.9695053 45.1287041 -89.7979431
65.5580597 45.1019516 -89.1443634
50.3879318 45.1018448 -88.5942535
49.0237961 45.1222115 -89.0548782
47.6678467 45.1415405 -89.5861664
46.3376923 45.1509018 -90.1686325
44.9727058 45.1814651 -90.9251251
43.6223450 45.2174492 -91.8282013
42.2845612 45.2457123 -92.8204651
40.9390335 45.3100357 -93.9517517
71.5207443 46.7263031 -96.0057068
70.0335236 46.6489944 -94.7397308
65.7245712 46.5726852 -92.1806641
50.4882545 46.5670319 -91.3928528
49.1475182 46.5915680 -91.9225769
47.7862320 46.6104851 -92.5226669
46.4455490 46.6449318 -93.2366257
45.1042252 46.6669197 -94.0979919
43.7456818 46.7163010 -95.1475449
65.9369812 48.0403442 -95.9264984
64.5237350 48.0354538 -95.1918488
63.0959740 48.0193558 -94.6148300
61.6884689 48.0088539 -94.2164001
60.2827187 47.9923897 -93.8934708
58.9093819 47.9978638 -93.7005157
57.5103073 47.9844551 -93.5692825
56.1184616 47.9987946 -93.6216278
54.7459106 48.0077934 -93.7535477
53.3871269 48.0145950 -93.9642563
52.0296211 48.0461044 -94.3236694
50.6513481 48.0616722 -94.8214874
49.2968903 48.0659180 -95.4323425
60.5239868 49.5852242 -98.2315140
59.1460838 49.5805283 -97.9581146
57.7410660 49.5791550 -97.8267975
56.3405991 49.5388603 -97.8416672
54.9596710 49.5069351 -98.0417175
-87.7648849 -109.2510071 93.3407135
-91.0359192 -108.8115692 95.7748260
-93.3750153 -109.1331635 94.7277527
-85.2931366 -108.4286499 94.6465759
-85.8180847 -108.3673401 95.0185013
-86.3572617 -108.3091583 95.3381882
-86.9107971 -108.2335968 95.6407318
-87.4608459 -108.1679230 95.9503708
-90.7641373 -108.1664581 97.0147705
-91.3207855 -108.1787338 97.1297455
-92.4844055 -108.0767746 97.1571960
-93.0921021 -108.0891037 97.1777039
-94.7915573 -108.2340851 97.0310516
-95.3709412 -108.2772675 96.9439545
-95.9791107 -108.3386688 96.7663651
-82.4572906 -107.7646179 94.7191620
-82.9649658 -107.7255783 95.2121277
-82.2305450 -106.8716125 96.8210144
-82.7564011 -106.7804184 97.2337112
-80.4190903 -106.2370148 97.1649857
-101.2898636 -106.1859665 100.0804138
-77.7102890 -105.7259598 96.2640686
-78.2229538 -105.6185760 96.8386002
-79.7561722 -105.4167480 98.3180923
-80.2741165 -105.3604279 98.8194809
-98.7155457 -105.1940231 102.6391754
-99.2992630 -105.2388077 102.4483566
-99.8822861 -105.2840805 102.2276688
-100.4772720 -105.3334808 101.9705353
-101.0914230 -105.3939972 101.6778412
-101.6990433 -105.4442596 101.3813171
-102.3411865 -105.5194397 101.0190277
-102.9774704 -105.6514511 100.5646515
-103.5995026 -105.7622986 100.0864334
-104.1714249 -105.8443527 99.6256561
-75.9922485 -105.1953964 95.9719467
-103.3810730 -104.8166428 101.8568573
-73.3544464 -104.9055557 93.7998657
-73.8416901 -104.7670975 94.6830597
-74.3373718 -104.6375885 95.5215302
-74.8359451 -104.5208282 96.2906876
-75.3358383 -104.4133224 96.9924469
-75.8431625 -104.3206406 97.6327438
-103.2240067 -104.0707703 103.2519226
-105.0540085 -104.2783127 102.1907806
-72.7044067 -104.1351318 94.8665924
-72.0438919 -103.3977509 95.8025131
-72.5615311 -103.2545471 96.6600723
-106.5746765 -103.0473709 103.6634903
-69.7306061 -102.3257523 95.4719009
-70.2513962 -102.1565628 96.4285355
-70.7610779 -102.0279007 97.2795334
-71.2761459 -101.9072571 98.0839386
-108.7664566 -101.8530655 104.2986450
-109.3880768 -101.9475479 103.8175812
-110.0148773 -102.0409088 103.3078842
-110.6619949 -102.1606979 102.7238617
-110.9626999 -100.7406769 104.6835175
-112.1136017 -100.1738129 104.6381912
-66.8319244 -99.7676697 96.8752594
-111.9610214 -99.4302444 105.7259293
-113.1607285 -98.9490891 105.5931015
-65.5987625 -98.5408859 97.4898529
-113.0133667 -98.2288589 106.6546402
-113.6433945 -98.3312302 106.1521912
-114.2996902 -98.4611969 105.5740280
-114.9181366 -98.5666428 105.0288696
-115.2929077 -97.2487411 106.4435043
-64.3203964 -96.6090927 99.1577682
-115.1634445 -96.5486526 107.3311005
-63.7297440 -96.0358582 99.2416153
-64.2481308 -95.8975296 100.1094589
-115.0170135 -95.8480835 108.2093124
-115.6841049 -95.9698792 107.6737518
-63.2080803 -95.3903275 99.5027466
-61.5797997 -95.1084213 97.5546341
-62.1232681 -94.9456482 98.6226883
-62.6135330 -94.8420715 99.4920273
-63.1335754 -94.7024994 100.4011841
-116.0995255 -94.7000885 108.7596359
-61.0049324 -94.5341949 97.5492859
-60.9545631 -93.8160477 98.5530548
-118.4925995 -93.7549744 107.9441452
-119.5611343 -92.6326981 108.2594757
-58.7369614 -92.2815399 97.2621002
-119.4450912 -91.9570389 108.9838867
-58.1834259 -91.7248688 97.1575699
-58.6940498 -91.5693893 98.2213135
-119.3253479 -91.2851105 109.6945572
-119.9943771 -91.4120026 109.0995026
-120.5597458 -90.8697128 109.1681137
-57.0571518 -90.6621857 96.7696075
-57.5918770 -90.4843521 97.9136200
-120.3554001 -89.5634308 110.4475174
-56.4364586 -89.4453430 97.3590927
-120.2659912 -88.9121780 111.0257034
-120.9442215 -89.0164261 110.3971863
-121.6412125 -89.1197510 109.7171097
-122.3227234 -89.2488174 108.9969482
-121.5185776 -88.4709854 110.3293076
-55.8160019 -88.2604752 97.8513870
-56.3722382 -88.0928421 98.9785614
-121.4257965 -87.8331604 110.9110413
-55.6881638 -86.2941437 99.9333420
-56.2227058 -86.1723328 100.9335709
-56.1752739 -85.5449905 101.5124283
-53.1135292 -85.6749039 95.7555389
-53.1061020 -84.9958420 96.5304260
-124.8319778 -84.0615616 110.8021851
-125.5057068 -84.1710129 110.1462708
-52.0195541 -84.0290298 95.4671860
-124.7378540 -83.4309692 111.2839279
-51.9833298 -83.3678665 96.1480560
-51.4299049 -82.8773804 95.4622345
-51.9719772 -82.7107697 96.7866821
-51.3996925 -82.2412567 96.0924606
-51.9455986 -82.0699844 97.4059372
-125.9123001 -81.8169250 111.2586212
-51.8971367 -81.4481354 97.9457550
-51.8807220 -80.8131561 98.5088196
-51.3161392 -80.3489685 97.7978134
