-64.0570984 -38.6443863 128.1081238
-65.1166687 -38.6121750 128.7816467
-102.7950134 -38.6247101 135.4786224
-103.9293976 -38.6569710 135.2054291
-129.1958771 -39.9492226 120.5595703
-130.5585785 -40.0672913 119.0470810
-45.5308800 -38.8111076 105.8227768
-46.5718880 -38.6789017 108.0475388
-64.0694733 -37.5796204 128.0071716
-65.1348724 -37.5485878 128.6805725
-103.9470444 -37.5950508 135.1118774
-105.0670929 -37.6280022 134.8264008
-106.2046051 -37.6619911 134.5130920
-126.5847015 -38.6596680 123.0582886
-127.8949966 -38.7576675 121.8055725
-129.2131348 -38.8633728 120.4434204
-45.5467072 -37.7238579 105.6162262
-46.5841980 -37.5942574 107.8515167
-64.0803070 -36.5160675 127.8697662
-65.1464157 -36.4863091 128.5545349
-66.1940002 -36.4611549 129.1779022
-68.2712173 -36.4055672 130.3808594
-105.0915375 -36.5664978 134.6965332
-106.2225189 -36.6006508 134.3837738
-126.6136475 -37.5803909 122.9014511
-127.9185028 -37.6758347 121.6519623
-66.1978378 -35.3976135 129.0307312
-67.2500534 -35.3719139 129.6433716
-68.2882462 -35.3472443 130.2237854
-105.0949707 -35.5071564 134.5541229
-106.2443695 -35.5401611 134.2344666
-126.6381836 -36.5026703 122.7154846
-127.9462891 -36.5961838 121.4580002
-66.2032700 -34.3378220 128.8422241
-67.2591553 -34.3121910 129.4584656
-68.3117371 -34.2903748 130.0435181
-104.0020981 -34.4177971 134.6713257
-105.1267242 -34.4494247 134.3868103
-106.2740631 -34.4813881 134.0649261
-126.6792603 -35.4270325 122.4793777
-127.9775314 -35.5194283 121.2196426
-129.3116760 -35.6197968 119.8237915
-45.5991898 -34.4773026 104.6558075
-46.6422272 -34.3558922 106.9627838
-68.3189926 -33.2329140 129.8315582
-69.3818436 -33.2096100 130.4000549
-100.3807068 -33.2503052 135.6298065
-102.8936691 -33.3314171 134.7426605
-104.0275345 -33.3614960 134.4829254
-126.7122192 -34.3523674 122.2230530
-128.0360870 -34.4450302 120.9216766
-129.3503571 -34.5435371 119.5362396
-46.6718063 -33.2802849 106.5817413
-68.3405914 -32.1743164 129.6141663
-104.0531921 -32.3061447 134.2540588
-126.7595367 -33.2803688 121.9194260
-128.0863800 -33.3711243 120.6003265
-46.6975403 -32.2077637 106.1234436
-68.3761292 -31.1221104 129.3747864
-104.0818329 -31.2518749 134.0067902
-126.8167267 -32.2092476 121.5687485
-128.1287231 -32.2991753 120.2534790
-129.4771729 -32.3918190 118.8243866
-46.7308922 -31.1364746 105.6040955
-68.4012833 -30.0656738 129.0911560
-69.4530487 -30.0460625 129.6532135
-70.5022888 -30.0304031 130.1774139
-71.5478058 -30.0124722 130.6651764
-104.1281967 -30.1962299 133.7348938
-126.8739395 -31.1402016 121.1794662
-128.1927948 -31.2276611 119.8450241
-45.7333183 -30.1818581 102.5378876
-46.7609024 -30.0690765 105.0112762
-70.5321655 -28.9736729 129.8732300
-71.5894012 -28.9637089 130.3762360
-72.6377563 -28.9433880 130.8518829
-80.0701523 -28.8884068 133.3582001
-81.1331635 -28.8832359 133.6217957
-82.2048187 -28.8869419 133.8690796
-96.3486404 -28.9893932 134.7183533
-97.4404907 -29.0057468 134.6217346
-98.5534210 -29.0229549 134.4958649
-104.1553421 -29.1427784 133.4457703
-126.9333572 -30.0718727 120.7482986
-128.2713623 -30.1595554 119.3803101
-46.8007126 -29.0000019 104.3748093
-70.5674896 -27.9236069 129.5511017
-71.6106720 -27.9089642 130.0441895
-72.6726685 -27.8960342 130.5174408
-77.9653854 -27.8482647 132.4608612
-79.0401382 -27.8444309 132.7736816
-80.1047363 -27.8409920 133.0574036
-81.1714096 -27.8375263 133.3181458
-82.2427673 -27.8349762 133.5550385
-83.3107452 -27.8356152 133.7647400
-86.5515442 -27.8442574 134.2443390
-87.6201935 -27.8483124 134.3705597
-96.3749542 -27.9398785 134.4097290
-97.4720383 -27.9587383 134.3153687
-98.5848236 -27.9745846 134.1891174
-99.7092819 -27.9928055 134.0236206
-100.8236923 -28.0162792 133.8318176
-101.9510498 -28.0394135 133.6204529
-103.0664368 -28.0609150 133.3859863
-104.2023926 -28.0890141 133.1193390
-127.0198212 -29.0058460 120.2522430
-128.3509979 -29.0921898 118.8688354
-46.8354836 -27.9347801 103.6431427
-72.7039948 -26.8448067 130.1624146
-73.7510605 -26.8321857 130.6112976
-77.9987335 -26.7961178 132.1255035
-81.2052917 -26.7930813 132.9838257
-82.2876968 -26.7878323 133.2181091
-86.5865021 -26.7974205 133.9254608
-87.6611023 -26.8022938 134.0359955
-88.7517548 -26.8033218 134.1195374
-89.8356171 -26.8142242 134.1861420
-90.9188538 -26.8289413 134.2179565
-92.0234299 -26.8385086 134.2291260
-93.1078415 -26.8475647 134.2363892
-94.2128754 -26.8608322 134.2073669
-95.3099213 -26.8767815 134.1508331
-96.4292755 -26.8868237 134.0737915
-97.5242157 -26.9038925 133.9822388
-98.6281662 -26.9247322 133.8538818
-101.9931946 -26.9860630 133.2762756
-127.0976257 -27.9398232 119.7252502
-128.4402008 -28.0224648 118.3190765
-46.8977661 -26.8752365 102.8442841
-72.7399597 -25.7946796 129.7937927
-73.7935104 -25.7819195 130.2421570
-74.8655014 -25.7743282 130.6758423
-75.9116592 -25.7628613 131.0686188
-76.9834518 -25.7546463 131.4347992
-78.0412903 -25.7497482 131.7684174
-81.2366409 -25.7354012 132.6165009
-82.3185883 -25.7395172 132.8553772
-85.5386047 -25.7408295 133.4290161
-86.6274796 -25.7471161 133.5626068
-87.6958923 -25.7541103 133.6712952
-88.7849960 -25.7626419 133.7657471
-89.8746490 -25.7684402 133.8327026
-90.9667358 -25.7765865 133.8663330
-92.0619278 -25.7851582 133.8839111
-93.1455307 -25.8002090 133.8818207
-94.2575989 -25.8058434 133.8450317
-95.3494873 -25.8245831 133.7920380
-96.4581604 -25.8384933 133.7172852
-97.5692444 -25.8543396 133.6135254
-98.6810150 -25.8736649 133.4775543
-102.0450821 -25.9345055 132.9072876
-127.1898804 -26.8757839 119.1437683
-46.9374161 -25.8083458 101.9444427
-47.9236450 -25.7037430 104.3855133
-48.9137917 -25.6078453 106.5259552
-98.7244339 -24.8246193 133.0805054
-99.8444595 -24.8415070 132.9195404
-100.9588394 -24.8638954 132.7334900
-102.0849075 -24.8850498 132.5155029
-124.6653137 -25.6608734 121.0876694
-125.9675674 -25.7326469 119.8594055
-127.2870865 -25.8097763 118.5169678
-47.9633675 -24.6384678 103.4963989
-48.9784813 -24.5510769 105.7356033
-98.7786102 -23.7759171 132.6683655
-99.8987732 -23.7925777 132.5011902
-101.0171890 -23.8118649 132.3101349
-102.1489716 -23.8330078 132.0888062
-124.7510223 -24.5995712 120.4768829
-126.0662842 -24.6710758 119.2094116
-48.0054092 -23.5696182 102.5209808
-49.0345459 -23.4917049 104.8355103
-124.8553162 -23.5370483 119.7964020
-49.1052361 -22.4351540 103.8552170
-124.9628601 -22.4776001 119.0659180
61.7143097 -28.5545731 -90.2910919
60.3198433 -28.5606518 -90.0408020
56.2095680 -28.5969734 -90.2356491
54.8465271 -28.6263885 -90.6806488
53.4900665 -28.6626987 -91.2418823
-49.1721954 -21.3768044 102.7670746
-50.1592026 -21.2916508 105.0055771
-51.1411819 -21.2079487 106.9969330
-122.5054855 -21.2937050 120.6442642
-123.8064880 -21.3519573 119.4898911
-125.0793457 -21.4176483 118.2824554
67.0939560 -27.0217266 -87.6319351
65.6757355 -26.9749012 -86.9647141
64.2725143 -26.9638824 -86.4635162
62.8667412 -26.9635735 -86.0997772
61.4828072 -26.9576874 -85.8099823
60.1037064 -26.9654465 -85.6552505
55.9914589 -27.0132256 -85.8839417
54.6461792 -27.0360947 -86.1859207
53.2856026 -27.0744743 -86.6160736
50.5739937 -27.1211662 -87.8210754
49.2351761 -27.2178192 -88.6662827
-50.2345657 -20.2352676 103.9277267
-51.2273102 -20.1548996 106.0445023
-122.6254272 -20.2330513 119.8627014
-123.9158020 -20.2927856 118.6853867
-125.2213745 -20.3532448 117.4179230
74.0530243 -25.6661758 -88.8203430
72.5457001 -25.5700073 -87.3982925
71.1152191 -25.5381889 -86.2592163
69.6875687 -25.5176868 -85.3199768
68.2700729 -25.4987335 -84.5384750
66.8718414 -25.4870491 -83.8894958
65.4653549 -25.4794998 -83.3527451
53.1207352 -25.5941238 -83.1587524
51.7697029 -25.6255245 -83.6390305
50.4198151 -25.6337776 -84.1572800
49.0899811 -25.6632481 -84.8274689
47.7473259 -25.6999149 -85.6510773
46.4309654 -25.7323227 -86.5572357
45.0643272 -25.8585663 -87.6852493
-50.3074379 -19.1813202 102.7373428
-51.2881813 -19.0974407 104.9225769
-122.7469864 -19.1746368 119.0290298
-124.0580902 -19.2310028 117.8012619
75.2339401 -24.1587524 -86.0887070
73.7778015 -24.1036530 -84.8245087
72.3254242 -24.0826530 -83.7447510
70.9156342 -24.0705147 -82.8481750
69.4976501 -24.0456219 -82.0602722
68.1002426 -24.0446320 -81.4464569
66.6966248 -24.0350990 -80.9038391
65.3054504 -24.0381241 -80.4768066
52.9896088 -24.1350040 -80.3650894
51.6443291 -24.1654472 -80.7568207
50.2933502 -24.1889496 -81.2222290
48.9645538 -24.2161980 -81.8047028
47.6147156 -24.2536697 -82.5247803
46.2914352 -24.2800941 -83.2913437
44.9516563 -24.3214092 -84.2212067
43.6176376 -24.3811913 -85.2929764
42.2742462 -24.4872646 -86.5149765
-50.3879356 -18.1209335 101.4051056
-51.3820229 -18.0466499 103.7441025
-122.8699799 -18.1186295 118.1383438
-124.1972351 -18.1707726 116.8643265
77.9377975 -22.7486286 -85.4687347
76.4718246 -22.7150974 -84.0532150
75.0003204 -22.6734962 -82.7749786
73.5846481 -22.6643677 -81.7607422
42.1793747 -22.9621296 -83.3816910
-51.4693909 -16.9910126 102.4108887
-52.4445839 -16.9199867 104.5364990
-53.4394531 -16.8533039 106.4673920
-120.4533844 -16.9523354 119.4197922
-121.7421722 -17.0001678 118.3245468
-123.0155029 -17.0576782 117.1570816
80.6756821 -21.3754520 -85.4080582
79.1799927 -21.3138580 -83.7232666
77.7276688 -21.2846985 -82.3361588
76.2727966 -21.2609329 -81.1300735
74.8290176 -21.2351265 -80.0746765
73.4169617 -21.2181778 -79.1735306
42.0829773 -21.5228539 -80.7473907
40.7361526 -21.5866699 -81.8445282
39.4227753 -21.6292000 -83.0143585
38.0943756 -21.6739826 -84.3790588
-51.5369949 -15.9207039 100.9242859
-52.5377121 -15.8672371 103.1881561
-53.5236092 -15.8012724 105.2231445
-120.6080170 -15.8919029 118.4378281
-121.8754349 -15.9443645 117.3283386
81.9305954 -19.9533997 -83.9619446
80.4536972 -19.9117565 -82.3383789
78.9891739 -19.8845692 -80.9446716
39.3204041 -20.1898727 -80.5276489
38.0055313 -20.2247009 -81.7094116
36.6955109 -20.2730484 -83.0535049
35.3369904 -20.3575954 -84.6490479
-52.6302795 -14.8053789 101.6826782
-53.6307220 -14.7503853 103.8645172
-118.2256775 -14.7474947 119.4687195
-119.4817581 -14.7877731 118.4786453
-120.7429504 -14.8382397 117.4043121
84.7345276 -18.6184273 -84.7554932
83.2232666 -18.5552254 -82.8675385
81.7386017 -18.5212078 -81.2294540
80.2692566 -18.4882278 -79.8056717
78.8189087 -18.4554558 -78.5716934
39.2566109 -18.7694340 -78.3637009
37.9192810 -18.8127937 -79.4705811
36.6089745 -18.8544712 -80.6945190
35.2658730 -18.9041386 -82.1008835
-53.7304039 -13.6964188 102.3172150
-118.3780823 -13.6847019 118.4282990
-119.6262207 -13.7302637 117.4100876
-120.9021912 -13.7833996 116.2668839
84.5093231 -17.1677628 -81.9658127
36.5364952 -17.4384384 -78.6052856
35.1972618 -17.4811115 -79.8720398
33.8634415 -17.5537701 -81.2123642
-53.8198853 -12.6237850 100.6157837
-54.8241043 -12.5738268 102.9014282
-55.8302841 -12.5278149 104.8657150
-56.8376999 -12.4768095 106.6371155
-57.8316536 -12.4315548 108.1973648
-118.5459595 -12.6233835 117.3056641
-119.8000183 -12.6710958 116.2512360
87.3581772 -15.8402605 -83.2623901
85.8312912 -15.7902699 -81.3118820
84.3237762 -15.7518349 -79.6028061
36.4862137 -16.0269947 -76.7284317
35.1286163 -16.0808849 -77.9460754
33.8036270 -16.1374931 -79.1992874
-55.9244080 -11.4611216 103.3017120
-56.9442329 -11.4250355 105.1969910
-57.9329147 -11.3763103 106.8476563
-118.6940384 -11.5697613 116.1320267
-119.9708786 -11.6140909 114.9964676
-121.2748413 -11.6629257 113.7216492
88.6897659 -14.4653740 -82.8593140
87.1612701 -14.4229345 -80.8507004
36.4209671 -14.6429186 -75.0998306
35.0694427 -14.6858006 -76.2318573
33.7601166 -14.7127504 -77.3861389
-57.0474167 -10.3659906 103.5705795
-58.0407219 -10.3231678 105.3470688
-116.3551865 -10.4284801 116.9073410
-117.6052399 -10.4661884 115.9163666
-118.8933563 -10.5064754 114.8037109
90.0400696 -13.0981903 -82.6738434
88.5178070 -13.0592728 -80.5908432
86.9853210 -13.0180168 -78.7380066
36.3711433 -13.2531223 -73.5938034
35.0294266 -13.2935972 -74.6253510
-57.1502342 -9.2875023 101.7986145
-58.1496620 -9.2641048 103.6688156
-116.5316086 -9.3686142 115.6172714
-117.7916260 -9.4082003 114.5689850
91.4120865 -11.7447367 -82.6653976
89.8586044 -11.6989555 -80.4700165
41.6162071 -11.7646961 -69.0977478
40.2776108 -11.7936764 -69.7883606
38.9668274 -11.8186941 -70.5243073
37.6337585 -11.8546085 -71.3527832
36.3184204 -11.8822823 -72.2297287
-58.2867775 -8.2060699 101.8282776
-59.3070335 -8.1780729 103.7739639
-60.3047028 -8.1308985 105.4301224
-116.7257996 -8.3092651 114.2148666
-118.0041275 -8.3449125 113.0916290
91.2262039 -10.3414478 -80.5353241
89.7055893 -10.3126125 -78.5686188
41.5843391 -10.3927946 -67.9519653
40.2431641 -10.4194317 -68.6137161
38.9251938 -10.4464798 -69.3051758
-58.4210739 -7.1223779 99.6782227
-59.4427948 -7.1030564 101.8597336
-60.4418831 -7.0783358 103.6595612
-116.9386368 -7.2488508 112.6678619
-118.2339630 -7.2805281 111.4529419
92.6257019 -8.9962902 -80.8136444
91.0660248 -8.9555607 -78.6962204
89.5654068 -8.9305000 -76.8991776
41.5315933 -9.0382204 -66.9013214
40.2076683 -9.0599403 -67.5333328
-60.5651665 -5.9856281 101.6650848
-61.5851250 -5.9704151 103.4714432
-62.5854874 -5.9481769 105.0542145
-112.1470261 -6.0557246 115.0042114
-113.3826599 -6.0836010 114.1422577
-114.6383896 -6.1115389 113.1821289
-115.8863678 -6.1495953 112.1424561
-117.1809845 -6.1837597 110.9513245
94.0086823 -7.6476259 -81.2304535
92.4614944 -7.6134548 -79.0222626
90.9412155 -7.5865779 -77.1051483
89.4429550 -7.5674658 -75.4343567
41.4847946 -7.6808462 -65.9231949
40.1647682 -7.7034988 -66.5568466
-61.7318573 -4.9020958 101.3654785
-62.7425652 -4.8989887 103.1349030
-112.3384476 -4.9960642 113.4786224
-113.5801697 -5.0261126 112.5546570
-114.8612442 -5.0538425 111.5086517
95.4512024 -6.3135347 -81.8966370
93.8545761 -6.2702551 -79.4937973
92.3354034 -6.2426105 -77.4607697
44.1163406 -6.2871189 -63.9242706
42.7813950 -6.3132439 -64.4422150
41.4556503 -6.3338284 -65.0115051
-62.9072685 -3.8264813 100.8943787
-63.9021759 -3.8051929 102.6126328
-64.9237213 -3.7761354 104.1895065
-65.9375687 -3.7500553 105.5883789
-66.9733429 -3.7283652 106.8775635
-110.0865555 -3.8820822 113.5063248
-111.3286667 -3.9018965 112.6754227
-112.5755157 -3.9370289 111.7487640
95.2750320 -4.9301567 -80.1710892
93.7337265 -4.9007368 -77.9703445
92.2206116 -4.8825688 -76.0870895
44.0761566 -4.9524832 -63.1120415
42.7454834 -4.9682188 -63.6081657
-64.0704956 -2.7106006 100.3000031
-65.0976791 -2.7158678 102.0246735
-66.1022797 -2.6897826 103.5374603
-67.1240540 -2.6706009 104.9643555
-110.3205414 -2.8127427 111.7625504
-111.5576324 -2.8439627 110.8672943
96.6986542 -3.5873437 -81.0371552
95.1576157 -3.5644536 -78.6851883
44.0457458 -3.6020408 -62.3478203
42.7212677 -3.6213629 -62.8211250
-66.3021851 -1.6273820 101.2348557
-67.3015747 -1.6100279 102.7702026
-68.2991638 -1.5840912 104.1416016
-69.3376083 -1.5687449 105.4056854
-108.1102142 -1.7063243 111.4859009
-109.3445587 -1.7213426 110.6893616
-110.5729370 -1.7447302 109.8195267
98.2027664 -2.2635634 -82.1988754
96.5867310 -2.2262287 -79.5839233
95.0315857 -2.1984391 -77.3399124
44.0083771 -2.2687109 -61.6491776
42.6792183 -2.2911112 -62.1261024
-66.4895630 -0.5235763 98.4476318
-67.5125732 -0.5354924 100.2540283
-68.5107880 -0.5270241 101.8196030
-69.5365906 -0.5113414 103.2166901
-108.3689728 -0.6320162 109.4755096
-109.6055298 -0.6556805 108.6098938
-110.8677368 -0.6657547 107.6208878
96.4487991 -0.8613722 -78.2367401
94.9441986 -0.8533734 -76.2043762
43.9848785 -0.9349144 -61.0069504
-68.7153015 0.5744955 99.0543518
-69.7454453 0.5559659 100.6422653
-70.7490387 0.5827212 102.0242920
-71.7916336 0.5897572 103.3151245
-72.8155823 0.6028669 104.4365463
-73.8535156 0.6242737 105.4158020
-103.7755508 0.5089326 110.1814880
-104.9913940 0.4980076 109.5603409
-106.1826019 0.4702766 108.8983459
-107.4170303 0.4565932 108.0989685
-108.6555176 0.4454377 107.2187500
97.9180298 0.4755269 -79.3913116
96.3644180 0.4861836 -77.1177444
94.8378372 0.5028881 -75.1355896
43.9483986 0.3987200 -60.4153252
-72.0091400 1.6716285 100.6394577
-73.0394287 1.6599404 101.9413986
-74.0674286 1.6821003 103.0657730
-104.0433044 1.5767968 108.0010986
-105.2652664 1.5688447 107.2980270
-106.4807739 1.5603185 106.5339890
99.4116516 1.8037767 -80.7656631
97.8183060 1.8250417 -78.2514648
43.9181671 1.7256252 -59.8586502
-73.2986679 2.7337217 98.9382629
-74.3214493 2.7488177 100.2477722
-75.3597183 2.7586193 101.4275894
-76.3865509 2.7668219 102.4816132
-77.4376373 2.7815051 103.4209824
-78.4730148 2.7872765 104.2557144
-99.5802841 2.7145588 107.6734619
-100.7568130 2.7007656 107.2501984
-101.9531631 2.6877513 106.7293930
-103.1538544 2.6736100 106.1355972
-104.3556671 2.6680534 105.4682770
99.2801971 3.1646729 -79.6064911
97.7265854 3.1725619 -77.2401428
43.8886223 3.0508304 -59.3516884
-75.6268387 3.8708844 98.2186203
-76.6668167 3.8460236 99.4583054
-77.7086105 3.8400774 100.5603027
-78.7351913 3.8476534 101.5212326
-99.8873825 3.7902625 105.0939941
-101.0707855 3.7732468 104.6017990
-102.2787476 3.7812366 103.9949951
100.8416748 4.4885635 -81.3337402
99.1978607 4.5118403 -78.6372910
97.6476746 4.5173063 -76.3566742
43.8745728 4.3847532 -58.8855209
-78.0179825 4.9790850 96.9339066
-79.0453339 4.9708147 98.1293793
-80.1012039 4.9385276 99.1457214
-81.1560059 4.9310236 100.0093689
-82.2303162 4.9313984 100.7779922
-83.2840271 4.9427834 101.4457016
-84.3628235 4.9391785 102.0479431
-85.4542160 4.9456797 102.5140533
-86.5427704 4.9461250 102.9223022
-87.6487503 4.9504514 103.2452774
-88.7486038 4.9438567 103.5166779
-89.8616028 4.9430499 103.6988831
-90.9720078 4.9399123 103.8125916
-92.1013031 4.9278541 103.8744659
-93.2411499 4.9261360 103.8337784
-94.3781433 4.9114265 103.7564697
-95.5348816 4.9075489 103.5687866
-96.6781311 4.8921814 103.3401794
-97.8550873 4.8833208 103.0070114
-99.0427094 4.8849669 102.5703888
-100.2458649 4.8963785 102.0362091
100.7284088 5.8478832 -80.3460312
99.1248779 5.8558187 -77.7708817
97.5853195 5.8592672 -75.5832443
43.8537827 5.7039351 -58.4792786
-82.5727768 6.0650682 97.0032349
-83.6311798 6.0666943 97.8364944
-84.7100372 6.0266371 98.5323181
-85.7964325 6.0182438 99.1153946
-86.8743057 6.0197639 99.5898972
-87.9821625 6.0161457 99.9554291
-89.0799942 6.0060291 100.2704315
-90.1983643 6.0145741 100.4478760
-91.3114319 6.0034432 100.5970078
-92.4494553 6.0040622 100.6208496
-93.5903320 6.0002127 100.5612106
-94.7444611 5.9999666 100.4178162
-95.9089661 6.0175753 100.1921234
-97.0784073 6.0270815 99.8483047
100.6473160 7.1964273 -79.4914856
43.8322639 7.0296388 -58.1022034
-88.4122009 7.1566257 95.5540009
-89.5047760 7.1508465 95.8858719
-90.6330414 7.1458201 96.1524200
100.5759964 8.5379467 -78.7436523
43.8169556 8.3541222 -57.7545433
102.1116791 9.8828955 -80.7273254
100.5022583 9.8812609 -78.0720978
65.0797424 9.7710581 -55.5903168
63.7335892 9.7643127 -55.4461441
62.3935318 9.7587013 -55.3352661
61.0455017 9.7567558 -55.2440109
59.7071037 9.7502480 -55.1881409
58.3644638 9.7354164 -55.1832581
57.0439301 9.7322998 -55.2090454
55.7158775 9.7318611 -55.2698631
54.3784714 9.7157049 -55.3685265
53.0653038 9.7174330 -55.4690704
51.7375488 9.7119694 -55.6313782
50.4190140 9.7043514 -55.8646088
43.8067474 9.6756840 -57.4387474
42.4767761 9.6622829 -57.8541794
102.0428619 11.2268028 -80.1200333
100.4484482 11.2208824 -77.5122986
65.0505600 11.0829964 -55.3325005
63.7166100 11.0752029 -55.1975632
59.6940536 11.0567989 -54.9398537
58.3572044 11.0593567 -54.9232063
57.0358162 11.0460033 -54.9550705
55.7018623 11.0447788 -55.0094643
51.7127991 11.0255289 -55.4012680
50.3944092 11.0238590 -55.6290169
43.7905655 10.9946537 -57.1752319
42.4625282 10.9886036 -57.6003647
101.9954758 12.5693808 -79.6042099
100.4142914 12.5595360 -77.0634613
67.7279510 12.4062557 -55.5412865
66.3904114 12.3981819 -55.3013115
58.3404083 12.3690119 -54.7119637
57.0200806 12.3611107 -54.7382202
55.6833344 12.3579569 -54.7814751
51.7064819 12.3412685 -55.1961746
50.3730850 12.3331270 -55.4231644
43.7672844 12.3115377 -56.9562302
42.4545593 12.3096409 -57.3804779
41.1308365 12.3008175 -57.8459435
101.9373550 13.9104528 -79.1510620
100.3731461 13.8961201 -76.6800690
67.7116699 13.7170534 -55.3559380
66.3710785 13.7115870 -55.1203613
58.3173409 13.6776829 -54.5414314
57.0068359 13.6764202 -54.5558395
55.6675949 13.6694117 -54.6045036
51.6904068 13.6567345 -55.0199356
50.3763046 13.6537161 -55.2320862
43.7602501 13.6316376 -56.7661972
42.4389343 13.6262703 -57.2094650
41.1179123 13.6230278 -57.6831665
101.8996353 15.2491455 -78.8181763
100.3265915 15.2327709 -76.3606567
73.1217270 15.0548706 -56.5077744
71.7730179 15.0478268 -56.1329575
70.4013519 15.0432940 -55.7844849
69.0419312 15.0389023 -55.4720001
67.6884308 15.0303440 -55.2074776
66.3520203 15.0241537 -54.9808273
65.0062866 15.0188570 -54.7941093
63.6713562 15.0107079 -54.6468658
62.3260498 15.0097818 -54.5130539
60.9937515 15.0030394 -54.4315720
59.6565971 15.0001812 -54.3981552
58.3111115 14.9940948 -54.3917351
51.6801224 14.9718952 -54.8587036
50.3612633 14.9661627 -55.0734558
49.0096550 14.9622383 -55.3408661
47.7078247 14.9596367 -55.6095505
46.3939018 14.9579754 -55.8886566
45.0790558 14.9547186 -56.2156258
41.1127625 14.9459286 -57.5285339
39.8053093 14.9512920 -58.0440941
103.5335999 16.6068192 -81.4324722
101.8722076 16.5880146 -78.5701218
100.3107758 16.5686779 -76.1509705
73.1021881 16.3685303 -56.3829651
71.7669983 16.3593826 -56.0068207
70.3837585 16.3541870 -55.6565552
69.0467377 16.3468590 -55.3615379
67.6756287 16.3425751 -55.0928650
66.3372192 16.3372421 -54.8643837
64.9995651 16.3317661 -54.6835136
63.6626205 16.3232136 -54.5344086
62.3064537 16.3208675 -54.4083862
60.9779854 16.3145256 -54.3331108
59.6467896 16.3097515 -54.2901497
58.3041306 16.3053856 -54.2813950
51.6796875 16.2859707 -54.7256393
50.3503036 16.2832489 -54.9557877
46.3705750 16.2717381 -55.7689323
45.0812378 16.2709293 -56.1014023
41.0986214 16.2634201 -57.4076080
39.7767181 16.2612190 -57.8995972
38.4657516 16.2655926 -58.4074059
103.5286179 17.9503555 -81.2875595
73.1002045 17.6800137 -56.2951469
67.6793365 17.6538391 -55.0083847
66.3302917 17.6477509 -54.7831497
64.9845505 17.6423798 -54.5999832
63.6461792 17.6365852 -54.4548645
62.3143539 17.6207485 -54.3593407
51.6616516 17.5987358 -54.6648941
46.3759918 17.5891590 -55.6810989
45.0627823 17.5872841 -56.0345879
38.4527512 17.5819206 -58.3678970
37.1323586 17.5819817 -58.9702988
103.5059204 19.2939415 -81.1606903
73.0845718 18.9927330 -56.2463455
67.6618652 18.9654770 -54.9669952
66.3312531 18.9587688 -54.7392998
64.9824448 18.9535389 -54.5419273
63.6514435 18.9477978 -54.4085007
55.6203995 18.9230919 -54.2545166
54.2911110 18.9189987 -54.3414688
52.9770737 18.9156895 -54.4867859
51.6378441 18.9136391 -54.6545334
47.6874924 18.9071522 -55.3447075
46.3616104 18.9057770 -55.6477623
45.0491753 18.9047070 -55.9926376
38.4512787 18.9038944 -58.3317833
37.1265259 18.9050293 -58.9341583
35.8277588 18.9061928 -59.5600739
34.4847755 18.9076767 -60.2436829
15.9114132 18.9946079 -77.4278793
103.4973145 20.6380596 -81.1361465
73.0836868 20.3056393 -56.2458878
71.7350464 20.2977009 -55.8710709
70.3742676 20.2911148 -55.5384140
69.0328827 20.2840729 -55.2345428
67.6612396 20.2771149 -54.9573212
66.3164520 20.2704773 -54.7068253
64.9650574 20.2654667 -54.5140877
63.6171303 20.2600613 -54.3976402
56.9325714 20.2385044 -54.1910019
55.6266556 20.2352657 -54.2301636
54.2971191 20.2329121 -54.3338089
52.9459457 20.2306881 -54.4886665
51.6390610 20.2271461 -54.6389122
50.3308220 20.2262001 -54.8210297
49.0021362 20.2244587 -55.0627251
47.6964836 20.2232361 -55.3231544
35.8172646 20.2301788 -59.5492821
34.4896317 20.2332954 -60.2284966
33.1722870 20.2397041 -60.9276657
31.8299923 20.2464275 -61.7108536
17.2840004 20.3326969 -75.4294586
15.9329720 20.3485756 -77.3963623
103.4983215 21.9827938 -81.2110291
73.0712891 21.6182442 -56.2726212
71.7341537 21.6117897 -55.9043884
70.3609848 21.6031532 -55.5602798
69.0241470 21.5955372 -55.2542915
67.6649780 21.5902729 -54.9767189
66.2980957 21.5818653 -54.7303734
64.9703674 21.5782375 -54.5655518
63.6251678 21.5729160 -54.4433670
55.6174088 21.5483952 -54.2483101
54.2986221 21.5447731 -54.3601608
52.9557343 21.5443153 -54.5028152
51.6334534 21.5426636 -54.6511307
47.6837234 21.5394249 -55.3397560
35.8013153 21.5546608 -59.5762787
34.4738808 21.5591030 -60.2653732
33.1634369 21.5639877 -60.9972153
31.8493080 21.5690994 -61.7882843
30.5263329 21.5748367 -62.6343842
29.2094746 21.5811977 -63.5344238
27.8807793 21.5891819 -64.5187378
26.5634842 21.5976181 -65.5643692
25.2293282 21.6069660 -66.6919937
23.9233475 21.6161499 -67.8658218
22.5775967 21.6272469 -69.1770172
21.2675591 21.6391811 -70.5596466
19.9246826 21.6526623 -72.0698166
18.6057377 21.6670380 -73.6854172
17.2838783 21.6834927 -75.4779663
15.9463348 21.6998577 -77.4867554
103.5227051 23.3303757 -81.4133682
101.8470306 23.2870522 -78.5236511
100.2739563 23.2517567 -76.0679016
89.8128510 23.0835495 -64.9627457
88.3819885 23.0673275 -63.8894691
86.9596024 23.0511627 -62.8974876
85.5423660 23.0366058 -61.9713898
84.1243896 23.0202389 -61.1062279
82.7207794 23.0062981 -60.3153229
64.9785767 22.8927803 -54.6168289
63.6313057 22.8871136 -54.4917526
62.2841263 22.8759766 -54.3589668
60.9500389 22.8767605 -54.2822876
55.6043243 22.8632832 -54.3244209
54.2756424 22.8617611 -54.4250221
52.9589233 22.8595085 -54.5541267
47.6867027 22.8554153 -55.4004288
46.3556633 22.8562317 -55.7156296
45.0382767 22.8575058 -56.0701103
43.7159805 22.8593445 -56.4592514
42.3982544 22.8618622 -56.8889542
41.0801010 22.8636494 -57.3595772
39.7618027 22.8667374 -57.8685150
17.2840748 23.0344925 -75.6009369
103.5257416 24.6781197 -81.6473999
101.8454132 24.6285782 -78.7179565
100.2882462 24.5916901 -76.2797241
89.8386841 24.4101410 -65.1167526
88.3900299 24.3896332 -64.0209122
84.1462708 24.3424530 -61.2374001
82.7291641 24.3262157 -60.4415474
64.9690247 24.2047157 -54.6915436
63.6322403 24.1990852 -54.5818977
62.3032913 24.1979580 -54.4799843
60.9400711 24.1900959 -54.3660126
56.9568176 24.1784496 -54.3442841
55.6211472 24.1763039 -54.4125748
54.2915154 24.1747704 -54.4991531
48.9813843 24.1740341 -55.2259636
47.6787796 24.1734314 -55.5004005
46.3416901 24.1759663 -55.8231659
45.0293312 24.1766949 -56.1577454
39.7581558 24.1894512 -57.9657669
17.2614727 24.3892365 -75.7874908
101.8833008 25.9755268 -79.0445175
100.3001633 25.9325294 -76.5504227
89.8457794 25.7365303 -65.2978210
88.3968887 25.7140312 -64.1948929
84.1532745 25.6609898 -61.3943558
82.7307892 25.6462097 -60.5946426
62.2864723 25.5064545 -54.5859070
60.9259644 25.5020447 -54.5069923
59.6102028 25.5024033 -54.4564438
58.2774200 25.4970474 -54.4384995
56.9466782 25.4944115 -54.4749641
55.6147423 25.4905357 -54.5331268
54.2779465 25.4910240 -54.6190758
50.3092499 25.4920826 -55.1150894
46.3505440 25.4915752 -55.9529457
39.7540932 25.5122452 -58.1029701
17.2516270 25.7447433 -76.0358505
101.9116364 27.3228283 -79.4478455
100.3210831 27.2750244 -76.8996048
89.8411179 27.0596504 -65.5045929
88.4134827 27.0396004 -64.4118958
87.0002594 27.0206184 -63.3890152
85.5556946 26.9994850 -62.4345970
84.1681061 26.9840736 -61.5984802
82.7489700 26.9683304 -60.7957916
62.2975769 26.8150692 -54.7494087
60.9494820 26.8224907 -54.6700668
59.6260223 26.8117008 -54.6063156
58.2780228 26.8144398 -54.6019058
56.9516525 26.8074837 -54.6305199
55.6130104 26.8105526 -54.6941757
54.2865791 26.8065147 -54.7829247
52.9758682 26.8053589 -54.8917542
51.6504745 26.8038044 -55.0700951
50.3100967 26.8092422 -55.3038139
46.3505630 26.8131943 -56.1249847
41.0866089 26.8285542 -57.7765083
39.7527390 26.8375549 -58.2832603
17.2537651 27.1007252 -76.3501740
101.9630051 28.6729889 -79.9512482
100.3380432 28.6174755 -77.3223038
54.2897949 28.1288528 -54.9776459
52.9642982 28.1266098 -55.1121178
51.6335983 28.1237488 -55.3029060
50.3151283 28.1274738 -55.5197716
46.3574715 28.1340618 -56.3244858
45.0432205 28.1378136 -56.6706429
43.7201157 28.1386127 -57.0720253
42.3935089 28.1476345 -57.5148697
41.0696411 28.1574898 -57.9916763
39.7532349 28.1629162 -58.5036316
17.2688179 28.4563408 -76.6955872
102.0363922 30.0326691 -80.5593414
100.4002228 29.9684353 -77.8883667
54.3155975 29.4338875 -55.1996002
52.9770889 29.4453754 -55.3534241
51.6530228 29.4432907 -55.5379601
50.3303833 29.4480076 -55.7439003
46.3576508 29.4592018 -56.5566750
45.0444756 29.4617596 -56.9084320
43.7169037 29.4665833 -57.3106079
42.3946419 29.4746532 -57.7557602
41.0766830 29.4834023 -58.2406464
39.7612457 29.4905548 -58.7526321
17.2520695 29.8209915 -77.1591644
102.1257324 31.3953571 -81.2936096
100.4480972 31.3179150 -78.5013733
54.3090897 30.7698555 -55.4789162
50.3422318 30.7668800 -55.9972229
19.9160290 31.1098785 -73.9952316
18.5892143 31.1429787 -75.7495270
17.2506886 31.1852837 -77.6725388
100.5314484 32.6797638 -79.2642670
54.3174973 32.0866547 -55.7891541
50.3482971 32.0936775 -56.3118439
19.9295959 32.4675598 -74.5046539
18.5900822 32.5078506 -76.3162842
100.6067810 34.0418739 -80.0932465
98.9621658 33.9684601 -77.4522629
97.4505310 33.9262009 -75.3313675
54.3549576 33.4049072 -56.1371193
53.0106812 33.4080467 -56.2635803
51.6687660 33.4124069 -56.4506989
50.3482819 33.4205322 -56.6719055
19.9324207 33.8303299 -75.0973053
18.6020164 33.8741302 -76.9336243
100.7072449 35.4142380 -81.0419464
99.0496521 35.3333511 -78.3513947
97.5085068 35.2782593 -76.0971527
54.3545151 34.7366333 -56.5328484
53.0264206 34.7384529 -56.6647224
51.6955528 34.7400970 -56.8442459
50.3729362 34.7418900 -57.0509186
19.9461727 35.1951408 -75.7492371
18.6091976 35.2433510 -77.6496658
17.2706394 35.3042183 -79.7130356
99.1247559 36.6987572 -79.3060989
97.5781479 36.6380348 -76.9612274
22.6062412 36.4798584 -73.1669769
21.2819004 36.5212822 -74.7491226
19.9484253 36.5674286 -76.5116196
18.6222534 36.6177788 -78.4505157
99.2283859 38.0733681 -80.3729248
97.6380768 37.9981651 -77.9138870
22.6144257 37.8465385 -73.9039154
21.2949066 37.8896561 -75.5342560
19.9621105 37.9400520 -77.3555145
97.7287064 39.3724976 -79.0127487
96.1688080 39.3071899 -76.7638550
94.6677856 39.2516403 -74.8319397
25.2785606 39.1296921 -71.7548065
23.9670181 39.1685143 -73.1612396
22.6306782 39.2171326 -74.7268066
21.2958412 39.2712746 -76.4358521
97.9011078 40.7678375 -80.2279205
96.2658234 40.6789474 -77.8965454
94.7477264 40.6150322 -75.8481750
25.2888145 40.5004692 -72.5843124
23.9687614 40.5453072 -74.0476151
22.6319427 40.5980301 -75.6518936
96.3517227 42.0489960 -79.1317291
94.8479080 41.9923363 -77.0150299
25.2963676 41.8749847 -73.5033264
23.9905910 41.9176483 -74.9835129
96.4964676 43.4512787 -80.6083832
94.9300232 43.3666077 -78.2895279
25.3111916 43.2565002 -74.4981384
24.0016594 43.3086319 -76.0243225
96.6641006 44.8759804 -82.2448578
95.0608063 44.7604332 -79.7662277
93.4973450 44.6896896 -77.5669556
91.9600220 44.6164284 -75.6066589
25.3363857 44.6394768 -75.5728531
24.0259247 44.6954498 -77.1728668
95.2024841 46.1649895 -81.4100113
93.6115036 46.0725174 -79.0509415
92.0865784 46.0066681 -76.9933319
25.3547134 46.0315895 -76.7752457
24.0438766 46.0938339 -78.4792023
93.7468567 47.4759064 -80.7638474
92.1851349 47.3937035 -78.5025482
90.6732941 47.3280296 -76.5804520
89.1899414 47.2717552 -74.9351807
28.0402164 47.3125648 -74.9905548
26.7130775 47.3674965 -76.4696198
25.3882866 47.4316444 -78.1094971
24.0605564 47.5062790 -79.9477310
93.9433517 48.9242897 -82.7136841
92.3181915 48.7960892 -80.2493439
90.7972183 48.7212830 -78.1733398
89.3038254 48.6624794 -76.3931961
28.0551872 48.7163506 -76.3258972
26.7358017 48.7792282 -77.8897552
25.4152756 48.8434486 -79.6229477
24.0904007 48.9315109 -81.5610580
90.9450302 50.1357269 -79.9878464
89.4304504 50.0655251 -78.0532532
30.7384605 50.0046654 -74.9441071
29.4336891 50.0491409 -76.2577591
28.0917740 50.1243858 -77.7931900
26.7861061 50.1832428 -79.4184875
91.1141510 51.5854836 -82.0059662
89.5762939 51.4743195 -79.9158401
30.7713242 51.4151382 -76.4072342
29.4487343 51.4759750 -77.8420868
89.7694855 52.9501152 -82.0430222
88.2226410 52.8281021 -80.0325546
86.6929626 52.7534370 -78.1916046
30.8162308 52.8293648 -78.0119781
29.4942951 52.9035187 -79.5522461
88.4283905 54.3080406 -82.3030243
86.8378677 54.1753845 -80.2386322
30.8680840 54.2589035 -79.8183441
87.0509720 55.6674156 -82.6381149
85.5119781 55.5509148 -80.6808319
84.0054321 55.4705353 -78.9808350
36.1976662 55.4474525 -76.3485870
34.8670616 55.5053329 -77.5274353
33.5613785 55.5581703 -78.7990570
32.2317848 55.6327667 -80.2660217
30.9064922 55.7172585 -81.9120407
85.7232971 57.0375252 -83.2633514
84.1830063 56.9207916 -81.3522797
36.2551384 56.8789063 -78.1848907
34.9218407 56.9504166 -79.4833374
84.4082108 58.4368057 -84.0984573
82.9028091 58.3096390 -82.2267914
81.4006805 58.2385635 -80.6056519
79.9180756 58.1732368 -79.1749268
78.4788055 58.1259918 -77.9619598
38.9719810 58.2173004 -77.9455338
37.6325455 58.2791405 -79.0623703
36.3249283 58.3394051 -80.2797852
35.0012131 58.3958588 -81.6889801
81.6232529 59.7610092 -83.3141861
80.0883331 59.6435432 -81.6857986
78.6382904 59.5820351 -80.3148575
39.0391273 59.6758957 -80.0986710
37.7044678 59.7392349 -81.3265305
36.3966217 59.8125839 -82.7076721
35.0656509 59.8977509 -84.3237076
78.8343201 61.0756760 -83.0739288
77.3723221 60.9974670 -81.6834183
75.9275970 60.9352036 -80.4426804
74.4878082 60.9086266 -79.4302368
73.0662537 60.8646927 -78.5171204
41.7723579 61.0306015 -80.2926712
40.4379196 61.0980835 -81.3813629
39.1254730 61.1577072 -82.5710983
37.7924576 61.2422867 -83.9983063
77.5914459 62.5303268 -84.8055420
76.1227341 62.4262810 -83.3700714
74.6613617 62.3709030 -82.1279373
73.2180405 62.3384857 -81.0822067
41.8534851 62.5264244 -82.9276886
74.8832932 63.9239845 -85.4103088
73.4193420 63.8322449 -84.1688385
71.9739532 63.7718735 -83.0656052
70.5725250 63.7429161 -82.1683273
69.1422119 63.7111931 -81.4123764
67.7290039 63.6784706 -80.7770615
66.3359451 63.6560211 -80.2532730
64.9551926 63.6432114 -79.8184433
49.9640274 63.7434959 -80.7042160
48.6294060 63.7672806 -81.2864838
47.2809753 63.8188210 -82.0179062
45.9624901 63.8667068 -82.7988739
44.6311340 63.9270782 -83.7360687
43.2933922 63.9838219 -84.8360748
41.9674911 64.0748367 -86.0905228
72.2206116 65.3723907 -86.7069092
70.7845154 65.2744293 -85.5951233
69.3397827 65.2273407 -84.6618347
67.9126282 65.1923676 -83.9029312
66.5022430 65.1793518 -83.2691345
65.1192398 65.1444778 -82.6973114
50.0920563 65.2414322 -83.6508179
48.7612686 65.2839279 -84.3538742
47.4164429 65.3416138 -85.1939240
65.3249664 66.6786194 -86.2952118
63.9309196 66.6497879 -85.7949829
62.5191917 66.6486511 -85.4949188
61.1349220 66.6417542 -85.2488556
59.7621880 66.6360550 -85.0850449
58.4005394 66.6403198 -85.0331116
57.0240326 66.6548157 -85.1260834
55.6473885 66.6702271 -85.3343887
54.2952499 66.6909637 -85.6453400
52.9531326 66.7234268 -86.0653076
51.6069107 66.7824554 -86.6164551
50.2536049 66.8537674 -87.3338928
59.9902229 68.3128204 -89.4939728
58.6226540 68.3008270 -89.4068222
57.2409668 68.3140488 -89.5068436
55.8720322 68.3405151 -89.7718811
-194.7313690 -215.3201904 33.9124756
-195.2707520 -215.1583099 34.3621407
-195.8136139 -215.0677643 34.7823486
-195.6994019 -214.4601746 34.9828568
-86.8778076 -90.6343155 101.7958527
-87.4288254 -90.6115417 102.0482712
-87.9691238 -90.5973282 102.2266159
-88.5136032 -90.5886993 102.3915863
-89.0722351 -90.5838852 102.5043716
-89.6073837 -90.5787811 102.6342926
-90.1686096 -90.5769653 102.7134247
-90.7447891 -90.5857391 102.7447968
-91.3092499 -90.5929337 102.7767868
-91.8989716 -90.6044235 102.7659378
-92.4954376 -90.6191711 102.7275772
-93.0785370 -90.6526337 102.5939026
-93.6547012 -90.6817703 102.4660568
-80.0399399 -89.3861389 101.7457352
-80.5590668 -89.2939987 102.2855377
-81.0873566 -89.1912689 102.7992554
-96.0479050 -89.1134262 106.0690231
-96.6493530 -89.1821136 105.8566208
-77.6117096 -87.9266510 103.6501770
-101.0394287 -87.9811172 107.0771866
-102.7349396 -87.4193115 107.5204163
-73.2050400 -86.9952698 101.9437943
-73.7106018 -86.9006271 102.7047729
-74.1957092 -86.7844162 103.4524765
-76.2590714 -86.4523849 106.0193100
-102.5077515 -86.5952530 109.1397095
-103.1121216 -86.7145920 108.7168045
-71.4037323 -85.6829834 103.1870499
-71.9341965 -85.5315704 104.0474319
-104.5863953 -85.4135818 110.4018860
-70.7565994 -84.9596558 104.0691986
-69.1280899 -84.5322342 103.1995087
-69.6222534 -84.4197006 103.9872437
-70.1354446 -84.2990417 104.7983398
-70.6521301 -84.1950760 105.5686951
-66.9357529 -83.4231033 102.7417831
-67.4241333 -83.2945938 103.6645279
-67.9149780 -83.1882629 104.5270157
-68.4139404 -83.0802841 105.3543320
-108.9315567 -83.1109238 111.6371994
-109.5816040 -83.2120132 111.0764694
-110.2165680 -83.3032303 110.4760742
-66.3142548 -82.7679443 103.2787933
-66.2140961 -82.0061798 104.7278061
-109.8702850 -81.8446655 112.8935394
-110.5099869 -81.9264145 112.3326111
-65.6117020 -81.3849564 105.1986465
-66.1129837 -81.2862473 106.0527573
-112.3472824 -81.5345154 111.4050293
-66.0037766 -80.6066589 107.2212372
-110.8968658 -80.6209793 113.8714600
-111.5371475 -80.7094421 113.2711411
-112.1942596 -80.8324432 112.6467896
-65.9235687 -79.9026337 108.3852081
-112.0732956 -80.1230850 113.7677155
-111.9228134 -79.4480209 114.7669601
-112.5476913 -79.5345840 114.2652512
-113.1686249 -79.6297607 113.7300949
-113.8228989 -79.7344131 113.1404037
-62.6618919 -78.4081192 106.6840286
-114.1876297 -78.4658661 114.4784546
-114.0616989 -77.7892761 115.3409729
-61.5283012 -77.2417068 107.0689087
-113.9237900 -77.1277313 116.1752319
-114.5721741 -77.2207718 115.6236877
-115.2412491 -77.3185425 115.0309372
-115.9339981 -77.4190445 114.3851242
-115.0858002 -76.6279449 115.9002380
-61.3835678 -75.9188232 108.8905182
-114.9908371 -75.9900742 116.6707687
-61.3213959 -75.2673798 109.7063446
-59.6953201 -74.8673859 108.0211258
-60.1981125 -74.8139954 108.8155365
-60.7358742 -74.6990280 109.7030640
-61.2700577 -74.6150818 110.4964752
-58.1272278 -74.5425568 106.0858078
-115.9910126 -74.2326126 117.6986160
-57.5859375 -73.9819260 106.0403671
-58.0803337 -73.8748779 106.9519119
-115.8862762 -73.5983429 118.3978043
-58.0334740 -73.2154465 107.7965240
-57.4880600 -72.6687622 107.7262573
-57.9744377 -72.5815964 108.5557938
-119.5383530 -72.8474731 116.2781448
-56.9255676 -72.1393280 107.5827484
-119.4350891 -72.2090530 116.9450226
-120.1256866 -72.3191376 116.2825470
-56.3783531 -71.5943832 107.4561920
-56.9084282 -71.4713898 108.4087296
-94.5448380 -69.9194794 128.7593689
-119.3246841 -71.5686188 117.6093597
-94.5112534 -69.3458786 129.1112671
-97.1909256 -69.4132233 128.8644714
-55.7481079 -70.4398422 107.9199219
-94.4677277 -68.7684860 129.4546661
-96.6106567 -68.8335876 129.2883606
-97.1531830 -68.8343964 129.2203522
-55.7218971 -69.8024139 108.6253510
-120.3852692 -69.8879776 118.1168976
-52.6914711 -69.8374863 102.8502579
-53.1659546 -69.6769485 104.1368332
-53.6594086 -69.5076218 105.4191666
-54.1423607 -69.4023438 106.4754181
-54.6270065 -69.3394699 107.3933792
-55.1600990 -69.2625809 108.3533783
-55.6901131 -69.1713943 109.2845840
-120.2713013 -69.2464218 118.7367325
-52.6568108 -69.1779175 103.6928024
-120.2042542 -68.6522751 119.2749329
-52.6106071 -68.5326309 104.4487152
-120.1125870 -68.0372849 119.8408890
-120.7977905 -68.1222305 119.1703186
-121.4740753 -68.2344437 118.4420319
-122.1124649 -68.3355026 117.7448807
-122.6613770 -67.8077774 117.7300262
-51.5538979 -67.5063171 103.6358337
-122.5491257 -67.1334534 118.4016495
-123.2416229 -67.2455063 117.7357635
-51.5207787 -66.8594284 104.4172592
-122.4950104 -66.5471268 118.9069138
-122.4228821 -65.9414673 119.4061813
-123.0800781 -66.0356827 118.7798309
-123.7674103 -66.1363297 118.1115265
-123.5905838 -64.9262772 119.0807266
-51.3399506 -64.4024582 106.9429474
-51.3204231 -63.7913094 107.4874191
-123.4465256 -63.7313538 119.9560699
-124.1376419 -63.8269844 119.3097763
-50.2758408 -63.3900948 105.7875671
-123.3887939 -63.1402473 120.3516388
-48.7477798 -63.1502151 102.6204376
-49.2648849 -63.0026741 103.9512405
-49.7546463 -62.8891830 105.1672516
-50.2491493 -62.7826691 106.3265991
-123.3002243 -62.5380783 120.7731476
-124.0025406 -62.6347427 120.1155548
-124.6795883 -62.7218475 119.4733734
-78.2806015 -60.2506638 131.5441284
-124.5275040 -61.5272331 120.2216034
-125.2252808 -61.6123238 119.5316696
-49.1582756 -61.1887016 105.6060486
-125.8716507 -61.1223640 119.1649094
-76.6325226 -58.6025467 131.5975189
-77.1629028 -58.5940819 131.7780762
-77.6931534 -58.5920181 131.9530029
-78.2261887 -58.5883789 132.1234131
-125.7927933 -60.5207253 119.5403519
-50.1096840 -59.8099327 108.6848450
-48.0850906 -59.6138725 104.6753540
-48.5936012 -59.5009041 105.8519058
-49.0884628 -59.4015923 106.9772415
-49.5817566 -59.3120384 108.0492859
-50.0962410 -59.2203979 109.0869675
-48.0673637 -59.0141563 105.1282196
-125.6248627 -58.7732735 120.5440674
-48.0590248 -58.4124146 105.5914688
-125.4698563 -57.0506706 121.4258575
-126.1176834 -57.1149826 120.7756348
-77.0718994 -54.7523232 132.9251862
-125.4167404 -56.4757843 121.7049484
-77.0476456 -54.2093315 133.0539551
-125.3922729 -55.9089851 121.9417725
-47.4630241 -55.5856018 106.3608932
-47.9646034 -55.4922447 107.4349899
-77.0394287 -53.6625175 133.1818542
-78.6372223 -53.6417580 133.6659393
-79.1906357 -53.6362114 133.8196411
-79.7233505 -53.6360970 133.9547882
-80.2479172 -53.6300545 134.0776978
-82.4294357 -53.6147079 134.5569153
-82.9099884 -53.6126976 134.6699829
-83.4538727 -53.6127129 134.7774353
-127.9685287 -55.6162338 119.5076599
-47.9553833 -54.9149818 107.7528076
-75.4314041 -53.1500931 132.7538147
-75.9585266 -53.1388092 132.9424438
-76.4791870 -53.1350441 133.1198120
-77.0203247 -53.1235046 133.2982788
-78.6180954 -53.1048317 133.7822113
-83.4396362 -53.0695992 134.8924255
-127.9457932 -55.0480270 119.7563400
-46.9137421 -54.5298996 105.8802414
-78.6165085 -52.5576134 133.8991089
-83.4318619 -52.5295105 134.9942780
-87.1874237 -52.5372505 135.5334320
-87.7258377 -52.5444260 135.5835876
-88.2883682 -52.5498047 135.6258850
-88.8357697 -52.5545120 135.6595001
-91.5342560 -52.5833740 135.7717743
-46.8995743 -53.9453812 106.1635666
-82.9167633 -51.9367294 135.0023041
-83.4196091 -51.9864464 135.0938416
-88.8252869 -52.0207138 135.7658234
-91.5268707 -52.0376282 135.8665924
-92.0749512 -52.0476990 135.8717194
-92.6019211 -52.0476646 135.8683929
-93.1794815 -52.0688477 135.8519592
-82.3424454 -51.3785477 134.9961700
-83.9516449 -51.4499168 135.2904205
-84.4951401 -51.4516487 135.3850250
-85.0269852 -51.4533577 135.4696350
-85.5524979 -51.4500580 135.5453796
-86.0961075 -51.4521027 135.6170959
-86.6358185 -51.4548378 135.6868439
-88.8065033 -51.4766617 135.8670502
-93.7215958 -51.5370827 135.9352112
-94.2845154 -51.5504913 135.9088593
-94.8250580 -51.5580254 135.8795471
-95.3596115 -51.5657578 135.8449554
-46.4046059 -52.8832779 105.5373001
-46.9114227 -52.7894020 106.6940994
-80.7113953 -50.9180946 134.7566376
-81.2538300 -50.9119606 134.8731842
-82.3172836 -50.9088821 135.0797424
-83.9407806 -50.9081459 135.3841095
-85.5437622 -50.9112778 135.6468048
-86.0897369 -50.9146538 135.7181854
-88.7859192 -50.9247208 135.9640198
-95.3482590 -51.0284119 135.9446106
-129.1523438 -52.9291496 119.1635208
-129.8610229 -53.0138817 118.3772125
-45.8410645 -52.4238472 104.4925613
-76.9885559 -50.4046249 133.8314362
-77.5042725 -50.4046440 133.9784241
-78.0327072 -50.3995934 134.1288452
-78.5731659 -50.3953667 134.2833862
-79.1272888 -50.3853760 134.4413757
-79.6506042 -50.3837166 134.5848846
-80.1675262 -50.3832054 134.7196198
-83.9389725 -50.3680992 135.4733429
-88.7862854 -50.3914375 136.0558624
-90.4028397 -50.4070015 136.1251678
-90.9527512 -50.4305077 136.1398926
-95.3463821 -50.4882927 136.0386505
-95.8925629 -50.4981766 135.9897156
-96.4424133 -50.5116577 135.9367218
-129.1178131 -52.3613396 119.3594513
-129.8171082 -52.4407806 118.5891342
-45.8444557 -51.8465118 104.7627563
-83.9383316 -49.8272247 135.5594940
-88.7818832 -49.8520317 136.1496124
-90.3467026 -49.9225922 136.2215271
-129.0960541 -51.7963142 119.5451050
-45.8386955 -51.2733536 105.0066681
-70.1149979 -49.4574509 131.2106018
-70.6260452 -49.4464035 131.4602203
-71.1386566 -49.4375534 131.6947021
-71.6274948 -49.4326286 131.9015656
-72.1905289 -49.4144783 132.1525726
-72.7334213 -49.3967171 132.3917847
-83.3745117 -49.2878838 135.5298920
-83.9310684 -49.2885246 135.6436920
-98.1028976 -49.4737816 135.9283295
-98.6658936 -49.4838486 135.8549957
-99.2046356 -49.4936790 135.7810974
-99.7550049 -49.5120926 135.6978607
-129.0646362 -51.2314377 119.7377396
-45.8385391 -50.7001762 105.2523651
-70.1007233 -48.9192963 131.2829590
-99.7748947 -48.9791794 135.7695923
-129.0098114 -50.6630135 119.9338989
-45.8187752 -50.1354713 105.4391632
-70.0965042 -48.3807907 131.3552856
-99.7534714 -48.4359970 135.8444672
-100.2950211 -48.4460411 135.7535706
-100.8521881 -48.4635124 135.6551971
-130.4158936 -50.2640495 118.4842682
-45.8079453 -49.5692635 105.6344910
-70.0973892 -47.8366013 131.4288940
-130.3677521 -49.6978073 118.6490936
-45.8004761 -49.0021324 105.8268509
-67.9700089 -47.3610573 130.3865509
-68.5003891 -47.3428612 130.6746979
-101.4167175 -47.4040146 135.6750336
-101.9726486 -47.4194984 135.5611725
-130.3424835 -49.1356659 118.7939224
-101.9546051 -46.8772087 135.6258850
-103.0717926 -46.3748283 135.4197083
-45.2404480 -47.4118729 104.9582748
-45.7925529 -47.3171883 106.2003555
-69.5394287 -45.7039642 131.3839874
-70.0678711 -45.6906242 131.6257477
-103.0628433 -45.8368530 135.4569244
-69.5586395 -45.1632500 131.4242706
-70.0854797 -45.1521339 131.6633301
-101.9452438 -45.2676773 135.7437897
-128.8833160 -46.7680817 120.7502289
-129.5548859 -46.8317680 120.0350647
-69.5522919 -44.6276321 131.4514313
-101.9300461 -44.7300911 135.7775421
-128.8757477 -46.2155418 120.8168335
-66.9158859 -44.1652679 130.0173340
-67.4364700 -44.1506577 130.3164368
-101.9344711 -44.1977806 135.8058624
-102.4927979 -44.2119789 135.6777191
-103.0635376 -44.2288055 135.5423279
-128.8738251 -45.6653862 120.8742218
-44.7558746 -45.2574272 104.1495209
-66.9069672 -43.6309319 130.0285797
-103.0457001 -43.6927643 135.5693817
-128.8715973 -45.1145134 120.9256592
-129.5139160 -45.1736832 120.2274170
-130.2135925 -45.2424545 119.4306335
-130.9265442 -45.3124619 118.6146240
-44.7391090 -44.7057152 104.1544113
-52.3950996 -43.8315086 117.5098572
-52.9272423 -43.7981834 118.1689758
-53.4235306 -43.7406998 118.8044510
-53.9334869 -43.7018738 119.4135361
-66.9172058 -43.0934639 130.0478058
-103.0533676 -43.1599312 135.5875702
-103.6183853 -43.1752968 135.4460449
-104.1873856 -43.1926041 135.3012543
-44.7563782 -44.1482887 104.2228851
-52.2823334 -43.2863274 117.2767105
-53.9241028 -43.1619377 119.4136505
-66.9187927 -42.5586891 130.0550385
-104.2002335 -42.6600266 135.3083496
-44.7715073 -43.5926476 104.2607117
-53.9248352 -42.6231270 119.3950043
-66.9136658 -42.0246429 130.0507050
-68.4732742 -41.9807930 130.9434662
-104.2037888 -42.1266251 135.3081512
-43.7374840 -43.2243347 101.5318909
-44.2567863 -43.1296806 102.9308167
-44.7721558 -43.0396004 104.2730865
-52.2595139 -42.2132301 117.2001038
-66.9055557 -41.4918861 130.0362549
-67.4372482 -41.4750710 130.3437347
-67.9625092 -41.4610214 130.6410980
-68.4783020 -41.4477348 130.9318085
-104.1915207 -41.5910683 135.3013916
-43.7384834 -42.6703110 101.5439987
-44.2538872 -42.5760574 102.9547424
-44.7587395 -42.4886627 104.2746353
-52.3208275 -41.6325035 117.3612518
-52.7063713 -41.6701012 117.3668289
-53.9918785 -41.5122871 119.4201889
-67.9590607 -40.9277763 130.6222839
-103.0590210 -41.0242653 135.5629883
-44.7603798 -41.9339561 104.3265610
-52.4138680 -41.1006660 117.5231705
-52.8944969 -41.0095024 118.1281586
-53.4440079 -40.9740067 118.7792282
-53.9520569 -40.9967270 119.3941422
-67.9646606 -40.3945503 130.6044769
-103.0649490 -40.4926414 135.5340424
-45.7783508 -41.2300987 106.7106323
-66.9417114 -39.8915749 129.9763794
-67.4628067 -39.8759384 130.2831726
-103.0670471 -39.9610481 135.5020142
-45.7799301 -40.6830673 106.6760025
-66.9196472 -39.4087219 129.9114685
-103.0613937 -39.4294357 135.4683075
-45.7764702 -40.1388359 106.5967865
-65.9028091 -38.8582840 129.2677917
-45.2329597 -39.6653175 105.3373108
