-114.4419327 6.6174440 126.8671341
-115.6863403 6.6058941 125.8973999
-116.9398193 6.5921850 124.8305130
94.0014420 7.8591452 -73.8559265
92.4678040 7.8555775 -71.7352066
90.9649506 7.8592567 -69.9142456
40.6188316 7.6584206 -61.9227333
39.3149567 7.6554704 -62.7177849
-53.7705612 7.9176335 110.9630508
-54.7749557 7.9093437 112.9438934
-55.7678185 7.9088354 114.7277374
-113.3762131 7.7036490 126.6156693
-114.6105804 7.6947403 125.6900330
-115.8644028 7.6828122 124.6682510
-117.1325378 7.6735835 123.5331345
95.3827209 9.1964664 -74.1195831
93.8256378 9.2034016 -71.8587646
43.2098007 9.0199356 -59.3870468
41.9029465 8.9984474 -60.0601959
40.5735207 8.9887123 -60.7900467
-55.8749657 8.9955292 113.1217957
-113.5488129 8.7791595 125.3980255
-114.7801514 8.7711658 124.4274445
96.7663879 10.5341005 -74.5427246
95.2055283 10.5373421 -72.1879730
93.6788101 10.5319529 -70.1354675
43.1575356 10.3296547 -58.3978157
41.8495636 10.3224297 -59.0385818
-56.0099411 10.0825634 111.3868484
-113.7268448 9.8614855 124.0810776
-114.9736862 9.8523178 123.0332336
96.5875473 11.8759422 -72.6685028
45.7608643 11.6547203 -56.3729134
44.4508095 11.6513081 -56.8875961
43.1193466 11.6531858 -57.4592972
-56.1281738 11.1960564 109.2799072
-57.1339760 11.1607809 111.3535156
-58.1123886 11.1683884 113.1392365
-111.4494019 10.9551334 124.5697098
-112.6794281 10.9465675 123.6567688
-113.9183044 10.9395113 122.6487274
-115.1875305 10.9413157 121.5165329
98.0174637 13.2120304 -73.3749161
96.4534607 13.2028017 -71.0515976
45.7216034 12.9821968 -55.5042419
44.3982773 12.9687271 -56.0300941
-57.2693329 12.2682323 109.1777802
-58.2586899 12.2518463 111.1779175
-111.6426010 12.0384779 123.1336060
-112.8908539 12.0384388 122.1332855
97.8639984 14.5433292 -71.7637482
96.3244476 14.5247650 -69.6100922
45.6812439 14.2919645 -54.7261276
-58.4018555 13.3748894 108.9712524
-59.4049606 13.3436642 110.9660797
-60.3911743 13.3374357 112.6659317
-61.3847351 13.3314247 114.2271500
-62.3917465 13.3263359 115.6334076
-109.3917313 13.1354656 123.3607788
-110.6176453 13.1308546 122.5028000
-111.8583298 13.1277246 121.5410385
99.2952499 15.8834352 -72.6687393
97.7361984 15.8651114 -70.3388062
96.2108612 15.8467255 -68.3237610
45.6373901 15.5960817 -54.0116959
-59.5459061 14.4846468 108.6213989
-60.5494881 14.4432888 110.5579681
-61.5473442 14.4229813 112.2645874
-62.5270119 14.4215384 113.7762299
-109.5947418 14.2210646 121.7738876
-110.8425064 14.2220621 120.8196640
-112.0971375 14.2218390 119.7755966
100.7807617 17.2164192 -73.8391876
99.1792145 17.2055206 -71.2918549
45.6211510 16.9119225 -53.3279495
-61.7089615 15.5365505 109.9968719
-62.6952324 15.5118084 111.6885529
-63.7020454 15.5115986 113.2024765
-64.7117157 15.5007820 114.5734253
-65.7289276 15.4955482 115.8013916
-66.7464294 15.4831161 116.9262390
-107.3824768 15.3145771 121.7459869
-108.6192627 15.3218403 120.8947678
-109.8343964 15.3194122 119.9828033
100.6448288 18.5454674 -72.4674301
99.0434723 18.5269890 -70.0104370
45.5739632 18.2144432 -52.7293472
-62.8791046 16.6357574 109.2389450
-63.8853073 16.6065235 110.9570389
-64.8884277 16.5873528 112.4833221
-65.8986664 16.5792999 113.8432312
-66.9054489 16.5744724 115.0712738
-107.6191483 16.4163189 119.9271698
-108.8686066 16.4220123 118.9862518
-110.0997849 16.4230881 117.9830093
100.5262604 19.8671188 -71.2274017
98.9387817 19.8460312 -68.8943787
48.1828461 19.5335331 -51.3043900
46.8835220 19.5392151 -51.6923294
45.5651169 19.5346394 -52.1399536
-64.0683060 17.7656097 108.3290710
-67.0756760 17.6933174 112.9441986
-103.0604553 17.5152740 120.9309616
-104.2478409 17.5146332 120.3024902
-105.4376984 17.5160732 119.5952148
-106.6566010 17.5195618 118.7848282
-107.8791885 17.5193901 117.8963699
-109.1423721 17.5438995 116.8570404
100.4200211 21.1852684 -70.1320343
98.8591690 21.1583462 -67.9205856
48.1466141 20.8340740 -50.7741852
46.8379517 20.8332481 -51.1656494
45.5330925 20.8329430 -51.5971718
-67.2831192 18.7983818 110.4872208
-103.3069992 18.6214008 118.9888000
-104.4878387 18.6204262 118.2937927
-105.7098541 18.6258736 117.4751129
-106.9360504 18.6382465 116.5764313
101.8921967 22.5313778 -71.5158997
100.3315048 22.5007629 -69.1587677
98.7736511 22.4735756 -67.0271301
48.1285934 22.1423531 -50.2833366
46.8182831 22.1385574 -50.6722031
-67.5008545 19.9638672 107.5257492
-68.5102005 19.9006577 109.1519623
-69.5342026 19.8763580 110.5607224
-70.5480118 19.8663940 111.8005219
-71.5672913 19.8598995 112.9312744
-72.5900955 19.8418541 113.9585800
-73.6328659 19.8358822 114.8379898
-98.8406830 19.7197075 119.1094055
-99.9933472 19.7241497 118.6489105
-101.1787338 19.7257652 118.1162491
-102.3476028 19.7222977 117.5211716
-103.5655975 19.7290745 116.7936325
-104.7673340 19.7360153 116.0011597
101.7754974 23.8552170 -70.5462494
100.2375793 23.8146706 -68.2767944
98.6956253 23.7854996 -66.2354736
48.1033707 23.4408092 -49.8559036
46.8030624 23.4460678 -50.2217598
-69.7671814 21.0554008 107.4947968
-70.7865982 20.9940853 108.9649811
-71.7985382 20.9712639 110.2744522
-72.8121796 20.9626007 111.3971100
-73.8455811 20.9463768 112.4265976
-99.0915451 20.8348465 116.9255142
-100.2571869 20.8344994 116.4015121
-101.4566345 20.8415604 115.7738953
-102.6550217 20.8528557 115.0646820
-103.8835754 20.8837547 114.2348022
101.6976166 25.1686363 -69.7191086
48.0815086 24.7435856 -49.4545822
46.7699585 24.7442360 -49.8228416
-73.0656815 22.1074677 108.4152374
-74.0988007 22.0675430 109.5898590
-75.1306000 22.0592117 110.6106186
-76.1718826 22.0490112 111.5354614
-77.2028198 22.0411186 112.3702164
-78.2531509 22.0281639 113.1267090
-79.3232727 22.0201569 113.7663498
-80.3844223 22.0146198 114.3119354
-94.7259979 21.9556923 116.0356674
-95.8751678 21.9527359 115.7488098
-97.0349579 21.9520721 115.3820343
-98.2060928 21.9550018 114.9230194
-99.3892212 21.9648514 114.3854904
-100.5801773 21.9882507 113.7729874
103.2470016 26.5232944 -71.4993896
101.6242676 26.4835129 -68.9620590
48.0578156 26.0477676 -49.0804214
46.7445564 26.0478973 -49.4569016
-75.3915863 23.2300110 107.2929382
-76.4571915 23.1694584 108.4003143
-77.4831467 23.1666050 109.3519440
-78.5279617 23.1507015 110.2321625
-79.5890579 23.1472492 110.9643402
-80.6438446 23.1428432 111.5976639
-95.0241547 23.0802002 113.3687820
-96.1807632 23.0820866 112.9990387
-97.3618698 23.0868874 112.5530777
-98.5471191 23.1176891 112.0043640
103.1529694 27.8436470 -70.7613907
101.5769806 27.7952042 -68.3297272
45.4458923 27.3607388 -49.5615997
-79.9228821 24.2819653 107.4500351
-80.9774017 24.2692356 108.2526321
-82.0211792 24.2791405 108.9491272
-83.0853729 24.2517433 109.5285034
-84.1800385 24.2439060 109.9713135
-85.2584686 24.2367687 110.3495483
-88.5504608 24.2223549 111.0207672
-89.6723938 24.2131233 111.1020584
-90.7907181 24.2156487 111.0484314
-91.9310989 24.2164555 110.9284210
-93.0694046 24.2138062 110.7649002
-94.2294540 24.2312794 110.4735413
-95.4037552 24.2680588 110.0839920
104.7132568 29.2143593 -72.8987350
103.0954590 29.1598473 -70.1455841
101.5258942 29.1091003 -67.7762375
45.4149170 28.6631966 -49.2563629
-83.4996185 25.4713554 105.2300415
-84.5769272 25.4597912 105.8975754
-85.6589584 25.4556084 106.4005966
-88.9514771 25.4402847 107.1736679
-90.0856628 25.4376736 107.1977005
104.6468048 30.5324707 -72.2913208
71.8340454 29.9737682 -47.7637177
70.4926605 29.9650955 -47.4874802
69.1454620 29.9583473 -47.2437057
67.8152466 29.9500084 -47.0327339
66.4683762 29.9475327 -46.8564034
65.1495667 29.9429455 -46.7237282
63.8054428 29.9385757 -46.6281586
62.4915352 29.9374161 -46.5626068
61.1583443 29.9326935 -46.5319023
59.8520966 29.9324932 -46.5495491
58.5199585 29.9305496 -46.6026802
57.2064743 29.9307995 -46.6807098
55.9000168 29.9276695 -46.7846489
54.5702744 29.9298973 -46.9307671
53.2550468 29.9290657 -47.1240921
51.9424400 29.9354057 -47.3483734
45.3859558 29.9581509 -48.9830055
106.3179474 31.9186153 -75.0101547
104.5827332 31.8545380 -71.7924347
71.8238449 31.2651253 -47.5458984
70.4547119 31.2625885 -47.2690773
69.1370392 31.2534790 -47.0227814
67.7946548 31.2499561 -46.8046570
66.4529114 31.2408199 -46.6323509
61.1351929 31.2275009 -46.3259735
59.8250198 31.2239990 -46.3445854
58.4980812 31.2233086 -46.3956757
53.2513275 31.2290001 -46.9012375
51.9306946 31.2329788 -47.1434364
45.3869019 31.2618980 -48.7544250
104.5573425 33.1734314 -71.4139557
71.7869873 32.5645485 -47.3513527
67.7615051 32.5443230 -46.6179810
66.4456329 32.5350876 -46.4597282
61.1281662 32.5200119 -46.1697273
59.8108292 32.5247803 -46.1715050
58.5015297 32.5219040 -46.2248840
53.2155838 32.5143089 -46.7039604
51.9032211 32.5293198 -46.9856720
50.6070633 32.5370445 -47.2242699
49.3001213 32.5418167 -47.4784927
45.3677597 32.5618782 -48.5777283
44.0595741 32.5705872 -49.0133820
42.7379913 32.5781097 -49.4744644
104.5020752 34.4935188 -71.0512543
71.7745590 33.8605728 -47.1824303
67.7720032 33.8370094 -46.4800186
66.4200134 33.8344727 -46.3180161
65.0963287 33.8289528 -46.1782646
63.7745628 33.8250885 -46.0833054
62.4523849 33.8200417 -46.0310822
61.1151123 33.8206406 -46.0143280
59.7965546 33.8209572 -46.0254745
58.4784546 33.8185501 -46.0853195
57.1709290 33.8198318 -46.1433334
53.2015686 33.8321915 -46.5932846
51.8927155 33.8303795 -46.8447647
50.5995102 33.8361893 -47.0628281
49.2820358 33.8418694 -47.3396683
45.3545456 33.8640327 -48.4300995
44.0612755 33.8746376 -48.8598671
42.7410545 33.8847580 -49.3346558
41.4390640 33.8954887 -49.8440704
104.4875565 35.8152122 -70.8320923
71.7589569 35.1570892 -47.0642548
70.4271011 35.1480179 -46.7949600
65.1020050 35.1250305 -46.0782471
63.7569313 35.1203232 -45.9665756
62.4314232 35.1175232 -45.8954163
61.1025543 35.1158028 -45.8993683
59.7878342 35.1172447 -45.9139786
58.4648666 35.1146202 -45.9596176
57.1527786 35.1166878 -46.0259781
55.8433914 35.1182861 -46.1160927
54.5210571 35.1212921 -46.2632713
49.2713585 35.1427193 -47.2456207
42.7232437 35.1893883 -49.2336159
41.4302216 35.2018890 -49.7449684
40.1099129 35.2153091 -50.3105698
104.4545288 37.1381187 -70.6533508
71.7482529 36.4543228 -46.9941711
70.4096298 36.4459457 -46.7205582
65.0772095 36.4223747 -46.0035400
63.7539673 36.4172401 -45.8781700
62.4170952 36.4150009 -45.8161240
61.0991478 36.4134483 -45.8115463
59.7714462 36.4132690 -45.8211708
58.4620171 36.4145622 -45.8671761
57.1392899 36.4144630 -45.9525871
55.8380699 36.4168015 -46.0449524
49.2647514 36.4434433 -47.1676025
42.7188873 36.4946861 -49.1504326
41.4260025 36.5082550 -49.6676064
40.1172333 36.5235596 -50.2388382
38.8510551 36.5459518 -50.8633194
37.8289795 36.5604019 -51.4881058
106.1058121 38.5534439 -73.6230240
104.4484558 38.4634247 -70.5886383
71.7561035 37.7528458 -46.9645233
70.4072723 37.7429886 -46.6774445
65.0771713 37.7193985 -45.9423599
61.0839882 37.7116547 -45.7370605
59.7765388 37.7116814 -45.7702522
58.4543228 37.7121353 -45.8307953
57.1358261 37.7146988 -45.9134216
55.8191452 37.7163467 -46.0022354
50.5596466 37.7378616 -46.8293915
49.2402229 37.7458420 -47.1243362
47.9458847 37.7540627 -47.4303207
46.6467209 37.7637863 -47.7771606
45.3241425 37.7750511 -48.1807404
44.0308342 37.7871628 -48.6173592
42.7134857 37.8007774 -49.1030235
41.4059792 37.8154755 -49.6297760
37.4908104 37.8678513 -51.4661484
36.1795654 37.8869781 -52.1488724
106.1248703 39.8863754 -73.6339798
104.4466171 39.7907715 -70.5983734
71.7389832 39.0518303 -46.9524269
70.3880081 39.0413132 -46.6471405
69.0566406 39.0329971 -46.4098129
67.7381592 39.0279922 -46.2266693
66.3850708 39.0214691 -46.0531158
65.0636139 39.0173340 -45.9150429
61.0774689 39.0083847 -45.7274551
59.7698822 39.0094223 -45.7652779
58.4384880 39.0122833 -45.8227081
47.9460602 39.0576057 -47.4078751
46.6497765 39.0672531 -47.7558670
45.3279839 39.0799217 -48.1613464
44.0266800 39.0931702 -48.5999794
42.7191467 39.1070557 -49.0727158
41.4122200 39.1230316 -49.5975952
37.4904404 39.1782074 -51.4363060
36.1895447 39.1991196 -52.1322327
34.8729057 39.2223701 -52.8921890
33.5699234 39.2467804 -53.7077866
21.7814083 39.5624199 -64.0685883
20.4608879 39.6134644 -65.7308197
19.1232224 39.6701279 -67.5775452
17.8305435 39.7303543 -69.5526810
104.4573517 41.1213570 -70.6913300
66.3778534 40.3200684 -46.0709915
65.0608978 40.3163681 -45.9422569
63.7315674 40.3135948 -45.8663025
62.4172440 40.3131332 -45.8161011
61.0773773 40.3120956 -45.7706108
47.9288864 40.3627586 -47.4402390
46.6296196 40.3734856 -47.7962341
45.3172646 40.3864250 -48.1966705
41.3763084 40.4179955 -49.6081963
34.8682022 40.5375786 -52.9244728
33.5782738 40.5628662 -53.7397232
32.2876816 40.6032715 -54.6280136
29.6415062 40.6514549 -56.4872475
28.3227558 40.6865768 -57.5518990
27.0313606 40.7219582 -58.6790733
23.0954514 40.8476410 -62.6060562
21.7532234 40.8988762 -64.1627350
20.4516487 40.9513435 -65.8101654
19.1222115 41.0105591 -67.6594391
17.8159943 41.0751877 -69.6617126
104.4517593 42.4523163 -70.8269272
66.3786926 41.6214867 -46.1290169
65.0651398 41.6180649 -46.0073967
63.7167168 41.6127243 -45.9064865
62.4197884 41.6126099 -45.8407593
61.0842934 41.6108551 -45.8215790
55.8222275 41.6187820 -46.0788116
50.5565071 41.6477280 -46.9036255
49.2349968 41.6586685 -47.2000351
47.9253159 41.6695709 -47.5169449
46.6204109 41.6811256 -47.8727264
34.8708801 41.8540115 -52.9842339
33.5629005 41.8812141 -53.7957420
32.2621040 41.9091644 -54.6613655
30.9384766 41.9417191 -55.5981445
29.6431141 41.9743576 -56.5796127
28.3350792 42.0104446 -57.6411438
27.0215645 42.0495529 -58.7796707
25.7065887 42.0905075 -59.9992752
24.3875618 42.1355476 -61.3137970
23.0863819 42.1825256 -62.7206039
21.7640419 42.2339249 -64.2630463
20.4418945 42.2913094 -65.9451294
19.1160641 42.3543816 -67.8012314
17.8259430 42.4202805 -69.7965240
104.4798813 43.7900963 -71.1112976
69.0654449 42.9360046 -46.5976486
67.7293930 42.9290504 -46.3875961
66.3867111 42.9265938 -46.2244263
65.0641174 42.9204407 -46.0913162
63.7261887 42.9136276 -45.9766273
59.7554092 42.9137688 -45.9364929
58.4467659 42.9145966 -45.9608688
57.1281013 42.9161530 -46.0526924
55.8118210 42.9225769 -46.1724815
54.4754028 42.9322815 -46.3314667
53.1791916 42.9374123 -46.5087929
47.9243622 42.9771423 -47.6096382
46.6260338 42.9880638 -47.9672928
45.3143845 43.0037651 -48.3635864
41.3998413 43.0553360 -49.7985649
19.1215115 43.6980820 -67.9813156
17.7971458 43.7725601 -70.0596619
104.4954987 45.1289825 -71.4569702
69.0534286 44.2398529 -46.7140198
67.7218323 44.2302704 -46.4981537
66.3866577 44.2279892 -46.3381271
65.0571823 44.2194290 -46.2100372
63.7267494 44.2209702 -46.1096954
59.7638245 44.2234840 -46.0842361
58.4421158 44.2182312 -46.1128502
57.1201057 44.2278595 -46.1958046
55.8100471 44.2271004 -46.3014412
54.4865952 44.2356377 -46.4502487
53.1826172 44.2374649 -46.6175842
47.9353752 44.2856750 -47.7264938
46.6307335 44.2967796 -48.0878296
45.3186073 44.3133011 -48.4980392
44.0096970 44.3318100 -48.9393463
42.7078056 44.3462296 -49.4104004
41.4009972 44.3692169 -49.9483376
19.1277409 45.0453911 -68.2296219
104.5607605 46.4801445 -71.9195404
69.0652084 45.5473137 -46.8673096
67.7296448 45.5342255 -46.6458473
62.4121513 45.5216904 -46.2222290
53.1867447 45.5493393 -46.7751007
51.8681793 45.5588188 -46.9928207
50.5663986 45.5705681 -47.2467995
49.2467690 45.5807228 -47.5488625
47.9450951 45.5950127 -47.8762856
46.6315918 45.6097832 -48.2445564
19.1257439 46.3974037 -68.5656357
17.7899590 46.4821396 -70.6493912
104.6081467 47.8294411 -72.4418793
69.0670166 46.8520508 -47.0568657
67.7363892 46.8412018 -46.8488922
62.4214973 46.8286476 -46.3997154
53.1886292 46.8597298 -46.9716797
51.8713264 46.8658981 -47.1837311
50.5787125 46.8817787 -47.4454422
49.2454758 46.8945351 -47.7492371
47.9515991 46.9034042 -48.0757446
46.6386223 46.9231186 -48.4465828
19.1226120 47.7528763 -68.9718170
17.7887688 47.8436089 -71.0796890
104.6684570 49.1876831 -73.0860138
103.0354691 49.0699730 -70.2464523
101.4488525 48.9700089 -67.8217545
69.0821838 48.1610565 -47.2954559
67.7485046 48.1528778 -47.0950661
66.3952026 48.1444283 -46.9192810
65.0855103 48.1504936 -46.7952347
63.7528458 48.1405296 -46.6931229
62.4267464 48.1414185 -46.6346512
61.0909805 48.1405411 -46.6193962
59.7733994 48.1477737 -46.6375351
21.7540264 48.9612694 -65.7201233
20.4557533 49.0303917 -67.4636383
19.1211758 49.1126595 -69.4424133
101.4832916 50.3165054 -68.3855667
69.1136093 49.4809570 -47.5765152
67.7650299 49.4623260 -47.3549080
66.4137726 49.4575729 -47.1845894
65.0885468 49.4543915 -47.0603981
63.7628708 49.4502945 -46.9676819
62.4422073 49.4587135 -46.9153328
61.0963287 49.4496880 -46.8749161
59.7869492 49.4490433 -46.8827896
21.7518730 50.3154869 -66.1938553
20.4554119 50.3883476 -67.9769516
19.1243591 50.4791183 -70.0006409
103.1799545 51.7928734 -71.6466293
101.5379944 51.6679611 -69.0619278
63.7775841 50.7656403 -47.2652397
59.8034325 50.7590332 -47.1648407
24.4106560 51.5260696 -63.4905396
23.0994701 51.5933762 -65.0137329
21.7694244 51.6701241 -66.7125397
20.4547844 51.7546196 -68.5800781
101.6117554 53.0294113 -69.8529739
63.7840080 52.0756874 -47.5908890
59.8275032 52.0801163 -47.5202713
24.4163570 52.8824120 -64.0366745
23.1043434 52.9535065 -65.5977325
21.7797909 53.0358467 -67.3366394
20.4626999 53.1238632 -69.2581635
19.1240883 53.2278519 -71.3776627
101.6914520 54.3945351 -70.7660904
63.8159485 53.4049873 -47.9897270
62.4999733 53.3949966 -47.9194069
61.1460571 53.3997231 -47.8991013
59.8278275 53.3959808 -47.9009514
24.4130859 54.2474518 -64.6744690
23.0985203 54.3213882 -66.2758484
101.7805099 55.7759361 -71.7685089
63.8240929 54.7239189 -48.4038086
62.5098724 54.7209892 -48.3271599
61.1721153 54.7297974 -48.3045197
59.8495522 54.7207108 -48.3156624
24.4250298 55.6090965 -65.3522797
23.1134262 55.6919327 -66.9818115
101.9067841 57.1727905 -72.9420013
100.3191681 57.0389328 -70.3400574
98.7477493 56.9295845 -68.0437393
24.4263363 56.9821320 -66.1262589
100.4623032 58.4429283 -71.5320206
98.8223572 58.2960434 -69.0703278
24.4548073 58.3605766 -66.9633255
98.9402542 59.6882095 -70.2574997
97.3630066 59.5700684 -68.0018997
95.8536301 59.4812584 -66.0864105
24.4781590 59.7411842 -67.9069748
99.0799561 61.1028595 -71.5623169
97.4787216 60.9617996 -69.2388000
95.9545059 60.8646851 -67.2044907
24.4939766 61.1359367 -68.9657135
97.5924911 62.3611221 -70.6097260
96.0254974 62.2452354 -68.3996811
27.1318378 62.3446884 -66.6876068
25.8091145 62.4400558 -68.3494644
24.4926796 62.5478325 -70.1669159
97.7275848 63.7797737 -72.1470032
96.1522598 63.6476593 -69.8176804
27.1579933 63.7393341 -67.8074799
25.8321381 63.8464394 -69.5687180
24.5168839 63.9654846 -71.4749908
96.2820816 65.0643005 -71.4050446
94.7599487 64.9478760 -69.2438126
93.2825623 64.8568649 -67.3921585
29.8006172 64.9618301 -65.9791870
28.4868317 65.0508270 -67.4499893
27.1769676 65.1501160 -69.0936279
25.8676720 65.2607574 -70.9273529
96.4668427 66.5251465 -73.1979065
94.8941422 66.3668900 -70.8712463
93.3865891 66.2520218 -68.8403549
29.8174419 66.3746338 -67.2287521
28.5099449 66.4705048 -68.7951355
27.2144604 66.5805206 -70.5854645
95.0695953 67.8221741 -72.7270889
93.5412827 67.6866226 -70.5547028
91.9816895 67.5667725 -68.5600586
90.4969025 67.4750977 -66.8736191
29.8504124 67.7875671 -68.6009903
93.6973724 69.1404266 -72.4462433
92.1318130 69.0037079 -70.3315277
90.6238174 68.9004440 -68.4843292
29.8868713 69.2201385 -70.1380844
92.2797546 70.4479675 -72.2565918
90.7619705 70.3313828 -70.2877808
89.2623596 70.2299652 -68.5210800
87.8102798 70.1416702 -67.0009995
32.5431671 70.4605179 -68.6478577
31.2260342 70.5632401 -70.1860123
29.9269810 70.6747360 -71.8496933
92.5077515 71.9654236 -74.5836487
90.9284058 71.7984390 -72.3163605
89.4179306 71.6734390 -70.4146805
87.9702759 71.5947952 -68.7948914
32.5942383 71.9022522 -70.3227768
31.2820492 72.0209656 -71.9614105
89.5861130 73.1412048 -72.6016083
88.1122894 73.0361938 -70.7765045
86.6128235 72.9404984 -69.1150208
85.1522598 72.8583069 -67.7082672
37.8702087 72.9865723 -66.7764282
36.5601883 73.0688629 -67.9334564
35.2583809 73.1562424 -69.2072220
33.9394569 73.2614136 -70.6541138
32.6270599 73.3797302 -72.2468262
89.8205566 74.6756210 -75.1795502
88.2898331 74.5132523 -73.0955963
86.7767792 74.3987579 -71.2479095
85.2947235 74.3101654 -69.6550751
37.9295082 74.4293671 -68.4684448
36.6278572 74.5207901 -69.7127380
35.3097992 74.6273041 -71.1342621
86.9800186 75.9020615 -73.7610321
85.4436493 75.7646713 -71.8718414
83.9911041 75.6833496 -70.3642960
82.5497437 75.6080856 -69.0320816
40.5998535 75.7275314 -68.1000900
39.2947540 75.8135376 -69.1929550
37.9705238 75.9151154 -70.4447098
36.6787720 76.0040665 -71.7849579
84.1803284 77.2041473 -72.8087158
82.7032242 77.0820007 -71.2987823
40.6686592 77.2098389 -70.0888977
39.3745499 77.2967834 -71.2649918
38.0697861 77.3924255 -72.6054153
36.7597694 77.5071869 -74.1212769
84.4139252 78.7737122 -75.7697144
82.9049301 78.6026459 -74.0223541
81.4445496 78.4919357 -72.4580307
79.9722595 78.4142914 -71.1230774
78.5564423 78.3715515 -70.0632401
77.1264954 78.2985992 -69.0375519
43.3717308 78.5312653 -70.1121902
42.0662613 78.6181335 -71.1642227
40.7568893 78.7053146 -72.3434982
39.4628830 78.7928925 -73.6426239
81.6598740 80.0468979 -75.4862595
80.1630096 79.9292145 -73.8796997
78.7187042 79.8545074 -72.5895004
77.2781677 79.7781067 -71.4189301
43.4724731 80.0405884 -72.4789200
42.1690559 80.1196671 -73.6385422
40.8504562 80.2463760 -75.0174561
78.9604034 81.4673615 -75.6954727
77.4688568 81.3151093 -74.2939606
76.0578537 81.2438049 -73.1565170
74.6269608 81.1924591 -72.1702118
73.2124023 81.1426773 -71.3295364
71.8093491 81.0937271 -70.5982132
51.4906082 81.1639633 -70.0713959
50.1535721 81.2254181 -70.6885300
48.8341866 81.2641449 -71.3385468
47.5116043 81.3309555 -72.1363525
46.2078323 81.4012146 -73.0387115
44.8974495 81.4831848 -74.0743103
43.5728912 81.5996094 -75.3050308
77.7399139 82.9712067 -77.9336700
76.2915573 82.8268738 -76.5099106
74.8363800 82.7339020 -75.2833862
73.3912048 82.6708069 -74.2625275
71.9857559 82.6257477 -73.4071808
51.6103210 82.6910477 -72.6386948
50.2807236 82.7440948 -73.3056183
48.9565964 82.8120422 -74.1115265
47.6350098 82.8941803 -75.0460815
46.3051529 83.0061340 -76.1060257
73.6483536 84.3069763 -77.9910431
72.2101593 84.2146759 -76.9101563
70.7977219 84.1508408 -75.9647675
69.4077606 84.0997772 -75.2505646
67.9907913 84.0805054 -74.6797409
66.5972595 84.0524597 -74.1927185
65.2226715 84.0384064 -73.8394623
63.8709793 84.0244827 -73.5847397
62.4971313 84.0412292 -73.4784393
61.1280937 84.0368195 -73.4095306
59.7746849 84.0475082 -73.4529419
58.4312363 84.0714874 -73.6047516
57.0951729 84.0893555 -73.8083954
55.7304764 84.1275330 -74.1354523
54.4101334 84.1680679 -74.5831909
53.0679436 84.2076340 -75.1358871
51.7563820 84.2557602 -75.7703018
50.4188690 84.3302994 -76.5742416
69.6661377 85.8145599 -79.3537521
65.4372482 85.6402206 -77.5005569
64.0817108 85.6274872 -77.1784134
62.6922913 85.6234436 -76.9800644
61.3247490 85.6297836 -76.9117889
59.9627686 85.6379089 -76.9478149
58.6229439 85.6565628 -77.0995636
54.5995369 85.7815247 -78.3676987
53.2625847 85.8691101 -79.0425568
-188.2449188 -206.7561035 65.1335144
-188.7647552 -206.6680298 65.5059357
-188.1628113 -206.0683289 65.3806992
-188.7213287 -205.9889374 65.7741776
-188.0999451 -205.4537048 65.6083298
-192.2614288 -196.4634552 42.2342033
-192.8260803 -196.4174805 42.5194511
-192.2325134 -195.7714844 42.5779533
-192.8013000 -195.7137146 42.8712006
-85.7956238 -72.7383347 107.2312927
-86.3404236 -72.7237930 107.4580536
-86.8956680 -72.7053299 107.6584625
-87.4438019 -72.6742096 107.7866364
-87.9607925 -72.7318878 107.5029755
-88.5102768 -72.7372131 107.5687332
-82.2717133 -71.9948349 108.4174957
-80.4259567 -71.2670898 109.7092285
-80.9638596 -71.1905594 110.1593094
-81.4949036 -71.1273193 110.5110626
-82.0239639 -71.0815277 110.8525620
-91.3693542 -71.0946503 112.7204285
-91.9427490 -71.1322479 112.6219559
-92.5198212 -71.1665421 112.4863815
-93.1061096 -71.2050629 112.3063049
-93.6882095 -71.2367477 112.1114273
-94.2713699 -71.2658539 111.8841400
-94.6176453 -70.5211563 113.6875305
-97.0399704 -70.6940308 112.4628601
-75.4340897 -70.1082077 109.2115860
-75.9186020 -70.0654526 109.9085541
-76.4244003 -69.9852219 110.5227890
-76.9301224 -69.9191437 111.0644913
-77.4398041 -69.8549576 111.5570374
-94.4172363 -69.7327576 115.4193344
-94.9915848 -69.7703171 115.2449875
-95.5894775 -69.8081436 114.9981613
-96.1984558 -69.8309402 114.6932526
-96.7750778 -69.8671799 114.3715439
-75.2447968 -69.3362961 111.3143768
-96.5836945 -69.1121140 116.0825195
-72.5296326 -68.9074478 109.9241943
-73.0268250 -68.8347321 110.6175079
-74.5299454 -68.6567230 112.4953079
-75.0521240 -68.5708694 113.0053482
-96.4156418 -68.4366074 117.5464554
-96.9941177 -68.4804459 117.3187866
-97.5769348 -68.5095901 117.0686646
-98.1794205 -68.5471115 116.7651138
-98.7911453 -68.5919342 116.4193878
-99.3789673 -68.6412811 116.1024246
-99.9907532 -68.7222519 115.7486877
-100.6300964 -68.8096542 115.3373108
-71.8803406 -68.1764755 111.0938492
-102.2773209 -68.2617798 115.6023102
-70.7337112 -67.5991669 111.3867874
-71.2463684 -67.4951248 112.1097794
-71.7443542 -67.4183807 112.7481461
-102.0673676 -67.4931793 117.1477737
-67.9601822 -66.5287704 110.7652283
-68.4588165 -66.4193649 111.5944214
-105.2699738 -65.8080750 118.4118042
-65.7275543 -65.4284592 110.4860611
-66.2474365 -65.2916183 111.4544525
-105.0933762 -65.1009598 119.6285248
-105.7453537 -65.1841431 119.1339645
-106.3847580 -65.2723770 118.6126022
-107.0023117 -65.3430176 118.0840302
-106.2088699 -64.5612488 119.8106079
-65.0159073 -64.0548630 112.6325226
-106.0412216 -63.8812027 120.9524155
-106.6570816 -63.9533119 120.5167160
-107.3080063 -64.0570297 120.0012283
-108.3991623 -63.5247650 120.0727310
-108.2263336 -62.8222618 121.1444244
-108.8772049 -62.9000168 120.6005783
-109.5056992 -62.9748230 120.0451202
-110.2013321 -63.0748787 119.3830032
-64.7233353 -62.0689201 116.1981354
-62.6282692 -61.6973686 114.2729340
-63.1422958 -61.5998726 115.0931091
-63.6476402 -61.5369186 115.8308182
-64.1472168 -61.4669914 116.5437698
-64.6562347 -61.4021988 117.2304764
-110.5426712 -61.8044968 120.9700165
-111.1896133 -61.8985672 120.3825378
-111.6410446 -61.2798119 120.8182678
-112.3126755 -61.3807983 120.1465759
-61.5096245 -60.4991798 114.9100800
-111.5051651 -60.6093788 121.7545929
-60.9328651 -59.9227943 115.1549606
-61.4386101 -59.8410187 115.9371262
-61.3793106 -59.1994934 116.9141693
-112.4027557 -58.8793793 123.3959885
-58.1107063 -58.4080315 113.7570648
-58.6224632 -58.2377434 114.8467484
-59.1366653 -58.1993141 115.5954971
-59.6758499 -58.1776199 116.3340302
-60.1957130 -58.0989342 117.1076736
-112.2935410 -58.2440262 124.1851044
-112.9386520 -58.3312378 123.6515656
-57.0713387 -57.2633209 113.8171616
-113.3492661 -57.1420517 124.6250992
-113.9825516 -57.2080154 124.0762787
-114.6610031 -57.2974892 123.4601364
-56.9578857 -55.9952049 115.6376343
-115.7429886 -56.1897964 123.7430344
-54.8190689 -55.0940704 113.5358429
-116.7765274 -55.0812302 124.0243454
-54.7830315 -54.3802834 114.5114899
-52.7662735 -54.2142372 110.8793335
-53.2699928 -54.0794487 112.1158066
-53.7501221 -53.9892578 113.2089005
-54.2326241 -53.9050903 114.2427368
-54.7213211 -53.8327599 115.1892776
-117.8302155 -53.9851608 124.1424484
-118.4919434 -54.0719299 123.4344101
-52.7182007 -53.5502357 111.8479919
-117.7339706 -53.3732491 124.8004456
-52.1859436 -53.0121422 111.6208801
-52.6548119 -52.9159698 112.7186279
-117.6312180 -52.7601509 125.4675598
-51.6676292 -52.4694481 111.3918839
-50.6156960 -52.0842628 109.6404266
-51.1475029 -51.9401665 111.0902863
-51.6333122 -51.8302269 112.3159256
-118.7567825 -51.7168503 125.4819489
-50.0740013 -51.5751686 109.1897736
-50.5990372 -51.4233398 110.6850510
-50.5110474 -50.8140602 111.4793396
-119.9543228 -50.6787453 125.2838669
-50.4729767 -50.1861191 112.3510818
-119.8434830 -50.0702744 125.8617783
-120.5256729 -50.1593513 125.1881256
-49.9194794 -49.6811981 111.9272690
-50.4248734 -49.5830650 113.1098328
-119.7514496 -49.4778481 126.4060822
-50.3705635 -48.9847832 113.8046265
-49.8509521 -48.4521065 113.4609604
-50.3414650 -48.3700523 114.5079498
-119.4874649 -47.6994514 127.9243088
-119.4458847 -47.1299286 128.3716125
-121.9138794 -46.2407303 126.8054123
-48.1879883 -45.7298508 113.1853638
-47.6425629 -45.2308846 112.5843506
-48.1551056 -45.1343269 113.7539902
-121.7290344 -45.0676689 127.7485580
-122.4392395 -45.1514168 127.0673904
-121.6752625 -44.4919586 128.1381836
-47.0860023 -44.1318016 112.5711136
-121.6110306 -43.9159546 128.5282745
-122.2813797 -43.9816093 127.8650665
-122.9268951 -44.0348434 127.1962814
-123.5961990 -44.1026764 126.4622879
-124.2937775 -44.1737900 125.6703415
-47.0688705 -43.5405579 113.1424179
-47.0396004 -42.9558105 113.6688690
-124.0715714 -42.4408340 126.9398727
-46.5074654 -41.8653450 113.5782623
-47.0061951 -41.7852936 114.6735077
-82.7194366 -39.7873955 142.0175018
-83.2611008 -39.7818794 142.1057129
-83.7913132 -39.7922821 142.1799927
-84.3238678 -39.7968063 142.2454987
-45.9799500 -40.7793884 113.3728943
-123.9026947 -40.7326889 128.0100403
-124.5578842 -40.7862663 127.2829666
-45.9593315 -40.2009506 113.7853088
-123.8278046 -40.1621819 128.3541718
-45.4159660 -39.7169991 112.9640579
-45.9470558 -39.6249084 114.2031403
-123.7793503 -39.5973892 128.6794739
-44.8636246 -39.2325974 112.0962601
-44.8679924 -38.6485023 112.5533295
-125.6645050 -38.6532936 127.0070114
-126.2974091 -38.7128601 126.2058105
-44.8395729 -38.0777855 112.9266052
-123.6602554 -37.9242096 129.5226898
-126.2973785 -38.1716232 126.3075027
-44.8300362 -37.5039673 113.3345947
-123.6262817 -37.3676720 129.7761841
-86.8677063 -35.5077667 143.6819000
-87.4087753 -35.5197563 143.7153320
-87.9605484 -35.5200157 143.7456665
-88.5037689 -35.5274963 143.7622375
-89.0326996 -35.5312347 143.7699738
-89.5669327 -35.5361366 143.7734222
-90.1118393 -35.5474815 143.7779541
-91.2068863 -35.6147537 143.7799377
-91.7613983 -35.6067924 143.7796631
-44.2637367 -36.4521751 112.8136292
-44.7996063 -36.3674736 114.0298691
-86.8533783 -34.9752045 143.8062134
-89.0281982 -34.9999123 143.9068451
-91.7664871 -35.0443268 143.9154358
-44.2797432 -35.8637161 113.2131882
-44.7849464 -35.8018875 114.3453979
-78.3422394 -34.4154434 142.6582184
-78.8549271 -34.4152107 142.7816620
-79.3788071 -34.4217987 142.8979950
-79.9110870 -34.4210014 143.0101166
-80.4373779 -34.4162292 143.1169891
-80.9768143 -34.4217567 143.2175751
-86.8492966 -34.4395447 143.9256287
-91.7101746 -34.5072670 144.0230408
-44.7732353 -35.2386818 114.6570129
-78.3253860 -33.8881073 142.7728119
-80.9643631 -33.8835068 143.3329010
-86.8402481 -33.9108772 144.0410004
-91.6940994 -33.9698181 144.1305389
-44.7639656 -34.6738586 114.9468384
-80.9598541 -33.3590927 143.4356384
-88.4442062 -33.3904991 144.2203369
-88.9748840 -33.3953323 144.2239838
-89.5263138 -33.4042053 144.2271423
-126.0800629 -34.7977638 128.2463684
-126.7860336 -34.8617249 127.5369110
-44.7343636 -34.1193962 115.1572037
-80.4121933 -32.8179932 143.4343262
-80.9451752 -32.8192329 143.5299225
-88.4323044 -32.8594933 144.3040314
-88.9726028 -32.8639870 144.3078003
-126.0446091 -34.2426529 128.4725647
-44.7509537 -33.5557060 115.4322205
-70.9263687 -32.3775520 140.6731110
-71.4554138 -32.3984528 140.8834381
-79.8658447 -32.2906494 143.4255219
-82.5302963 -32.2888107 143.8919678
-83.0866699 -32.2959518 143.9706421
-83.6049652 -32.2896957 144.0341034
-84.1184387 -32.2845726 144.0927582
-126.0150681 -33.6897278 128.6807404
-44.2472267 -33.0586090 114.5506363
-44.7358093 -33.0003510 115.6285858
-79.8568268 -31.7553387 143.5135498
-65.6941223 -31.3842468 138.3112488
-66.1387024 -31.4010868 138.4306793
-67.7852097 -31.3942184 139.4606323
-68.3039856 -31.3218994 139.7246704
-69.8789063 -31.2944431 140.4309387
-80.3923111 -31.2261181 143.6927490
-80.9224014 -31.2265625 143.7854919
-81.4506683 -31.2287407 143.8780212
-81.9802017 -31.2223263 143.9714508
-96.0280991 -31.3785591 144.2196808
-65.6434937 -30.8881035 138.3166199
-68.2787399 -30.7949905 139.8059387
-69.8652115 -30.7635403 140.5153503
-43.2182388 -31.5132732 112.8624496
-43.7203178 -31.4499722 114.0248489
-65.6204376 -30.3219109 138.3746796
-66.1135559 -30.3507347 137.8790741
-97.0915375 -30.3294544 144.2323914
-43.7094154 -30.8972492 114.2020111
-65.6188126 -29.7993526 138.4714813
-66.0904846 -29.8676720 138.0153198
-42.6494904 -30.4821892 111.8407288
-65.6402283 -29.2253418 138.6222382
-66.1912613 -29.1703720 138.9355774
-66.7341080 -29.1541615 139.2094727
-42.6568985 -29.9225731 112.0316467
-65.7032623 -28.7112274 138.7093658
-66.2425919 -28.7094727 138.9766693
-68.8090820 -28.6571312 140.3235016
-69.3178635 -28.6495819 140.5806274
-42.6711655 -29.3635101 112.2281799
-68.8065491 -28.1275806 140.3765259
-100.4001465 -28.2761803 143.8459167
-127.1838455 -29.3910885 128.4062805
-42.6683159 -28.8101883 112.3661575
-68.2754440 -27.6047497 140.1620941
-68.8009262 -27.5969296 140.4278412
-100.3931122 -27.7463360 143.8936615
-127.1670532 -28.8434544 128.5202179
-42.1366997 -28.3278942 111.1809845
-42.6516266 -28.2596531 112.4747925
-67.7398300 -27.0863495 139.9446716
-68.2728195 -27.0754452 140.2145538
-100.3891373 -27.2182426 143.9377747
-127.1536331 -28.2976933 128.6179352
-42.6335869 -27.7092628 112.5846100
-99.8241348 -26.6760273 144.1094971
-100.3790817 -26.6877384 143.9838257
-127.1380539 -27.7522640 128.7050629
-66.0638733 -26.1032696 138.0900269
-66.5231400 -26.1599731 137.6238098
-100.9389572 -26.1716614 143.8980560
-101.4851227 -26.1822186 143.7675323
-127.1396484 -27.2092094 128.7622833
-42.1147690 -26.6701374 111.5041504
-42.6557045 -26.6051636 112.8234940
-66.5000534 -25.5881405 137.8932648
-101.4818802 -25.6538868 143.7983246
-127.1223907 -26.6638641 128.8263092
-42.1135292 -26.1205158 111.5926132
-42.6321449 -26.0596352 112.8639526
-64.6225510 -25.0210896 138.4022064
-101.4798050 -25.1251469 143.8235931
-127.1199265 -26.1210728 128.8615417
-64.6197052 -24.4921570 138.4140320
-100.9382401 -24.5867863 143.9920044
-101.4885406 -24.5978107 143.8413696
-127.1303253 -25.5806522 128.8696442
-127.7748795 -25.6214428 128.1706543
-128.4524078 -25.6649895 127.4242554
-128.4369965 -25.1212654 127.4528122
-128.4230499 -24.5777302 127.4793015
-60.4927177 -22.9897556 135.7660828
-60.9833221 -23.0323734 136.1092682
-100.4123306 -22.9798431 144.1178284
-128.4268188 -24.0357113 127.4822006
-60.4601326 -22.5024509 135.7100372
-63.5992088 -22.3970757 137.7935028
-64.1158752 -22.3878384 138.1094208
-64.6476364 -22.3776684 138.4126282
-65.1447525 -22.3597546 138.6709137
-65.5800476 -22.3595448 138.7685547
-66.0456161 -22.4022198 138.5923767
-66.5483932 -22.4608650 138.1896973
-100.4013062 -22.4649143 144.0814056
-128.4388733 -23.4945965 127.4685974
-60.4571190 -21.9391499 135.6856689
-63.0797157 -21.8794117 137.4462585
-65.7009735 -21.8507843 138.9649048
-66.1906357 -21.7787247 139.2261047
-100.3820038 -21.9389057 144.0549011
-128.4336090 -22.9528294 127.4653168
-63.0829468 -21.3517742 137.4217224
-128.4288330 -22.4114647 127.4532471
-60.5002098 -20.8749866 135.6454315
-63.5997887 -20.8144817 137.7382050
-64.1205902 -20.8053513 138.0666656
-100.9565277 -20.8982906 143.8654327
-101.5002365 -20.9089985 143.7366791
-128.4439087 -21.8716297 127.4129791
-60.5231743 -20.3423214 135.6257629
-61.0179825 -20.3020573 135.9592133
-61.5325279 -20.2643223 136.3302155
-62.0758972 -20.2484608 136.6887970
-128.4500122 -21.3314800 127.3780212
-127.1219864 -20.7176685 128.7969513
-62.5691490 -19.2505169 136.9656677
-64.6621399 -19.2192631 138.2278900
-66.0957413 -19.2402191 138.0091248
-66.5343018 -19.2646503 137.5313263
-100.9633865 -19.3224449 143.7274475
-101.5128860 -19.3328228 143.6016998
-127.1601181 -20.1804829 128.7179413
-65.6402969 -18.6882935 138.4759216
-66.1129379 -18.7138977 137.9785309
-127.1286774 -19.6407375 128.6944885
-65.6244202 -18.1719246 138.4841766
-66.1145020 -18.2287464 137.9891357
-127.1569595 -19.1038303 128.5967102
-42.6939087 -18.4500008 112.4002304
-65.6820068 -17.6123047 138.5797424
-66.2224121 -17.5569744 138.8669739
-66.7562180 -17.5449009 139.1453094
-127.1626434 -18.5669537 128.5106201
-42.7215538 -17.9117889 112.2498550
-65.7174835 -17.1042290 138.5342560
-66.2424774 -17.0978508 138.8161163
-127.1884842 -18.0310211 128.3917236
-41.7226448 -17.4627323 109.3133163
-66.7720184 -16.5664272 139.0239868
-41.7295685 -16.9224949 109.1210938
-66.7880402 -16.0469265 138.9356232
-99.9049530 -16.1561527 143.5825500
-100.4615936 -16.1649837 143.4659882
-101.0155640 -16.1729355 143.3481293
-101.5706558 -16.1810627 143.2233276
-41.7316093 -16.3812923 108.9013596
-42.2526741 -16.3375664 110.3782959
-42.7313156 -16.2956181 111.6736908
-63.6593971 -15.5526714 137.0981598
-65.7411346 -15.5314064 138.2754517
-66.2713852 -15.5356150 138.5486755
-127.2580795 -16.4225216 127.9953613
-127.9309540 -16.4524155 127.2694778
-42.7492676 -15.7550459 111.5212784
-63.6692772 -15.0264654 137.0033112
-66.2178574 -14.9670506 138.1226807
-66.6655731 -14.9800167 137.8220978
-42.7618866 -15.2171631 111.3031311
-63.6678352 -14.5016384 136.8897858
-42.7954979 -14.6824398 111.0779037
-63.6971817 -13.9806414 136.7861328
-64.2179260 -13.9712334 137.1084595
-64.7342758 -13.9638853 137.4174347
-65.2483444 -13.9585571 137.7110443
-127.3066635 -14.8138933 127.5815048
-65.7827225 -13.4364376 137.8646393
-66.1870499 -13.4756765 137.6517792
-68.3807602 -13.4052582 139.2178345
-68.9062119 -13.3990116 139.4795532
-97.2066650 -13.4901638 143.5947266
-127.3737106 -14.2778244 127.3548660
-65.8406982 -12.9037943 137.7650299
-66.2949066 -12.8532162 137.9816895
-66.8571014 -12.8332596 138.2850189
-67.8717041 -12.8875685 138.8385620
-68.3932190 -12.8828030 139.1006775
-68.9156342 -12.8770247 139.3608246
-96.1218643 -12.9612427 143.6248016
-96.6583557 -12.9678106 143.5572815
-97.2122955 -12.9746685 143.4810028
-127.3912506 -13.7416458 127.1795502
-67.8768845 -12.3625574 138.7152863
-68.4110870 -12.3619194 138.9855194
-68.9250946 -12.3526468 139.2403870
-77.3196182 -12.3261709 142.2484131
-77.8463745 -12.3267260 142.3874512
-95.0393753 -12.4236364 143.6240692
-126.0584335 -13.1555805 128.4262848
-67.8783493 -11.8372135 138.5863037
-76.2905350 -11.8046198 141.8404846
-76.8087311 -11.8004112 141.9761505
-77.3306961 -11.8029299 142.1144409
-95.0517502 -11.9025917 143.4969482
-126.0962830 -12.6211729 128.2180328
-126.7619629 -12.6465693 127.5269241
-42.8161354 -11.9895897 109.4819565
-67.8928528 -11.3127794 138.4531250
-75.7780533 -11.2835732 141.5658112
-77.3486710 -11.2806520 141.9813385
-42.8479462 -11.4558592 109.1082230
-67.9203491 -10.7921553 138.3123169
-68.4375916 -10.7860527 138.5660706
-68.9683304 -10.7817678 138.8180237
-69.4940720 -10.7789774 139.0586090
-70.0120163 -10.7795162 139.2847595
-72.6226501 -10.7658005 140.3463135
-75.7896194 -10.7597284 141.4278412
-77.3605728 -10.7620554 141.8433075
-81.0666199 -10.7503233 142.7004852
-86.4074249 -10.7813253 143.3857422
-86.9413223 -10.7826958 143.4205475
-42.9185410 -10.9225206 108.8013229
-71.0687866 -10.1884508 139.5462952
-71.6333313 -10.2027626 139.7870331
-75.2752380 -10.2413025 141.1349640
-75.8035202 -10.2341423 141.2852783
-76.3386230 -10.2374372 141.4299774
-76.8592072 -10.2404547 141.5653534
-81.0970535 -10.2396917 142.5586548
-86.4269409 -10.2607002 143.2452240
-86.9542847 -10.2610865 143.2801361
-42.4314728 -10.4173794 106.7485809
-42.9226799 -10.3819027 108.3498535
-71.0904465 -9.7275457 139.4253082
-71.6127319 -9.7264767 139.6445160
-75.2769318 -9.7098303 140.9732666
-76.8654251 -9.7182579 141.4098663
-78.4533234 -9.7184277 141.8188324
-78.9814758 -9.7163086 141.9550934
-79.5071869 -9.7131996 142.0786133
-80.0363312 -9.7169886 142.1953278
-80.5736084 -9.7209282 142.3052216
-81.1154022 -9.7227840 142.4072723
-86.4404907 -9.7439289 143.0998383
-86.9714584 -9.7440233 143.1338196
-87.5165100 -9.7406244 143.1627960
-88.0631714 -9.7417955 143.1842194
-88.5950089 -9.7491570 143.1998901
-89.1313324 -9.7530603 143.2112122
-92.9475098 -9.7871761 143.1219788
-126.2588501 -10.4805346 127.2781601
-43.4445496 -9.8199263 109.4351501
-43.9600830 -9.7902622 110.8670120
-124.9880676 -9.9088278 128.3537750
-125.6217422 -9.9344816 127.6875076
-125.0445404 -9.3693247 128.0279236
-44.4106140 -8.6984158 111.5804596
-44.9270248 -8.6453342 112.6572876
-125.0490952 -8.8442717 127.7434158
-44.9696236 -8.1143303 112.2492752
-76.4375153 -7.5887704 140.5827332
-76.9711227 -7.6084967 140.7454834
-125.0760040 -8.3219786 127.4803314
-125.7060013 -8.3339510 126.7900391
-126.3640060 -8.3562059 126.0709381
-45.0062599 -7.5826526 111.8531036
-125.1039200 -7.7965083 127.2179718
-125.7550583 -7.8233762 126.4947968
-126.4115295 -7.8491564 125.7454376
-44.9737701 -7.0636845 111.4229279
64.3767548 -10.3521833 -84.1469269
-123.9176788 -6.6637449 127.9895096
67.0360260 -9.6152401 -82.4206696
66.3369446 -9.6077919 -82.1353226
65.6331482 -9.5863123 -81.8883057
64.9339142 -9.5342035 -81.6649170
64.2444916 -9.5150127 -81.5194321
55.3945389 -9.6676893 -82.3698578
54.7164497 -9.6975155 -82.6409607
54.0432358 -9.7126045 -82.9754791
53.3764153 -9.7260771 -83.3926315
-123.9692001 -6.1300611 127.6671219
51.2829437 -9.0413313 -82.2782288
-46.0716896 -5.3829827 112.4795456
51.1910248 -8.2617817 -80.1676712
50.5305786 -8.3046417 -80.5863419
49.8656616 -8.3411236 -81.0740585
49.2051735 -8.3629169 -81.6065063
48.5495644 -8.3798065 -82.1774597
-46.0687943 -4.8357487 111.9752808
-124.0776749 -5.0728393 126.9257202
76.0171051 -7.4783497 -81.7441254
72.2595673 -7.4571886 -79.0141754
47.1515541 -7.6554427 -81.2314301
-124.1293030 -4.5397267 126.5531769
77.2610703 -6.8187366 -81.4523621
76.5078812 -6.7878900 -80.5915070
75.7794571 -6.7747784 -79.8834534
72.8558960 -6.6880403 -77.5458298
72.1791992 -6.7011285 -77.1698303
47.0738907 -6.8798923 -79.2916412
-46.1837006 -3.2385213 110.3280029
79.9617386 -5.3549771 -80.2059937
79.1752243 -5.3939719 -79.5739441
45.6216354 -5.5269418 -77.0199432
44.9477158 -5.5351520 -77.6039734
44.2870178 -5.5416155 -78.2214737
43.6362534 -5.5495100 -78.8664856
42.9862328 -5.5901923 -79.5437164
-46.2274017 -2.7001412 109.7573547
-124.3428955 -2.9204443 125.3524323
41.5760880 -4.9769664 -79.2785873
-46.2466469 -2.1541624 109.0937347
41.5424004 -4.2173357 -77.6741486
40.8634262 -4.2686052 -78.4075470
40.2060547 -4.3061242 -79.1544647
81.0890961 -3.2209225 -76.0717773
80.3012238 -3.2042575 -75.5706253
38.8402863 -3.6396592 -79.2280121
-123.2234497 -1.2899700 125.4233551
84.6424789 -2.6929924 -79.4681168
83.8724976 -2.6620762 -78.4192581
83.0914230 -2.6244266 -77.4198990
80.9024811 -2.6373818 -75.0413895
80.1524887 -2.5950346 -74.3750153
38.8117561 -2.8942766 -77.6807861
-123.3136139 -0.7507959 124.9351883
-123.9546967 -0.7584239 124.2605743
84.4539490 -1.9339467 -77.6220703
-122.0425873 -0.2024090 125.8569870
-122.7084656 -0.2085290 125.1731033
-123.3745575 -0.2183402 124.4778595
85.1034393 -1.2535017 -76.9934769
84.3415985 -1.2250860 -76.0852127
-122.1213531 0.3405584 125.3738251
36.0167427 -0.9132838 -76.7718964
-47.9696007 1.1007055 108.7781219
-48.4648170 1.1052802 110.0950317
87.9425659 0.0365459 -78.0192337
87.1383209 0.0848012 -76.9102783
36.0094147 -0.1821277 -75.4994888
35.3568192 -0.2016740 -76.2763824
34.6799507 -0.2440473 -77.1720734
88.5849762 0.7316994 -77.5805511
34.6631508 0.4441800 -75.9843521
-121.0404663 1.9668545 125.1651993
89.2159958 1.4253892 -77.1556244
88.4111786 1.4875649 -76.0068359
34.6217155 1.1905860 -74.7894058
33.9833031 1.1188270 -75.7099228
-121.1597672 2.5428023 124.5454178
89.8696594 2.0967286 -76.8338318
-119.9114227 3.0643318 125.3664932
89.7308578 2.8103616 -75.4421234
33.5188904 2.5958586 -73.3299866
-119.9838333 3.6041563 124.8385773
-50.6687737 4.4117365 110.4517975
-118.7642822 4.1487503 125.4991150
-119.4476776 4.1546936 124.8607941
91.8797150 4.1098580 -76.2006683
91.0772247 4.1459174 -75.0842972
-118.8782272 4.6927509 124.9020615
34.4886360 4.5753207 -69.8230438
-51.7781067 5.4879751 111.0765381
-118.9362946 5.2210236 124.3448944
-119.6089096 5.2312012 123.7039642
93.2242279 5.4676814 -76.0869064
92.3587799 5.5230689 -74.7675705
34.4431534 5.2468820 -69.0444489
-51.7972908 6.0483294 110.2202911
-119.0380859 5.7699251 123.7106323
93.8661575 6.1538453 -76.0440369
37.0353851 5.9371610 -65.9955597
36.3907585 5.9355211 -66.5087204
35.7510757 5.9437895 -67.0444717
35.0843048 5.9400959 -67.6374130
-52.3506622 6.5885386 110.4917221
-52.8535767 6.5754437 111.5004654
-117.8676605 6.3201995 124.2574158
-118.5093384 6.3202004 123.6582565
94.5441208 6.8311963 -76.0936890
93.7349701 6.8568921 -74.8505173
-52.8941727 7.1331897 110.6894913
-117.9615326 6.8577747 123.6211014
95.2430267 7.4917197 -76.2230988
38.3472443 7.3187904 -63.6655197
37.6886787 7.3144865 -64.1240387
-118.0607605 7.4010806 122.9466324
-118.6952362 7.4012423 122.3331070
95.9325562 8.1632242 -76.3436508
95.1178207 8.1952305 -75.0563736
38.3313332 7.9862432 -63.0692177
-53.0052223 8.2292290 108.8229294
-118.1677704 7.9432473 122.2489624
39.6059341 8.6634159 -61.6366348
38.9523087 8.6534119 -62.0653763
38.4774170 8.6183157 -62.4902687
-53.5713692 8.7725468 108.9936981
-54.0848885 8.7558126 110.1259613
-54.6028595 8.7375412 111.2196045
-55.0989075 8.7234383 112.1862335
-115.6992722 8.5002098 123.9483566
-116.3213501 8.4962921 123.4019928
-116.9464264 8.4879856 122.8240738
-117.5972443 8.4884186 122.1908035
96.5187302 9.5231676 -75.4283600
39.5902710 9.3277617 -61.0746803
-55.1529961 9.2806759 111.2742386
-115.7812119 9.0371809 123.2756653
40.8706169 9.9763250 -59.8153076
-54.6869507 9.8691454 109.2308578
-55.1979218 9.8435678 110.3105240
97.9875946 10.8337889 -76.0981827
40.8340225 10.6395082 -59.3184242
-55.2532120 10.4152565 109.3298645
42.1326981 11.3060579 -58.1582298
-116.1011124 10.6641731 121.0144806
98.5779114 12.1879625 -75.3712769
97.7600479 12.2019119 -74.0802612
43.4314613 12.6517849 -56.6488800
42.7635460 12.6446238 -56.9552841
-55.9756317 12.0614042 106.9016342
-56.5006866 12.0170097 108.1711884
-113.7789612 11.7664804 121.7325134
-114.4059601 11.7658825 121.1841888
-115.0495605 11.7769012 120.5925598
99.2076950 13.5256081 -74.8958359
43.4030075 13.2944708 -56.2544327
-56.5461159 12.6109638 106.9071350
-113.9010773 12.3187799 120.9083176
99.0625763 14.2179480 -73.9396973
44.7042770 13.9491653 -55.2802238
44.0873299 13.9019136 -55.5501442
-57.1113358 13.1538687 106.7110214
-57.6291275 13.1063080 107.9461365
-112.7410660 12.8490229 121.1919556
-113.3801727 12.8588104 120.6345291
99.8162689 14.8771343 -74.4797287
98.9916458 14.8848820 -73.1522675
-57.6894188 13.7051258 106.6249084
-112.8589172 13.4078074 120.3152771
100.6237564 15.5273285 -75.1656876
44.7112694 15.2358704 -54.4768753
-112.9967728 13.9651794 119.3837280
100.4543381 16.2298012 -74.2030792
44.7471809 15.9490232 -54.0479202
44.7204628 16.5820160 -53.7341423
-60.9186172 15.2884521 109.2057877
-110.7115936 15.0497904 119.6988678
-111.3565140 15.0562944 119.1543808
-111.9803467 15.0659084 118.6098022
-112.6107559 15.0809135 118.0414276
44.6704559 17.2274380 -53.4655724
-60.4841156 15.8948679 106.7910690
-60.9788933 15.8641930 107.9171524
-110.8329163 15.5989466 118.7387466
101.9436493 18.2052250 -74.8893890
44.6223259 17.8700867 -53.2076912
-61.5619164 16.4423599 107.5239410
-62.0802879 16.3934879 108.5323181
-110.9908905 16.1568546 117.6836700
101.8287354 18.8765125 -74.1172943
44.5871735 18.5324497 -52.9308319
-62.1586113 16.9951897 107.0842972
-111.1417542 16.7373085 116.5730515
44.5555267 19.1759243 -52.6548347
-62.7609444 17.5477562 106.6294708
-63.2514915 17.5101528 107.6319809
-64.7898941 17.4351997 110.3010864
-65.2839203 17.4081612 111.0941544
-65.7883301 17.4092712 111.8232117
-66.2902603 17.4128647 112.5446014
-110.0013962 17.2724819 116.6185303
101.7116165 20.2045441 -72.8204880
-66.3726044 17.9867687 111.4541168
101.6217957 20.8743896 -72.1967163
-66.5227280 18.5930157 110.0971603
-107.8009872 18.3743858 116.4334106
102.3971558 21.5393219 -72.9575119
101.5748367 21.5351162 -71.6686859
-66.5948563 19.1139774 108.6384888
45.8508492 21.8108749 -51.1040344
45.1845474 21.8062439 -51.3235893
-66.1959076 19.7506351 106.0573425
-66.7002945 19.7151718 107.0675049
-105.6129608 19.4640865 115.9575958
-106.2456894 19.4846821 115.4712372
