-42.2924805 -5.3469777 125.8528214
-59.5647125 -5.0392036 145.0690002
-100.8056641 -5.1742043 151.6363831
-123.1689148 -5.6113806 138.6968994
-124.4513855 -5.6491375 137.3768005
-41.3175392 -4.3123217 123.8406830
-42.3059425 -4.2767544 125.8762131
-59.5605545 -3.9947128 145.0636597
-60.5900040 -3.9880383 145.7175293
-100.8073883 -4.1315408 151.6181030
-123.1665955 -4.5456944 138.7030487
-124.4515381 -4.5812674 137.3871460
-41.3291550 -3.2406950 123.8062439
-42.3050652 -3.2080629 125.8173676
-59.5580063 -2.9505219 145.0187225
-60.5833359 -2.9443641 145.6704254
-61.6123390 -2.9390049 146.3003540
-62.6375504 -2.9338565 146.9057312
-99.7190704 -3.0768368 151.8581543
-100.8112183 -3.0898318 151.5737457
-123.1706924 -3.4809453 138.6699982
-124.4620209 -3.5147288 137.3381653
-41.3303223 -2.1700778 123.6868286
-42.3130493 -2.1401477 125.7168121
-59.5764427 -1.9068265 144.9622345
-60.5980415 -1.9014449 145.6147614
-61.6257324 -1.8967090 146.2429962
-62.6416321 -1.8920829 146.8349457
-99.7213287 -2.0361872 151.8025970
-100.8208771 -2.0480154 151.5198364
-123.1901855 -2.4169397 138.5870209
-124.4742813 -2.4485984 137.2557678
-41.3391495 -1.0999234 123.5238342
-42.3355103 -1.0730774 125.5934601
-61.6326218 -0.8543295 146.1618347
-100.8288116 -1.0067205 151.4458160
-123.2113647 -1.3531702 138.4726257
-41.3433075 -0.0293591 123.3164368
-42.3395386 -0.0055573 125.3876648
-61.6443520 0.1876483 146.0583954
-100.8495712 0.0356195 151.3439636
-123.2387619 -0.2897719 138.3193665
-42.3578072 1.0617124 125.1665802
-61.6586380 1.2293087 145.9261169
-62.6794128 1.2319926 146.5135803
-100.8620453 1.0761563 151.2167053
-120.7316132 0.8203167 140.5160522
-121.9731903 0.7972860 139.3860779
-123.2632446 0.7730147 138.1319122
-41.3860703 2.1087508 122.7449951
-42.3860664 2.1279042 124.9067459
-61.6645241 2.2730517 145.7617188
-62.6926270 2.2742565 146.3543091
-63.7374878 2.2735453 146.9419861
-64.7508850 2.2777703 147.4760284
-99.7895126 2.1273670 151.3519135
-100.8796463 2.1165602 151.0657654
-120.7574081 1.8794379 140.3141785
-122.0152359 1.8582747 139.1626892
-123.2941895 1.8360579 137.9060974
-40.3946991 3.1664231 119.9949646
-41.4123192 3.1794848 122.4029160
-42.3970337 3.1963696 124.5496979
-63.7551651 3.3137455 146.7643127
-64.7738724 3.3112743 147.2839203
-97.5983505 3.1852226 151.6866913
-98.7008820 3.1769371 151.4495850
-99.8183670 3.1690369 151.1797791
-100.9154205 3.1587224 150.8951111
-120.8023529 2.9399731 140.0685577
-122.0310440 2.9194648 138.9341736
-41.4315491 4.2500839 122.0000000
-42.4206467 4.2643862 124.1669998
-63.7750015 4.3550544 146.5578003
-64.7896423 4.3595343 147.0757904
-97.6262054 4.2245870 151.5007935
-98.7297668 4.2170506 151.2601776
-99.8432846 4.2097311 150.9915924
-100.9380646 4.2011986 150.7061157
-120.8415527 3.9996760 139.7924347
-122.0825958 3.9809735 138.6326294
-123.3975449 3.9654059 137.3208313
-41.4553757 5.3220491 121.4968948
-42.4583702 5.3309898 123.7522125
-63.7891846 5.3973727 146.3270111
-64.8134003 5.3988924 146.8649445
-96.5616760 5.2740941 151.5002594
-97.6571960 5.2653775 151.2894745
-98.7563553 5.2570190 151.0463867
-120.8916092 5.0604181 139.4663086
-122.1414413 5.0434918 138.2846222
-42.4725647 6.4012117 123.2221069
-63.8214684 6.4378896 146.0831909
-64.8448639 6.4375272 146.6248474
-65.8765793 6.4371314 147.1474915
-93.3030243 6.3308325 151.7552795
-94.4085846 6.3275299 151.6155090
-95.4902802 6.3202415 151.4556580
-96.5893555 6.3139277 151.2683258
-97.6920547 6.3084002 151.0490570
-98.7913818 6.3015308 150.7996063
-120.9480515 6.1218691 139.1021271
-122.1996155 6.1076136 137.9084625
-42.5093079 7.4710588 122.6646118
-65.9052353 7.4788175 146.8758850
-66.9268036 7.4741354 147.3647766
-67.9682388 7.4741573 147.8206940
-69.0070114 7.4682684 148.2413483
-70.0479889 7.4658022 148.6570587
-71.0830078 7.4624643 149.0498047
-72.1128998 7.4634833 149.3975220
-73.1674118 7.4572673 149.7292175
-74.2038422 7.4558845 150.0299683
-75.2513275 7.4517803 150.3163452
-80.5085144 7.4668417 151.3758850
-93.3435287 7.3719068 151.5050201
-94.4364014 7.3633499 151.3679199
-121.0068512 7.1829042 138.7059326
-122.2620316 7.1707273 137.4958191
64.8345490 8.3682938 -75.3868790
63.4887276 8.3637438 -75.3122559
62.1166878 8.3594170 -75.4128113
60.7802391 8.3469019 -75.6287613
59.4324837 8.3474398 -75.9634857
-41.5373421 8.5508890 119.6320953
-42.5520592 8.5419855 122.0534668
-65.9313126 8.5183182 146.5819702
-66.9662628 8.5153522 147.0778961
-67.9996948 8.5120354 147.5334320
-69.0326538 8.5112991 147.9569550
-70.0704117 8.5073290 148.3668671
-71.1146927 8.5017643 148.7586212
-72.1365662 8.5020418 149.1086731
-73.1948242 8.4956303 149.4437561
-74.2347641 8.4940186 149.7451324
-75.2909546 8.4895916 150.0320282
-76.3286667 8.4853477 150.2882538
-77.3803711 8.4788809 150.5156555
-78.4276886 8.4793253 150.7230530
-79.4892044 8.4733772 150.9201660
-80.5466461 8.4668932 151.0841522
-81.5852509 8.4680300 151.2179565
-82.6537857 8.4631433 151.3400574
-83.7164841 8.4547882 151.4457092
-84.7790680 8.4527340 151.5156555
-85.8404999 8.4495602 151.5572662
-86.9152679 8.4447327 151.5843506
-90.1411285 8.4305897 151.5088806
-91.2103958 8.4231853 151.4338684
-92.3058472 8.4186764 151.3396606
-93.3745804 8.4114676 151.2265015
-94.4757843 8.4057407 151.0794373
-121.0661697 8.2446642 138.2677307
-122.3461685 8.2373886 137.0174103
71.4800110 9.7545967 -72.9242477
70.0962677 9.7781649 -72.2843781
68.6963196 9.7801609 -71.7553101
67.3264771 9.7686234 -71.4039459
65.9586029 9.7675982 -71.1509323
64.5943604 9.7610149 -71.0043564
63.2468567 9.7552061 -70.9780350
59.2055359 9.7350979 -71.4845810
57.8726654 9.7148733 -71.8982086
56.5391159 9.7342491 -72.4209595
55.2209816 9.7272568 -73.0673218
53.8964424 9.6807604 -73.8490601
-42.5824432 9.6184540 121.3423920
-43.5744781 9.6157036 123.5709991
-44.5575638 9.6183596 125.5310745
-86.9482880 9.4814320 151.2807007
-88.0235596 9.4798994 151.2825775
-89.0901642 9.4703236 151.2626190
-90.1724472 9.4648924 151.2110596
-121.1459045 9.3105164 137.7686462
76.8975830 11.1110344 -72.6440659
75.4668808 11.1328993 -71.5273819
74.0359344 11.1296129 -70.5766449
72.6515732 11.1284275 -69.7947845
71.2405319 11.1187582 -69.1506271
69.8718033 11.1077023 -68.6450653
68.4888229 11.0954990 -68.2474213
67.1255112 11.0893421 -67.9506073
65.7613831 11.0833988 -67.7459564
64.4037399 11.0753107 -67.6511917
63.0626144 11.0662575 -67.6545868
59.0288887 11.0496769 -68.1077194
57.7000046 11.0497875 -68.4277039
56.3602600 11.0547829 -68.8604050
55.0433121 11.0510950 -69.4179688
53.7267036 11.0586491 -70.0738525
52.3996964 11.0535221 -70.8578491
51.0796165 11.0205545 -71.7424011
49.7584114 10.9871702 -72.8007202
-42.6066208 10.7007589 120.5591507
-43.6264153 10.6864548 122.8808365
-44.6037407 10.6870651 124.8839188
-86.9816666 10.5200567 150.9573669
-88.0569763 10.5144453 150.9571838
-89.1303024 10.5134325 150.9300079
-90.2101212 10.5071878 150.8802338
-121.2365417 10.3767958 137.2215271
-122.5104904 10.3739681 135.9521484
80.9639206 12.4622555 -72.8027039
79.4965363 12.4818077 -71.2619705
78.0629425 12.4727507 -70.0443268
76.6446533 12.4660120 -68.9733658
50.9489670 12.3749981 -68.4929733
49.6253815 12.3766804 -69.3909988
48.3226585 12.3621893 -70.4118271
47.0012054 12.3194695 -71.5922241
-43.6522369 11.7658834 122.0767365
-44.6466751 11.7569733 124.1613312
-118.7869263 11.4509926 139.0068970
-120.0324478 11.4455147 137.8872986
-121.3271255 11.4424553 136.6341400
82.1597214 13.8223314 -70.5492325
80.6925354 13.8184347 -69.1006851
79.2619629 13.8006811 -67.8988647
77.8493958 13.7868862 -66.8803482
76.4375000 13.7822170 -65.9742355
50.8246269 13.6850061 -65.7597351
49.5060768 13.6862736 -66.5574341
48.2111588 13.6875525 -67.4617920
46.8966331 13.6963463 -68.4742584
45.5963707 13.6914577 -69.6295395
-44.6908913 12.8340521 123.3927383
-118.8708572 12.5152912 138.4269409
-120.1226654 12.5114021 137.2801666
-121.4204025 12.5141201 136.0053101
83.3646240 15.1562147 -68.6938477
81.9255066 15.1323671 -67.3601303
45.4897804 15.0176334 -66.8521118
44.1845589 15.0187588 -68.0156326
42.8679008 14.9927883 -69.3459473
41.5657845 14.9847469 -70.8388290
-44.7288628 13.9168196 122.5333099
-45.7318344 13.8967676 124.5195313
-46.7302589 13.8841114 126.3587494
-118.9627533 13.5835609 137.7955627
-120.2280579 13.5819130 136.6125183
83.1524887 16.4491081 -65.9077225
81.7245941 16.4424019 -64.7059021
45.3872604 16.3197365 -64.4968567
44.0740891 16.3272362 -65.5519485
42.7706985 16.3370399 -66.7150040
41.4725952 16.3535194 -68.0302811
40.1796532 16.3383331 -69.5311432
-45.7869987 14.9734602 123.6565170
-46.7751846 14.9618359 125.5348358
-119.0695877 14.6492462 137.1076508
-120.3421021 14.6541271 135.8908386
88.8445969 17.8100471 -69.4821548
87.3304138 17.8205719 -67.6451035
85.8598557 17.7965355 -66.0613785
84.4301300 17.7720013 -64.7099304
82.9797516 17.7597580 -63.4943237
81.5734253 17.7451820 -62.4450226
40.0711517 17.6571999 -66.9619293
38.7828636 17.6632004 -68.4357834
-44.8209381 16.0911217 120.5141296
-45.8607979 16.0462246 122.7257996
-46.8345642 16.0349636 124.6505051
-116.6753769 15.7152929 138.5623322
-117.9114838 15.7197361 137.5171967
-119.1702194 15.7217979 136.3698578
-120.4461823 15.7275667 135.1242981
88.5951233 19.1340160 -66.6652222
87.1399765 19.1083279 -65.0956726
85.6722565 19.0982971 -63.6663246
84.2513275 19.0826225 -62.4627991
82.8153992 19.0683460 -61.3812866
81.4011688 19.0549030 -60.4201813
39.9889450 18.9584122 -64.7098846
36.0893822 18.9886799 -69.3527985
-45.9090767 17.1355171 121.6185760
-46.8939743 17.1134605 123.6653748
-116.7834778 16.7869091 137.8267212
-118.0256119 16.7901821 136.7445374
-119.2857437 16.7897053 135.5500336
91.4286041 20.4640064 -67.7630310
89.8851700 20.4502907 -65.9120560
88.4203644 20.4233894 -64.3191376
86.9457932 20.4159565 -62.8551903
39.9245834 20.2684593 -62.7603989
-45.9769058 18.2268391 120.4583359
-46.9662170 18.1939526 122.5956345
-47.9452019 18.1778278 124.5077972
-48.9384918 18.1574955 126.2592239
-116.8942108 17.8557892 137.0449829
-118.1390228 17.8610401 135.9119873
92.7059250 21.7941895 -67.3085480
91.1806641 21.7798786 -65.3288422
89.7138519 21.7494125 -63.6887016
88.2544403 21.7244873 -62.2408180
86.8092728 21.7092495 -60.9419823
39.8566093 21.5769424 -61.0440521
-47.0166054 19.2935085 121.3747635
-48.0251617 19.2574005 123.4417191
-49.0039825 19.2397575 125.2485580
-117.0184937 18.9323673 136.1927032
-118.2753983 18.9421349 135.0191193
95.5740967 23.1455841 -69.3868179
94.0206680 23.1306648 -66.9910202
92.5126343 23.0945091 -64.9847946
42.4080887 22.8662643 -57.5267105
41.1163139 22.8834572 -58.4403191
39.8046799 22.8888988 -59.4319725
-48.1087112 20.3445225 122.2745819
-49.0759888 20.3232346 124.1383133
-117.1517258 20.0102482 135.2665405
-118.4108124 20.0224972 134.0308228
93.8381348 24.4141502 -64.7775269
92.3307114 24.3838158 -62.9601593
42.3625298 24.1747169 -56.1358566
41.0464592 24.1753769 -57.0491791
39.7531815 24.1884403 -57.9834213
-48.1422958 21.4652843 120.9013367
-49.1687965 21.4080238 122.9575882
-117.2902222 21.0915756 134.2666321
96.7305756 25.7581711 -66.8898544
95.1632233 25.7423973 -64.7044144
93.6792908 25.7043457 -62.8572617
92.1826477 25.6742516 -61.1936569
44.9064941 25.4444523 -53.4060249
43.6039085 25.4582176 -54.1104355
42.3046188 25.4660988 -54.8878555
41.0061684 25.4819813 -55.7285843
-49.2403717 22.5106506 121.6158218
-50.2431221 22.4714680 123.5240173
-51.2265167 22.4477367 125.2346497
-114.9300232 22.1487064 135.5048218
-116.1837921 22.1634274 134.3928070
-117.4598846 22.1845760 133.1721649
96.5302887 27.0712852 -64.8371124
95.0111694 27.0231171 -62.8708534
93.5193481 26.9952126 -61.1331406
92.0397339 26.9666214 -59.5940323
44.8676376 26.7472248 -52.2808228
43.5507317 26.7542591 -52.9804306
42.2607422 26.7696648 -53.7075996
40.9629669 26.7781239 -54.5094414
-50.3329887 23.5657101 122.1618652
-51.3139610 23.5387287 123.9775925
-115.0815506 23.2331810 134.4420776
-116.3571854 23.2522354 133.2623901
97.8910904 28.3946629 -65.1358261
96.3744888 28.3538170 -63.0563049
94.8606491 28.3182945 -61.2140884
47.4300423 28.0173225 -50.0693130
46.1195602 28.0271244 -50.6338310
44.8195000 28.0358582 -51.2465553
43.5104218 28.0425625 -51.9107552
-50.4310760 24.6713123 120.6315994
-51.4163857 24.6317787 122.5876770
-112.7514954 24.2881165 135.4177856
-114.0083237 24.3101273 134.3833771
-115.2474976 24.3249741 133.2796173
-116.5313339 24.3520279 132.0382690
99.3008804 29.7185383 -65.6474457
97.7423096 29.6772308 -63.4108849
96.2338562 29.6336803 -61.4716263
94.7342834 29.5953236 -59.7624397
47.3863068 29.3085098 -49.1231079
46.0744591 29.3216686 -49.6731911
44.8006210 29.3203182 -50.2669907
-51.5000839 25.7487736 121.0009003
-112.9154053 25.3804703 134.2759247
-114.1796112 25.4024200 133.1816711
-115.4225464 25.4201412 132.0225830
99.1204376 31.0129452 -63.9054565
97.5779190 30.9700317 -61.7990952
47.3466263 30.5961304 -48.2405205
46.0414658 30.6133003 -48.7900391
-51.5939140 26.8832550 119.2637787
-52.6013489 26.8068542 121.2918701
-53.5882950 26.7722988 123.1036301
-110.6403427 26.4398499 134.9799042
-111.8660049 26.4581680 134.0479889
-113.0912933 26.4744091 133.0324097
-114.3636398 26.5035667 131.8736267
100.5180817 32.3529816 -64.6132202
99.0011597 32.2914658 -62.4106522
97.4571457 32.2511787 -60.4167786
47.3104630 31.8856544 -47.4176979
46.0070267 31.9057293 -47.9645081
-52.7172508 27.9301796 119.4744720
-53.7068214 27.8784943 121.4443207
-110.8153229 27.5350609 133.7454834
-112.0318451 27.5525913 132.7699585
-113.2779999 27.5777245 131.6785736
101.9547577 33.6917610 -65.5408707
100.3873215 33.6346359 -63.1207428
49.8787003 33.1514854 -45.7530251
48.5693550 33.1622238 -46.1763840
47.2724419 33.1684647 -46.6589279
-52.8429718 29.0815735 117.3680725
-53.8331146 29.0011520 119.5661087
-54.8057022 28.9571877 121.4647675
-55.8050461 28.9119473 123.1971359
-108.5666351 28.6004314 134.2101440
-109.7649078 28.6151676 133.3581238
-110.9865112 28.6392059 132.4014282
-112.2448730 28.6666298 131.3284149
101.8232040 34.9726448 -64.0630951
100.2697754 34.9143600 -61.7938309
49.8336945 34.4305115 -45.0437317
48.5338173 34.4462585 -45.4697647
-54.9288101 30.1026802 119.5535583
-55.9293442 30.0357876 121.3957520
-108.7421875 29.7018375 132.8699951
-109.9612274 29.7218800 131.9434509
-111.1932907 29.7423267 130.9226532
101.6789703 36.2588081 -62.7097588
100.1520081 36.1953201 -60.5839348
49.8174744 35.7236557 -44.3855209
48.4942551 35.7211304 -44.8308678
-56.0727043 31.1604843 119.3907242
-57.0352020 31.1170959 121.1736832
-58.0344429 31.0739689 122.8234787
-106.5254059 30.7637329 133.1243439
-107.7172775 30.7838974 132.3168335
-108.9307175 30.8082199 131.4080505
-110.1732330 30.8379326 130.3865356
103.1420288 37.6079445 -63.8765373
101.5687561 37.5394592 -61.5250435
100.0284195 37.4818993 -59.4742050
49.7735977 36.9984131 -43.7980270
48.4678688 37.0094910 -44.2165527
-57.1897964 32.2607651 119.0679016
-58.1869926 32.1947708 120.8716202
-106.7166595 31.8796158 131.6325073
-107.9181824 31.8979664 130.7647247
-109.1513901 31.9195461 129.7698669
104.6331024 38.9597702 -65.2784271
103.0260620 38.8917160 -62.7095184
49.7460785 38.2852249 -43.2406693
48.4329224 38.2907791 -43.6522064
-58.3331070 33.3693161 118.5966568
-59.3264389 33.2958832 120.3680420
-60.3197746 33.2432709 121.9703751
-61.3028641 33.2146835 123.3684540
-62.3129311 33.1752472 124.6621399
-106.9298172 32.9945068 129.9862213
-108.1535110 33.0270309 129.0173950
104.4906158 40.2528305 -64.1083832
102.9229431 40.1742630 -61.6668968
49.7124329 39.5651817 -42.7331696
48.4064560 39.5765038 -43.1325569
-59.4800377 34.4897270 117.9646454
-60.4870644 34.4004211 119.7548141
-61.4678535 34.3374176 121.3459167
-62.4610977 34.3026047 122.7416077
-107.1777954 34.1372833 128.1332397
104.4103241 41.5348282 -63.1275482
102.8419571 41.4581375 -60.7452164
49.6912994 40.8428955 -42.2612076
48.3845215 40.8574524 -42.6510506
-61.6395531 35.5138779 118.9944458
-62.6399841 35.4347496 120.5770416
-63.6471329 35.4011879 121.9626694
-64.6436005 35.3746796 123.1876221
-102.5824432 35.1616287 129.6477814
-103.7676849 35.1847115 128.9086609
-104.9894028 35.2113266 128.0519409
-106.1919632 35.2380600 127.1339264
105.9287262 42.9088669 -64.8436127
104.2897339 42.8235359 -62.1518898
102.7495575 42.7427826 -59.8985901
49.6744003 42.1294518 -41.8250618
48.3540459 42.1340561 -42.2301865
-62.8302994 36.6333771 117.9687119
-63.8343124 36.5540123 119.5792313
-64.8241425 36.5110779 120.9722519
-102.8270035 36.2981262 127.7216110
-104.0163040 36.3195343 126.8981705
-105.2482224 36.3587570 125.9275360
105.8307724 44.1977463 -63.9422226
49.6352005 43.4053612 -41.4385109
48.3410950 43.4179077 -41.8257828
-65.0363007 37.6935997 118.3397827
-66.0382309 37.6238174 119.8331985
-67.0273514 37.5774193 121.1504745
-68.0428162 37.5487480 122.2861786
-69.0671082 37.5209579 123.2866211
-70.0914078 37.4922867 124.2207947
-71.1156769 37.4581985 125.0974579
-98.3337631 37.3537598 128.3052216
-99.5044556 37.3748856 127.7281799
-100.6869049 37.3928375 127.0888214
-101.8925323 37.4349518 126.3390503
-103.0964203 37.4622688 125.4996948
-104.3045197 37.4940987 124.5584106
105.7408066 45.4864616 -63.1404266
49.6256638 44.6900482 -41.0668449
-66.2475815 38.8636780 116.8673553
-67.2436676 38.7635460 118.4030609
-68.2691040 38.7021637 119.7363358
-69.2739716 38.6848640 120.8904266
-70.2769089 38.6524963 121.9461060
-71.3048248 38.6088486 122.9136810
-98.5894623 38.5008583 126.1613007
-99.7748108 38.5197601 125.4881210
105.6680908 46.7777100 -62.4327850
73.2053528 45.9195251 -39.8164787
71.8676758 45.9133186 -39.5592346
70.5548325 45.9042091 -39.3595848
69.2298355 45.8924446 -39.1847420
67.9095001 45.8936691 -39.0261612
66.5780029 45.8901291 -38.9199829
49.6074753 45.9712448 -40.7439651
48.2925758 45.9821167 -41.1251831
-68.4180527 39.9242210 116.7945480
-71.5369720 39.7871819 120.3161469
-72.5494919 39.7530365 121.2857361
-73.5935211 39.7277031 122.1403503
-74.6325226 39.6995354 122.8941650
-75.6786270 39.6746597 123.5708771
-76.7197113 39.6530457 124.1682358
-77.7805328 39.6241798 124.7314987
-91.9472733 39.5742493 126.3851776
-93.0847168 39.5837860 126.1264343
-94.2178345 39.5949516 125.7972031
-95.3870239 39.6144295 125.3723145
-96.5359955 39.6229820 124.9045334
-97.7166061 39.6503677 124.3169250
-98.8831787 39.6789856 123.6728973
105.6149521 48.0678329 -61.8449669
73.1857452 47.1962547 -39.5385132
71.8597488 47.1819534 -39.2948112
67.8925781 47.1638947 -38.7360077
66.5520096 47.1651649 -38.6489830
49.5875511 47.2486343 -40.4737091
48.2886047 47.2697792 -40.8571892
-72.8144684 40.9439201 118.3347778
-73.8484344 40.9123802 119.3335266
-74.8729858 40.8806000 120.2012863
-75.9198914 40.8470345 121.0023499
-76.9547729 40.8251495 121.6770172
-78.0097198 40.8033028 122.2800140
-92.2251892 40.7455292 123.9625168
-93.3739700 40.7568588 123.6372910
-94.5026550 40.7639580 123.2723999
-95.6817780 40.8002968 122.7742310
-96.8604431 40.8489876 122.1721420
107.1538467 49.4662132 -63.9557457
105.5413895 49.3609200 -61.3049240
73.1738739 48.4715538 -39.2957039
71.8212509 48.4663925 -39.0298386
67.8659668 48.4467964 -38.5014496
66.5448456 48.4394989 -38.4175529
62.6090927 48.4412651 -38.2849007
61.2919846 48.4460602 -38.3299980
59.9741058 48.4508934 -38.4263382
58.6711235 48.4526024 -38.5233421
57.3668671 48.4663963 -38.6433792
56.0730591 48.4718895 -38.8218689
54.7742996 48.4842224 -39.0390167
53.4580765 48.4919052 -39.2975883
49.5731163 48.5354462 -40.2249870
48.2668571 48.5524750 -40.6120033
46.9676666 48.5688477 -41.0261192
-77.2357483 42.0272331 118.6285248
-78.2880249 42.0068665 119.3203735
-79.3429337 41.9802055 119.9190445
-80.4061127 41.9563484 120.4339371
-81.4793396 41.9392700 120.8622971
-82.5489502 41.9307251 121.2035599
-83.6359024 41.9239960 121.4739609
-84.7140274 41.9080124 121.6917419
-85.8154068 41.9049377 121.8185425
-86.9107971 41.8965645 121.9009628
-88.0256882 41.9073486 121.8638229
-89.1354370 41.9046097 121.7933960
-90.2688599 41.9169235 121.6353683
-91.4023132 41.9202538 121.4130402
-92.5365067 41.9297638 121.0925369
-93.6989059 41.9789467 120.6845398
107.1091156 50.7621040 -63.4762115
105.5067444 50.6557388 -60.8980713
73.1441345 49.7520142 -39.0662079
71.8171310 49.7394485 -38.8132591
70.4877396 49.7365265 -38.5968018
69.1720428 49.7242317 -38.4247437
67.8517761 49.7260170 -38.2890778
66.5254593 49.7192841 -38.1950417
62.5888443 49.7184219 -38.0797997
57.3454781 49.7374992 -38.4185257
56.0716515 49.7500992 -38.5917511
54.7489014 49.7621803 -38.8264999
53.4480400 49.7728806 -39.0759125
49.5536804 49.8185425 -40.0023270
48.2623367 49.8381233 -40.3845673
46.9653969 49.8550873 -40.8061752
-80.7545700 43.1683464 116.8696671
-81.8134537 43.1427078 117.4213867
-82.8860321 43.1332779 117.8208389
-83.9705048 43.1179314 118.1349640
-85.0561218 43.1137352 118.3501434
-86.1559601 43.1106186 118.4989853
-87.2534943 43.0997581 118.5522766
-88.3825836 43.1105080 118.5180054
107.0748367 52.0621834 -63.0998192
105.4577332 51.9525223 -60.5310783
73.1426849 51.0279312 -38.8841057
71.7904282 51.0197105 -38.6306152
70.4720993 51.0121803 -38.4161453
69.1439972 51.0056801 -38.2339897
67.8459091 51.0005417 -38.1021652
66.5121994 50.9991989 -38.0033379
62.5759888 51.0000000 -37.9023285
54.7263336 51.0436935 -38.6599045
53.4393311 51.0566406 -38.8998184
46.9609451 51.1421089 -40.6172600
45.6469498 51.1635437 -41.0727615
107.0303955 53.3647575 -62.7941437
105.4329147 53.2522011 -60.2631226
73.1204605 52.3092041 -38.7290115
71.7858887 52.2985649 -38.4803429
70.4709015 52.2903671 -38.2619972
69.1273727 52.2868996 -38.0815964
67.8283997 52.2820244 -37.9618454
66.4981308 52.2794762 -37.8727760
62.5576553 52.2807770 -37.7554169
54.7072754 52.3263092 -38.5163956
53.4121475 52.3390045 -38.7587433
46.9506721 52.4289284 -40.4596672
45.6394157 52.4515839 -40.9204063
44.3430634 52.4760628 -41.3974571
106.9814987 54.6700859 -62.5549774
105.4174194 54.5545731 -60.0673904
78.4515686 53.6446991 -39.9566345
77.1096497 53.6285133 -39.5648041
75.7761841 53.6138916 -39.2154884
74.4411774 53.6009293 -38.8947563
73.1063995 53.5897484 -38.6085625
67.8133087 53.5625916 -37.8534737
66.4865036 53.5596848 -37.7638206
65.1807938 53.5609436 -37.6963730
63.8604164 53.5608711 -37.6530304
62.5617294 53.5617447 -37.6509705
57.3241386 53.5870514 -37.9936066
56.0400505 53.5990715 -38.1658974
54.6985512 53.6088676 -38.3883476
53.4138641 53.6252441 -38.6292038
44.3438034 53.7663155 -41.3044701
43.0459137 53.7948494 -41.8488731
41.7423706 53.8242836 -42.4278984
106.9613342 55.9777145 -62.4088402
105.4017334 55.8595123 -59.9326706
78.4450378 54.9278679 -39.8734512
77.1045227 54.9113808 -39.4832458
73.1047592 54.8715935 -38.5165062
67.7956085 54.8445206 -37.7623405
66.4772491 54.8427849 -37.6612663
65.1682205 54.8407555 -37.5847588
63.8513412 54.8420372 -37.5590668
62.5440750 54.8464279 -37.5814590
57.3041992 54.8723068 -37.9210968
56.0268478 54.8819695 -38.0887756
54.7161255 54.8954926 -38.3032227
53.3989067 54.9100571 -38.5459366
44.3371658 55.0580750 -41.2252960
43.0368195 55.0873718 -41.7739868
41.7472496 55.1183090 -42.3535080
106.9644699 57.2901802 -62.3686218
105.3825989 57.1669502 -59.8611603
81.1322098 56.2536888 -40.7491150
79.8062744 56.2321587 -40.2645073
78.4303589 56.2121277 -39.8109207
77.0950775 56.1955109 -39.4277306
73.0888214 56.1538658 -38.4733658
71.7532883 56.1472511 -38.2470932
70.4385986 56.1385880 -38.0238647
69.1041336 56.1324158 -37.8489914
67.7977448 56.1283073 -37.7145691
66.4720306 56.1244011 -37.6037102
65.1638489 56.1246719 -37.5369644
63.8398514 56.1256561 -37.5155830
56.0104065 56.1702652 -38.0648308
54.6935310 56.1822586 -38.2631302
53.4199715 56.1956635 -38.4794350
41.7410889 56.4131622 -42.3094902
40.4417114 56.4476509 -42.9387360
39.1411171 56.4847527 -43.6156387
20.9746933 57.3593712 -60.2328377
19.6420250 57.4689369 -62.3410416
106.9482727 58.6043396 -62.3684273
105.4057693 58.4822311 -59.9269371
81.1414948 57.5411148 -40.7275429
79.7963181 57.5181808 -40.2366905
78.4247437 57.4972687 -39.7997131
77.0796738 57.4808807 -39.4191246
75.7568283 57.4663391 -39.0596390
74.4205780 57.4534721 -38.7397957
73.0912933 57.4420624 -38.4760323
71.7572098 57.4320526 -38.2330589
70.4241333 57.4226608 -38.0048637
69.0952301 57.4178009 -37.8435020
67.7848663 57.4125710 -37.6964798
66.4735947 57.4118652 -37.5952225
65.1512146 57.4116211 -37.5414429
63.8409843 57.4118271 -37.5125427
54.6747742 57.4737129 -38.2390671
53.4018250 57.4834747 -38.4666748
41.7354584 57.7093544 -42.3017769
40.4501305 57.7441101 -42.9240150
39.1433258 57.7837219 -43.6104774
37.8531609 57.8238373 -44.3322906
36.5394325 57.8681831 -45.1155853
23.5844860 58.4943542 -56.6443443
22.2642593 58.5876236 -58.3893242
20.9872952 58.6860962 -60.2453461
19.6460419 58.8011818 -62.3711548
106.9712982 59.9260101 -62.4747314
105.3931122 59.7958794 -59.9878082
81.1175308 58.8278885 -40.7370262
79.7985992 58.7977180 -40.2767372
75.7499084 58.7527580 -39.0708542
74.4192963 58.7401123 -38.7580376
65.1542587 58.6980362 -37.5676727
63.8477936 58.7003746 -37.5326538
62.5307007 58.7038307 -37.5179291
53.3935356 58.7748413 -38.4990501
36.5398979 59.1722488 -45.1564903
35.2571335 59.2190437 -45.9787674
33.9633408 59.2687035 -46.8641853
32.6643219 59.3299904 -47.8012161
27.4809837 59.5762253 -52.3477020
26.1862068 59.6512070 -53.6892738
24.8739376 59.7321815 -55.1558037
23.5776615 59.8191109 -56.7238541
22.2706642 59.9146843 -58.4536667
20.9724731 60.0188675 -60.3595657
19.6476002 60.1367760 -62.4747353
107.0042572 61.2514648 -62.6575012
105.4099731 61.1158180 -60.1491165
81.1266327 60.1205978 -40.8049889
75.7487030 60.0416260 -39.1156883
74.3996964 60.0271606 -38.8005257
65.1434555 59.9872437 -37.5901871
63.8316689 59.9878998 -37.5424156
62.5202751 59.9908638 -37.5715408
59.8982010 60.0112038 -37.6825790
58.6012115 60.0117111 -37.7724457
53.3957596 60.0692520 -38.5629997
36.5537376 60.4758415 -45.2103767
35.2623672 60.5259399 -46.0471840
33.9600754 60.5781708 -46.9485245
32.6774368 60.6319923 -47.8929710
31.3664951 60.6938782 -48.9346848
30.0736866 60.7570534 -50.0187836
28.7683697 60.8254776 -51.2004089
27.4663200 60.8983116 -52.4687195
26.1831627 60.9743881 -53.8039818
24.8680172 61.0585976 -55.2788506
23.5766754 61.1471405 -56.8470688
22.2558651 61.2480392 -58.6141205
20.9763260 61.3540497 -60.5161285
19.6396637 61.4786224 -62.6769104
107.0233154 62.5815506 -62.9188423
105.4114609 62.4384537 -60.3637619
81.1255722 61.4113388 -40.8935738
79.7902527 61.3922424 -40.4187775
77.0847015 61.3471451 -39.5465851
75.7532501 61.3326378 -39.1998138
74.4094086 61.3193436 -38.8834076
62.5264168 61.2789993 -37.6555214
61.2151413 61.2877045 -37.6899986
59.8849220 61.2919273 -37.7552567
58.5958061 61.3064957 -37.8608665
57.2997131 61.3129807 -38.0056763
55.9980202 61.3302269 -38.1833038
54.6826134 61.3450432 -38.3994713
53.3810081 61.3660660 -38.6531754
23.5717239 62.4789047 -57.0334206
22.2669563 62.5816193 -58.7978935
20.9656353 62.6951485 -60.7585144
19.6533337 62.8219757 -62.9187241
107.0658646 63.9205971 -63.2995758
105.4568939 63.7716064 -60.7152557
81.1288300 62.7063828 -41.0125313
79.7945709 62.6848450 -40.5351295
78.4569855 62.6697769 -40.0949249
74.4134674 62.6112442 -38.9894218
62.5247269 62.5750885 -37.7715988
61.2143707 62.5848999 -37.8133621
59.9045982 62.5910149 -37.8809891
58.6088638 62.6002617 -37.9850578
57.2862244 62.6162186 -38.1348038
55.9922752 62.6253052 -38.3063889
54.6841316 62.6403160 -38.5142937
53.3842812 62.6596756 -38.7584000
23.5814304 63.8132477 -57.2651978
22.2671852 63.9208527 -59.0681725
20.9801006 64.0362625 -61.0403824
105.4828491 65.1052399 -61.0865021
78.4370346 63.9583321 -40.2356300
74.4279251 63.9068604 -39.1481972
62.5303116 63.8728104 -37.9093590
58.6052361 63.8944855 -38.1260567
23.5723534 65.1563644 -57.5947227
22.2762775 65.2669067 -59.4337769
105.5172119 66.4449081 -61.5424614
78.4362946 65.2555313 -40.4276276
77.1151657 65.2389984 -40.0335464
75.7689362 65.2213974 -39.6734581
74.4371948 65.2079544 -39.3460693
62.5288658 65.1649475 -38.0476189
23.5794983 66.4987946 -57.9642258
22.2883778 66.6153183 -59.8602715
20.9810600 66.7702560 -62.1315880
105.5725861 67.7935257 -62.1138420
103.9902191 67.6465073 -59.6768074
102.4634781 67.5239334 -57.5483475
62.5413208 66.4735260 -38.3079147
58.6012497 66.5027466 -38.5386810
57.3011703 66.5101471 -38.6716690
56.0153236 66.5245438 -38.8493309
54.7148132 66.5411682 -39.0628319
53.4047241 66.5657654 -39.3160439
23.5833168 67.8474884 -58.4016800
105.6695023 69.1621246 -62.8121262
104.0471268 68.9966431 -60.2747612
102.4899750 68.8592834 -58.0406990
62.5526352 67.7756042 -38.5789986
61.2356567 67.7746124 -38.6165848
59.9196358 67.7917938 -38.6879082
58.6334724 67.8001099 -38.7857513
57.3141708 67.8095627 -38.9220695
56.0162048 67.8323669 -39.0929375
54.7184181 67.8477936 -39.3083687
53.4093475 67.8689880 -39.5689888
23.5762291 69.2049789 -58.9278336
22.2427158 69.3391647 -60.8384514
104.0946808 70.3478699 -60.9277573
102.5557709 70.2107391 -58.6758804
57.3317261 69.1223602 -39.2168503
56.0294991 69.1413040 -39.3850479
52.1226959 69.2049637 -40.1600494
50.8298683 69.2277679 -40.4779434
26.2022476 70.3348236 -56.0886917
24.8902912 70.4456329 -57.7233353
23.5895977 70.5666428 -59.4924469
104.1817169 71.7173462 -61.7456970
102.6059952 71.5620422 -59.3707008
57.3398285 70.4305878 -39.5568886
52.1257286 70.5175552 -40.4824181
50.8329353 70.5466461 -40.8200150
26.2018414 71.6962051 -56.6677017
24.8883495 71.8112793 -58.3503342
104.2812729 73.0995255 -62.6549835
102.6808014 72.9293365 -60.2039909
57.3574181 71.7538376 -39.9351463
52.1567001 71.8315887 -40.8551445
50.8557892 71.8606110 -41.1998825
26.2178478 73.0547180 -57.2951660
24.9010925 73.1806717 -59.0263023
23.6066742 73.3127060 -60.8455925
102.7703781 74.3068008 -61.1552811
57.3702621 73.0647964 -40.3364754
56.0678444 73.0863571 -40.4937592
53.4527054 73.1556854 -40.9715118
52.1545372 73.1640167 -41.2887878
50.8563690 73.1945267 -41.6278000
26.2281837 74.4252090 -58.0146828
24.9202118 74.5515442 -59.7799454
102.8612595 75.6914825 -62.1588249
101.2830048 75.5310211 -59.8304672
99.7816010 75.4060898 -57.8536339
60.0101318 74.3683090 -40.5158691
58.7094154 74.3722534 -40.6280746
57.3934250 74.3906174 -40.7820320
56.0905113 74.4127350 -40.9685631
54.7758102 74.4354630 -41.1819000
53.4847336 74.4478226 -41.4312859
28.8385849 75.5727997 -55.6773911
27.5345612 75.6853790 -57.1853218
26.2323875 75.8087463 -58.8395958
24.9428997 75.9401093 -60.6347542
101.3875427 76.9206238 -60.9059677
99.8622589 76.7806473 -58.8216934
60.0278015 75.6838684 -40.9946823
58.7311554 75.7036209 -41.1089401
53.5026245 75.7834625 -41.9412880
28.8482170 76.9488449 -56.4714012
27.5500965 77.0687485 -58.0228043
26.2587662 77.1939240 -59.7146645
101.4904556 78.3208389 -62.1084900
99.9547806 78.1632309 -59.9071121
60.0530357 77.0241089 -41.5352783
58.7605705 77.0219116 -41.6337395
53.5208511 77.1202850 -42.4941139
28.8846779 78.3253326 -57.3172607
100.0552521 79.5663910 -61.1208954
60.0792351 78.3562317 -42.1203766
58.7805290 78.3687973 -42.2283745
57.4664154 78.3862457 -42.3721695
56.1638260 78.4120941 -42.5630722
54.8482895 78.4378281 -42.8085556
53.5464096 78.4489441 -43.0813179
28.8734989 79.7297821 -58.3312149
100.1737213 80.9779892 -62.5026169
98.6530609 80.8302460 -60.3217163
97.1466675 80.6989899 -58.3747330
54.8771248 79.7813263 -43.4515762
53.5735397 79.8075638 -43.7394218
52.2696152 79.8369980 -44.0607681
50.9679565 79.8674240 -44.4161835
49.6792297 79.9011612 -44.8161011
48.3627167 79.9503784 -45.2806244
31.4965553 80.8860931 -56.3750839
30.2099037 80.9959259 -57.8010216
28.9022217 81.1291351 -59.4129410
27.5984039 81.2767410 -61.1364441
100.3647232 82.4451370 -64.1496429
98.7599030 82.2374725 -61.7184715
97.2295532 82.0932236 -59.6204224
54.9142609 81.1297226 -44.1414604
49.7004585 81.2622910 -45.5378609
48.3843765 81.3098068 -46.0120010
31.5260811 82.2872849 -57.4184189
30.2179794 82.4136810 -58.9532928
28.9240971 82.5460434 -60.6129570
98.9319153 83.6966095 -63.3980293
97.3458557 83.5122299 -61.0861053
54.9445305 82.4738998 -44.8778305
49.7364120 82.6172943 -46.2970619
48.4153976 82.6670303 -46.7866745
31.5576897 83.6937866 -58.5736504
30.2560482 83.8270416 -60.1784096
97.4974365 84.9674988 -62.7832260
54.9836617 83.8436127 -45.6890717
53.6868515 83.8656311 -45.9754257
52.3771362 83.9197083 -46.3356934
51.0664139 83.9490356 -46.7115479
49.7738762 83.9798584 -47.1297417
48.4425888 84.0455475 -47.6417274
31.5804272 85.1244583 -59.8859100
30.2905216 85.2671127 -61.5550690
97.7066803 86.4653931 -64.6847076
96.1165085 86.2496719 -62.3514519
94.5949783 86.0988235 -60.3577728
31.6279831 86.5599365 -61.3123550
96.3387451 87.7720718 -64.3751068
94.7486115 87.5574188 -62.1342125
31.6633167 88.0230713 -62.9443436
94.9502640 89.0693436 -64.2105103
93.4259720 88.8864670 -62.1882477
91.9255524 88.7491989 -60.3580246
36.8746223 88.9451370 -58.4620209
35.5973816 89.0566330 -59.7769547
34.2909889 89.1966019 -61.2879639
32.9976006 89.3488312 -62.9468727
31.7081070 89.5147018 -64.7930984
93.6118469 90.3916473 -64.3214111
92.0675507 90.2125854 -62.2728958
36.9222260 90.4070740 -60.0539742
35.6464577 90.5259552 -61.4612083
92.2664490 91.7326431 -64.5506668
90.7375336 91.5656433 -62.5748558
89.2641830 91.4305038 -60.8709602
87.8186569 91.3201828 -59.4176483
86.3887787 91.2329865 -58.1700859
39.5685158 91.6284027 -59.1685181
38.2832794 91.7433548 -60.4084930
36.9877701 91.8768616 -61.8134003
35.7060890 92.0154419 -63.3716202
34.4149895 92.1794739 -65.1603928
90.9462128 93.1087036 -64.9495697
89.4364700 92.9381866 -63.0571785
87.9797668 92.8037643 -61.4420471
86.5189972 92.6951294 -60.0181618
39.6342010 93.1057739 -60.9400673
38.3438110 93.2324524 -62.2992935
37.0443001 93.3806763 -63.8584671
35.7631264 93.5462494 -65.5829773
88.1590271 94.3326950 -63.7475739
86.6892853 94.1914139 -62.1720428
85.2165909 94.0853424 -60.7592239
83.7973938 93.9930191 -59.5586853
42.2841911 94.3617020 -60.4330559
41.0014267 94.4795227 -61.6210899
39.6992989 94.6152802 -62.9817810
38.4136238 94.7560120 -64.4868088
86.8761826 95.7290344 -64.7147751
85.3803940 95.5950012 -63.0991516
83.9503250 95.4940643 -61.7346954
42.3654404 95.8784180 -62.5166435
41.0815086 96.0010910 -63.8287697
85.6182861 97.2043839 -65.8943558
84.1317444 97.0415955 -64.2678604
82.6826477 96.9283447 -62.8687630
81.2754974 96.8347931 -61.6855927
47.6483078 96.9770355 -60.5011940
46.3309326 97.0819168 -61.4449577
45.0546989 97.1734314 -62.4384575
43.7487564 97.2990265 -63.6230278
42.4668503 97.4177704 -64.9252548
41.1637917 97.5856323 -66.4609604
84.3874664 98.6596527 -67.4267273
82.8974609 98.5121536 -65.7301712
81.4618378 98.3804626 -64.3251572
47.7461205 98.5106354 -62.7636719
46.4273758 98.6327896 -63.8376389
81.7059174 100.0232544 -67.6433945
80.2251434 99.8695526 -66.1449356
78.8091431 99.7994690 -64.9688644
77.3781128 99.7012863 -63.8910522
75.9757233 99.6330719 -62.9991226
53.0731659 99.7284698 -62.0730743
51.7616844 99.8088074 -62.7677231
50.4667206 99.8818359 -63.5144768
49.1421852 99.9809265 -64.4215393
47.8568726 100.0798416 -65.4404068
46.5611954 100.2064285 -66.6528473
76.1647949 101.2034225 -66.0042877
53.2000504 101.3077240 -64.8067169
51.8999672 101.3945999 -65.5888214
50.6079369 101.4825363 -66.4666138
49.2861061 101.6028519 -67.5468063
48.0040550 101.7411041 -68.7743073
76.4724579 102.9836426 -70.0212784
75.0380554 102.8778381 -68.7841949
73.5976563 102.7691650 -67.8271790
72.1860962 102.6809692 -67.0758972
70.8028107 102.6416168 -66.4448547
69.4372864 102.5820465 -65.8791428
68.0566711 102.5761108 -65.5021973
66.6893997 102.5636139 -65.2237549
65.3396225 102.5671463 -65.0708160
63.9892044 102.5730896 -64.9921265
62.6501770 102.5756149 -64.9832916
61.2932053 102.6097488 -65.1448288
59.9656639 102.6383057 -65.3835983
58.6242447 102.6815109 -65.7160034
57.3197098 102.7211151 -66.1154022
55.9923401 102.7843628 -66.6651306
54.6709671 102.8730316 -67.3347473
53.3618393 102.9871979 -68.1319275
52.0711975 103.1019821 -69.0686569
69.7008591 104.3448181 -69.8645477
66.9244843 104.2482071 -69.0077209
65.5478516 104.2361298 -68.7903366
64.1956787 104.2315063 -68.6482086
61.4979286 104.2641296 -68.8364029
60.1637840 104.3063583 -69.1158371
58.8316345 104.3832397 -69.4716339
57.5306778 104.4812317 -69.9861755
-82.3853989 -193.4903412 124.8656311
-82.6165771 -193.3132019 125.5417252
-82.8049240 -193.3546143 123.4409561
-84.9493408 -192.8585052 123.4111862
-85.4599609 -192.5139160 122.9301147
-85.5246201 -192.1420898 122.3389893
-186.2856598 -187.8729401 73.8989792
-185.7080383 -187.3330841 73.6224442
-186.2397308 -187.2382507 74.0832672
-190.3919983 -177.9662781 50.8074379
-190.9494019 -177.8637085 51.1721497
-189.8226471 -177.3456421 50.6293411
-190.3371429 -177.3354340 50.9142609
-86.1342545 -54.3414040 115.2172394
-81.4855423 -53.6105270 116.5979919
-81.9999008 -53.6048546 116.8662567
-82.5439072 -53.5913200 117.1175842
-83.0787964 -53.5701256 117.3470535
-83.6166992 -53.5685272 117.4910431
-84.1487732 -53.5454788 117.6516418
-84.7067871 -53.5185509 117.7670746
-85.2627640 -53.4928589 117.8125076
-85.8140945 -53.4987259 117.8650284
-86.3667297 -53.5377235 117.9163361
-86.9178162 -53.5612221 117.9497910
-87.4749985 -53.5886230 117.9155197
-88.0349884 -53.6075821 117.8571625
-88.6009750 -53.6233139 117.7647400
-89.1644897 -53.6362076 117.6848907
-89.7350693 -53.6509285 117.5440826
-75.3195114 -52.4319305 116.6507263
-75.8306122 -52.3651085 117.1796112
-76.3489685 -52.2905807 117.6715851
-91.0019836 -52.2401543 121.2646942
-91.5799866 -52.2821388 121.0825348
-92.1401138 -52.3049278 120.9078979
-92.7380981 -52.3451958 120.6517410
-95.4870682 -51.7828102 120.9843674
-71.9303894 -51.2484474 117.1883011
-72.4280777 -51.1756172 117.8438187
-72.9293137 -51.1146736 118.4288177
-95.2786255 -51.0303154 122.7522507
-98.6973572 -50.6673431 122.2087173
-69.5099335 -49.9525795 118.4167557
-70.0874939 -49.9698219 118.9318619
-70.6128998 -49.8872185 119.6025467
-98.4792480 -49.9326897 123.8409500
-99.0945358 -50.0276833 123.4313660
-99.5349503 -49.4053154 124.4664307
-66.8384247 -48.9241905 117.9988251
-67.3438721 -48.8236237 118.8274460
-99.3529358 -48.7057037 125.8114777
-99.9700699 -48.7672958 125.4193497
-100.5930710 -48.8409576 124.9769287
-64.5677414 -47.7188377 118.1437607
-65.1146317 -47.6896019 118.8994598
-102.6930847 -47.6971436 125.7893829
-103.3165359 -47.7683144 125.3018112
-64.7865143 -45.7554092 122.9205322
-62.1668015 -45.4193649 120.4495697
-62.6821060 -45.3357735 121.2613525
-63.1864166 -45.2703018 122.0202484
-63.6869583 -45.2151260 122.7351761
-64.1890869 -45.1655312 123.4033890
-64.7070389 -45.1114998 124.0695877
-61.5274849 -44.1459312 122.1375580
-106.7483063 -44.2803802 128.5898743
-107.3570557 -44.3315659 128.0601654
-108.0058441 -44.4018364 127.4533997
-108.6368027 -44.4715996 126.8454361
-60.3848534 -42.9982185 122.8672867
-109.0147400 -43.2807617 128.3571320
-108.8705215 -42.6420250 129.3395996
-57.7278290 -42.0516052 120.8177261
-58.2142029 -41.9884987 121.6901398
-58.7190475 -41.9250374 122.5582886
-59.2046318 -41.8852730 123.3166504
-59.7161636 -41.8300400 124.0918045
-60.2215919 -41.7825775 124.7990646
-108.7209778 -42.0179977 130.2781219
-109.3936996 -42.1014900 129.7049713
-56.2017059 -41.6124725 119.1233368
-56.1129189 -40.9884720 120.1826401
-109.7772522 -40.9190216 130.8877258
-110.3971252 -40.9781914 130.3507385
-111.0389328 -41.0496140 129.7764740
-56.0592308 -40.3546066 121.3076324
-110.8716812 -40.4109764 130.6649017
-110.7670288 -39.8026772 131.4555969
-111.3906708 -39.8592529 130.8985596
-112.0425720 -39.9239998 130.2851715
-112.6871338 -39.9966888 129.6608429
-55.9188156 -39.1426582 123.2434845
-113.2208328 -39.4465828 129.8428192
-53.3692703 -38.8695412 119.3494797
-53.8666306 -38.7787514 120.4196854
-54.3681450 -38.7018204 121.4517059
-54.8483047 -38.6606102 122.3434143
-55.3641701 -38.5948372 123.2721252
-55.8500900 -38.5539169 124.0622940
-113.0852737 -38.8207779 130.6722565
-113.7682266 -38.9002533 130.0056152
-114.2865524 -38.3579865 130.1790924
-51.8203850 -37.8292007 118.0488052
-52.2860107 -37.7644463 119.1617355
-52.7846794 -37.6806793 120.3207932
-114.1737747 -37.7477188 130.9562073
-50.7541008 -36.7449799 117.7256699
-113.9520950 -36.5626259 132.4403229
-114.6165390 -36.6278992 131.8092804
-115.2588882 -36.6937714 131.1749420
-50.7171364 -36.1143990 118.8434143
-50.1595268 -35.6040573 118.5294800
-50.6343918 -35.5166702 119.7689438
-115.0381317 -35.5092125 132.5876465
-114.9301834 -34.9150162 133.2404327
-115.5691071 -34.9813728 132.6590881
-49.5107880 -34.4816399 119.2122726
-114.8272476 -34.3290291 133.8712769
-115.9424210 -33.2924156 133.8868408
-48.3663788 -32.8432503 119.4234238
-47.8382454 -32.3213539 119.0797195
-48.3307076 -32.2422333 120.2376785
-117.0505981 -32.2352638 133.7571411
-117.7102661 -32.2932472 133.1112823
-48.3071365 -31.6445274 121.0580215
-118.2678680 -31.7708454 133.0318298
-47.7550163 -31.1376190 120.6433945
-48.2662277 -31.0587921 121.7826538
-118.0903091 -30.6142826 134.1247864
-47.1959686 -30.0285244 120.9589539
-117.9951553 -30.0320377 134.6405029
-118.6844864 -30.0942440 133.9434052
-119.3422165 -30.1448288 133.2685242
-119.2418137 -29.5652180 133.7737274
-119.9005432 -29.6194572 133.0788574
-46.1437302 -29.0001202 120.0115509
-119.1582031 -28.9866352 134.2540741
-46.1350670 -28.4069214 120.7187347
-117.8021774 -28.3429661 136.0225067
-118.4303589 -28.3760815 135.3959503
-45.6042137 -27.8971958 120.1879501
-46.0978622 -27.8298168 121.3293533
-117.7215347 -27.7797527 136.4815369
-117.6494064 -27.2220249 136.9213867
-45.0415344 -26.8105431 120.2294464
-117.6189041 -26.6781788 137.3010559
-118.2710953 -26.7172794 136.6952820
-118.9099274 -26.7709103 136.0359344
-45.0087090 -26.2376289 120.7985916
-118.8247223 -26.2008896 136.4848785
-120.0934296 -26.2381954 135.2528076
-44.4639969 -25.7379436 120.1606979
-44.9880714 -25.6611710 121.3835678
-118.7802429 -25.6394939 136.8880157
-119.4035034 -25.6759892 136.2854614
-120.0201111 -25.7078304 135.6654663
-44.4450569 -25.1631889 120.7459106
-44.9776535 -25.0911140 121.9753418
-121.2742538 -25.2357426 134.7140961
-44.9122391 -24.5451298 122.4087219
-121.2345810 -24.6913776 135.0991364
-121.9078903 -24.7476883 134.4180450
-44.8719330 -23.9890308 122.8752518
-121.1721954 -24.1373901 135.4936829
-44.8522949 -23.4237995 123.3680344
-121.1101837 -23.5765572 135.8811798
-44.8219872 -22.8671532 123.8099518
-85.6163483 -22.0320816 150.4785767
-85.5748215 -20.9762688 150.8365021
-122.2879333 -22.0112419 135.5391541
-122.9627838 -22.0592251 134.8499908
-44.2480965 -21.1682529 124.1733170
-44.7537727 -21.1945591 125.0139771
-85.5572281 -20.4453316 151.0000458
-86.0867538 -20.4487495 151.0206757
-86.6263046 -20.4482307 151.0357056
-87.1735611 -20.4545307 151.0397949
-122.2031784 -21.4479790 135.8815765
-43.7250099 -20.7340488 123.2849808
-43.2614822 -20.2122231 122.6122971
-43.7540741 -20.1691246 123.6699982
-42.7513390 -19.7019482 121.8597412
-122.0662918 -19.8035851 136.7496033
-122.7333374 -19.8409023 136.0788727
-42.7256546 -19.1517143 122.1667709
-122.0321198 -19.2587032 137.0204010
-42.6981812 -18.6035461 122.4656601
-69.7294922 -17.7918396 148.4816437
-70.2597198 -17.7954884 148.6706238
-70.7718048 -17.8496094 148.8383636
-71.2881622 -17.8559856 149.0299530
-77.0265121 -17.7796707 150.6875916
-77.5633163 -17.7781086 150.8041077
-78.0886459 -17.7783432 150.9076843
-80.7492676 -17.8308964 151.3284149
-89.7719879 -17.8509541 151.7434692
-90.3132401 -17.8593559 151.7144165
-42.1878929 -18.0915165 121.6948929
-42.7033768 -18.0415421 122.8315048
-80.7763672 -17.2634888 151.4749146
-89.7789459 -17.3317776 151.9079742
-90.2768250 -17.3924313 151.8631592
-72.3091125 -16.7290382 149.6782532
-80.6984406 -16.7328873 151.6009216
-83.3461914 -16.7502422 151.9015808
-83.8479614 -16.7735405 151.9553528
-88.6713638 -16.8020172 152.0624847
-91.3651886 -16.8223877 151.9141083
-72.2924957 -16.2068691 149.8096466
-80.1476669 -16.2150497 151.6417389
-80.6818619 -16.2059097 151.7203217
-83.3136826 -16.2523079 152.0382843
-88.6443024 -16.2761173 152.1970825
-123.2261353 -17.1547966 136.6148834
-123.8953018 -17.1930962 135.9277649
-65.5591965 -15.7270451 147.1801910
-66.0808640 -15.7622089 147.4251556
-68.6498108 -15.7029467 148.5807495
-69.1718216 -15.6959515 148.7991028
-83.2704849 -15.7192802 152.1672211
-88.1122589 -15.7370481 152.3069763
-88.6452789 -15.7455540 152.3128662
-91.8990707 -15.7741709 152.1112213
-92.4381943 -15.7790728 152.0451813
-123.1807938 -16.6065865 136.8368378
-123.8329468 -16.6395760 136.1715546
-78.5507736 -15.1591482 151.6044159
-79.0755768 -15.1573944 151.6894379
-79.6061935 -15.1552906 151.7751007
-83.2998276 -15.1886845 152.3050995
-88.1022263 -15.2153387 152.4216003
-88.5920639 -15.1985416 152.4323883
-92.4279633 -15.2589817 152.1624756
-123.1521912 -16.0650330 137.0420685
-42.6434517 -15.3051863 124.2210846
-78.5441818 -14.6311216 151.7068787
-93.4911346 -14.7476501 152.1236420
-94.0399780 -14.7557936 152.0439453
-94.5925522 -14.7625685 151.9645996
-123.1060944 -15.5197439 137.2599792
-41.1414070 -14.8716383 121.1468048
-41.6499825 -14.8295670 122.3014297
-42.1402473 -14.7946005 123.3922729
-42.6338844 -14.7612019 124.4436951
-78.5407944 -14.1093597 151.8083191
-123.0631027 -14.9788113 137.4535065
-123.7546310 -15.0151863 136.7402039
-124.4189911 -15.0483570 136.0478668
-41.1215591 -14.3272858 121.3699799
-41.6205826 -14.2880039 122.4988632
-95.1031723 -13.7189016 152.1043396
-95.6428833 -13.7246704 152.0094604
-124.3676376 -14.5015898 136.2435303
-41.6235886 -13.7398691 122.7676849
-63.4547234 -13.1181459 146.6566010
-63.9629822 -13.1139469 146.9359436
-64.4748764 -13.1088257 147.2106628
-64.9895096 -13.1043081 147.4793243
-65.5099335 -13.0975418 147.7436066
-66.0192261 -13.0951252 147.9934845
-66.5302429 -13.0937586 148.2323608
-67.0536346 -13.0888844 148.4675140
-67.5671463 -13.0889874 148.6956635
-95.6357498 -13.2007809 152.1087341
-65.5008392 -12.5755949 147.8213806
-66.0258865 -12.5692472 148.0805511
-66.5294266 -12.5697451 148.3154602
-67.0483704 -12.5630188 148.5501099
-65.4985809 -12.0504112 147.9042816
-40.6092033 -12.1758232 120.9982300
-63.4312057 -11.5461779 146.8949585
-63.9383392 -11.5436516 147.1740570
-64.4568863 -11.5359774 147.4521179
-64.9734497 -11.5305691 147.7206421
-65.4789352 -11.5298653 147.9776917
-97.8149872 -11.6644640 151.9066772
-40.5624237 -11.6384144 121.0746841
-63.4340401 -11.0213108 146.9800568
-97.8062744 -11.1368170 151.9848328
-40.5765533 -11.0914612 121.2898788
-63.4254379 -10.4973440 147.0551147
-97.8134613 -10.6184235 152.0569763
-124.2266312 -11.2626228 137.0997162
-40.5936890 -10.5442352 121.4991150
-63.4109879 -9.9769964 147.1202393
-124.2165146 -10.7257280 137.2092285
-40.5694580 -10.0046749 121.5968475
-62.3694878 -9.4601974 146.5889130
-98.8960800 -9.5857143 151.9087982
-124.2029495 -10.1888962 137.3101959
-40.5690765 -9.4626474 121.7303467
-62.3656158 -8.9381838 146.6347351
-98.8987961 -9.0639811 151.9548340
-124.1915817 -9.6516333 137.3980408
-40.5642395 -8.9216747 121.8360062
-61.3460464 -8.4235592 146.0580750
-61.8672600 -8.4179516 146.3709259
-98.8797913 -8.5397615 152.0062408
-40.5627785 -8.3814068 121.9327240
-61.8775253 -7.9553280 146.3893433
-124.1553955 -8.5795879 137.5399475
-124.8104935 -8.6033144 136.8445129
-125.5064545 -8.6294374 136.0974274
-40.5572853 -7.8418031 122.0060654
-125.4866333 -8.0918045 136.1539459
-40.5489731 -7.3030891 122.0607147
-60.2425461 -6.8697891 145.4150085
-125.4443359 -7.5534263 136.2350616
-40.5535660 -6.7626815 122.1320724
-60.2506409 -6.3442121 145.4266815
-60.7208939 -6.3943620 144.9841309
-99.4347534 -6.4611311 151.9882355
-99.9786758 -6.4678106 151.8349609
-125.4416733 -7.0177274 136.2714386
-40.5493164 -6.2239027 122.1700058
-60.2616463 -5.8052263 145.4540558
-60.7305832 -5.7752967 145.4409637
-125.4546814 -6.4828553 136.2868500
-40.5594330 -5.6851597 122.2212830
-60.3395615 -5.3101020 145.5459595
-60.8252602 -5.2275629 145.8312073
-125.4686584 -5.9479766 136.2962952
-40.5795631 -5.1462793 122.2748795
-60.3337593 -4.7717500 145.5605164
-60.8450241 -4.7680831 145.8766937
-61.3520813 -4.7648482 146.1934967
-98.3273697 -4.8843303 152.3063660
-40.5479698 -4.6099725 122.1997986
