91.9879990 86.1922607 -37.7668228
86.4797363 85.9642029 -34.6755142
81.0730515 85.8115540 -32.4699821
75.7469330 85.7202148 -30.9910736
70.4716034 85.6783905 -30.1187134
65.2494965 85.6895294 -29.8527431
44.6101418 86.2014847 -34.4091301
39.4801331 86.4666595 -37.1716309
34.3453522 86.8082275 -40.8375092
86.5888672 91.2053452 -36.1367035
81.1628876 91.0339432 -33.8204117
75.8217926 90.9302826 -32.2631607
70.5428772 90.8855515 -31.3760796
65.3085403 90.8979645 -31.0984268
60.1101265 90.9582520 -31.3778534
54.9359360 91.0716705 -32.2434998
49.7868271 91.2396011 -33.7044601
44.6508789 91.4668198 -35.8284760
39.5158005 91.7649612 -38.7398987
86.7541199 96.5371857 -38.3859863
81.3067932 96.3380661 -35.8788528
75.9442902 96.2185745 -34.2220879
70.6517944 96.1682434 -33.2721901
65.4050827 96.1770172 -32.9565048
60.1996803 96.2475891 -33.2632637
55.0158577 96.3745193 -34.1782646
49.8613129 96.5621033 -35.7210846
44.7209091 96.8181763 -37.9866333
81.5196152 101.7560806 -38.8312683
76.1261215 101.6128006 -36.9910583
70.8120193 101.5516281 -35.9454613
65.5524445 101.5591812 -35.5948563
60.3315773 101.6326294 -35.9040375
55.1416435 101.7754059 -36.8787842
49.9772797 101.9898682 -38.5654793
44.8285599 102.2856598 -41.0482330
76.3900909 107.1531830 -40.8369141
71.0428162 107.0698624 -39.6189270
65.7601318 107.0729294 -39.2036438
60.5211601 107.1560135 -39.5377045
55.3181152 107.3211975 -40.6270180
71.3732529 112.7973022 -44.7647934
66.0543671 112.7885284 -44.2263870
60.7906189 112.8803864 -44.5927505
55.5714302 113.0747452 -45.8627548
-72.0655746 -30.5142727 131.3741150
-74.1153946 -30.4601269 132.7278595
-76.1943817 -30.4284401 133.7556152
-78.2944031 -30.4042645 134.5653992
-80.4180450 -30.3957100 135.1469116
-82.5694962 -30.3963184 135.5094910
-84.7496643 -30.4142056 135.6362762
-86.9416809 -30.4419975 135.5523071
-89.1800232 -30.4833946 135.2306213
-91.4394455 -30.5399036 134.6550598
-67.5830765 -28.2577209 132.7586517
-69.6198883 -28.1876888 134.4409637
-71.6639786 -28.1387482 135.7880554
-73.7360687 -28.1028461 136.8924561
-75.8185120 -28.0766029 137.7799072
-77.9162369 -28.0630684 138.4721985
-80.0363312 -28.0557194 138.9882050
-82.1778107 -28.0621910 139.3134766
-84.3401566 -28.0773048 139.4723358
-86.5164642 -28.1030083 139.4380493
-88.7306061 -28.1353989 139.2298431
-90.9582291 -28.1833839 138.8013306
-93.2231598 -28.2423134 138.1571655
-95.5109253 -28.3085537 137.2799377
-67.2578125 -25.9319725 136.6139526
-69.3152618 -25.8812447 138.0506592
-71.3712463 -25.8376369 139.2440491
-95.0845947 -26.0010262 140.8528900
-97.3796082 -26.0722809 139.9050598
-62.9262619 -23.7759972 136.4620361
-64.9663544 -23.7109375 138.2452545
-67.0002136 -23.6600819 139.7445679
-69.0647278 -23.6158905 141.0396729
-71.1210022 -23.5911102 142.0966187
-94.7316437 -23.7442513 143.7822113
-97.0013885 -23.8012962 142.9840393
-99.3051300 -23.8747978 141.9553833
-101.6299210 -23.9542770 140.6943970
-58.6564941 -21.6694260 135.3112183
-60.6715851 -21.5900917 137.5057526
-62.6969032 -21.5281715 139.3567505
-98.9670944 -21.6354446 144.6649780
-101.2704773 -21.7061920 143.5611877
-103.6261749 -21.7901611 142.1934814
-56.4304085 -19.5080795 135.8312225
-58.4439621 -19.4312744 138.1284943
-60.4674911 -19.3656483 140.1047974
-62.4976578 -19.3157654 141.8036957
-98.6840210 -19.4288445 146.9849701
-100.9684372 -19.4941101 145.9831543
-103.2953033 -19.5643921 144.7795563
-105.6359406 -19.6449203 143.3453979
-54.2469597 -17.3646431 135.9877930
-56.2433929 -17.2885628 138.4094543
-58.2597389 -17.2249489 140.4958038
-103.0118866 -17.3692856 146.9861450
-105.3318939 -17.4405785 145.6890869
-107.7246780 -17.5210457 144.1084595
-54.0839958 -15.1632805 138.3663788
-56.0895157 -15.1012459 140.5850220
-58.1098251 -15.0506153 142.5267944
-102.7704315 -15.1993065 148.8935852
-105.0656052 -15.2591019 147.7107086
-107.4372253 -15.3323240 146.2606964
-109.8197098 -15.4117908 144.5798645
-49.9510269 -13.1263723 135.2053833
-51.9279785 -13.0536022 137.9637909
-53.9465637 -12.9879494 140.3872528
-107.1953201 -13.1668453 148.1071167
-109.5485229 -13.2338543 146.5670166
-111.9735336 -13.3131275 144.7125702
-47.8272858 -11.0229797 134.2391815
-49.8294525 -10.9431677 137.3250580
-51.8097687 -10.8852549 139.8639374
-53.8328743 -10.8306446 142.1367493
-106.9800797 -11.0169325 149.7201843
-109.3117294 -11.0770063 148.2870026
-111.7180862 -11.1469755 146.5690002
-47.7123566 -8.8495750 136.2455292
-49.7221565 -8.7876701 139.0936279
-72.1491776 -8.5308199 154.6638336
-74.2164841 -8.5314703 155.2441711
-76.3043747 -8.5324945 155.7262573
-78.3991089 -8.5362692 156.1123962
-80.4941864 -8.5462112 156.3750763
-82.6072693 -8.5552464 156.5535278
-111.5010986 -8.9986763 148.1598358
-113.9134293 -9.0660744 146.2941437
-47.6182632 -6.6966686 137.9294281
-49.6271324 -6.6454325 140.6142273
-72.0595398 -6.4365621 155.6650391
-74.1281128 -6.4370737 156.2361298
-76.2123337 -6.4421597 156.7050629
-78.3024139 -6.4490633 157.0755310
-80.3928070 -6.4565825 157.3498077
-82.5080414 -6.4668460 157.5297546
-111.3085938 -6.8637514 149.5374146
-113.7065887 -6.9228482 147.7833710
-45.5492058 -4.6074986 136.4244080
-47.5322647 -4.5596609 139.3454285
-49.5524292 -4.5176754 141.9095306
-63.7434921 -4.3715734 153.2219543
-65.7872086 -4.3622975 154.2278748
-67.8514404 -4.3599119 155.1059570
-69.9047241 -4.3551226 155.8744049
-71.9774094 -4.3557549 156.5448303
-74.0528336 -4.3582678 157.1040649
-82.4231262 -4.3861570 158.3909607
-84.5285645 -4.3981853 158.4835815
-86.6623917 -4.4132061 158.4636688
-88.7931519 -4.4289355 158.3573914
-90.9483566 -4.4471006 158.1464386
-111.1475296 -4.7410975 150.7317810
-113.5312653 -4.7932997 149.0537720
-115.9644012 -4.8505402 147.0835571
-45.4725266 -2.4739060 137.7580872
-47.4620361 -2.4345002 140.5494843
-49.4847527 -2.4004896 143.0193634
-63.6875381 -2.2860565 154.0548096
-65.7230759 -2.2842596 155.0239563
-67.7878799 -2.2797906 155.8952332
-69.8441315 -2.2776334 156.6628876
-71.9119415 -2.2788126 157.3188629
-73.9824829 -2.2809181 157.8757629
-86.5807877 -2.3359725 159.2290649
-88.7107315 -2.3523178 159.1274567
-90.8654327 -2.3698223 158.9230652
-111.0080261 -2.6304488 151.7537231
-113.3764725 -2.6752357 150.1440887
-115.7980347 -2.7248018 148.2633667
-45.4131241 -0.3482487 138.8839111
-55.4825592 -0.2420248 149.6062622
-57.5084991 -0.2320907 151.1049652
-59.5438995 -0.2229415 152.4650574
-61.5826759 -0.2148983 153.6799774
-63.6284828 -0.2115201 154.7570801
-73.9230194 -0.2138190 158.5259094
-88.6417542 -0.2820907 159.7884827
-90.7926559 -0.2980560 159.5921631
-92.9499283 -0.3158433 159.2931213
-95.1214066 -0.3335139 158.9052734
-97.3140869 -0.3552448 158.4024200
-99.5112152 -0.3784924 157.7856445
-115.6638184 -0.6074386 149.2608795
-43.3640671 1.7386966 136.7688293
-45.3618622 1.7659087 139.8150482
-55.4372101 1.8409749 150.2716827
-57.4703674 1.8488249 151.7568512
-59.5042648 1.8543025 153.0973816
-61.5402031 1.8585711 154.2942047
-97.2449188 1.7176974 159.0036926
-99.4382935 1.6975136 158.4011993
-115.5423431 1.5011086 150.1002502
-118.0011063 1.4613463 148.0431824
-41.3396339 3.8313658 134.1484375
-43.3194313 3.8550668 137.6199951
-45.3207626 3.8740711 140.5787048
-55.4050751 3.9208550 150.8424530
-57.4301109 3.9239480 152.2971039
-97.1850815 3.7851958 159.5032959
-99.3835678 3.7668273 158.9052734
-101.6010895 3.7492440 158.1996918
-103.8410416 3.7281911 157.3683014
-115.4488373 3.6031618 150.7856445
-117.8985443 3.5708106 148.7892914
-41.3063736 5.9521289 134.9154053
-43.2844543 5.9650116 138.2864075
-45.2859268 5.9753141 141.1851959
-55.3752861 5.9944668 151.2878571
-57.4059105 5.9951625 152.7358856
-101.5527725 5.8183293 158.6251068
-103.7868347 5.8015075 157.8047180
-115.3742218 5.7001414 151.3348083
-117.8119736 5.6748166 149.3909607
-41.2787590 8.0668039 135.4955292
-55.3580666 8.0668163 151.6503601
-57.3855591 8.0627937 153.0765991
-59.4203529 8.0590153 154.3707886
-101.5186844 7.8843131 158.9474792
-103.7492599 7.8711605 158.1372528
-115.3176041 7.7931190 151.7558289
-117.7540512 7.7741127 149.8397369
-41.2618179 10.1778870 135.9026031
-55.3443375 10.1355448 151.8940582
-99.2792358 9.9586058 159.8645630
-101.4908524 9.9487991 159.1843719
-103.7223358 9.9385386 158.3751526
-115.2828598 9.8831501 152.0510559
-117.7075958 9.8708544 150.1649780
-41.2533188 12.2870407 136.1227722
-55.3430176 12.2033195 152.0410614
-99.2626190 12.0190306 160.0049133
-101.4837341 12.0115051 159.3180542
-103.7069244 12.0044918 158.5144653
-115.2628708 11.9715214 152.2234192
-117.6847687 11.9656773 150.3474121
-120.1630402 11.9600096 148.1645355
-41.2601624 14.3953400 136.1944580
-55.3452492 14.2704182 152.0886078
-57.3738403 14.2566376 153.5007629
-101.4757996 14.0741062 159.3675385
-103.7080536 14.0700054 158.5639038
-115.2566071 14.0592699 152.2852325
-117.6780777 14.0596647 150.4141846
-120.1500854 14.0613794 148.2382507
-122.7061005 14.0647449 145.6535645
-41.2703362 16.5042953 136.1046143
-55.3552780 16.3379307 152.0339661
-101.4887543 16.1367321 159.3155975
-103.7176361 16.1357765 158.5138855
-115.2713776 16.1475735 152.2178497
-117.6931458 16.1541710 150.3407288
-120.1666336 16.1629658 148.1612244
-41.2873306 18.6155605 135.8389893
-55.3737984 18.4062653 151.8858337
-99.3037262 18.1996078 159.8512878
-101.5067520 18.2002087 159.1763611
-103.7404404 18.2025032 158.3679199
-115.3046875 18.2369766 152.0361328
-117.7322311 18.2504578 150.1370239
-41.3204308 20.7304173 135.4129181
-43.3071289 20.6804237 138.7463531
-45.3114624 20.6374092 141.5992737
-55.3959770 20.4778099 151.6260986
-57.4260712 20.4528503 153.0615997
-99.3327179 20.2623291 159.6294861
-115.3484650 20.3290215 151.7356567
-117.7845306 20.3491879 149.8115845
-41.3670311 22.8486519 134.8186951
-43.3462791 22.7899017 138.2176361
-45.3455200 22.7387142 141.1155853
-55.4294586 22.5518818 151.2615204
-57.4589920 22.5231476 152.7144012
-59.4918747 22.4982624 154.0168762
-61.5237732 22.4745407 155.1842957
-97.1887894 22.3231697 159.8879242
-99.3817825 22.3277225 159.3069763
-115.4208832 22.4250717 151.3016052
-117.8540497 22.4517689 149.3507385
-43.3832703 24.9077263 137.4922028
-45.3871269 24.8456287 140.4808655
-59.5318069 24.5687752 153.5866241
-61.5636902 24.5430832 154.7668762
-97.2461319 24.3893909 159.4778900
-99.4422913 24.3983269 158.8793945
-115.5064621 24.5261478 150.7364502
-117.9477081 24.5598507 148.7441864
73.8229828 31.5082321 -58.2530289
71.0903549 31.4822636 -57.3813438
68.3863220 31.4685383 -56.8643036
65.7063065 31.4578037 -56.6724396
63.0354843 31.4578590 -56.7612495
60.3864975 31.4635563 -57.1473236
57.7482529 31.4766045 -57.8551712
55.1287346 31.5009804 -58.8951035
-43.4424744 27.0305061 136.6184998
-45.4398003 26.9595947 139.6940765
-59.5788536 26.6450653 153.0423126
-61.6174698 26.6141911 154.2444153
-63.6580963 26.5882835 155.3218231
-95.1268768 26.4523182 159.4695129
-97.3135071 26.4600296 158.9746246
-99.5165863 26.4702835 158.3691101
-115.6131134 26.6330585 150.0326080
-118.0701752 26.6757011 147.9709778
78.9950409 34.0848846 -55.8071289
76.2365189 34.0437851 -54.4928474
73.5011597 34.0165787 -53.5092163
70.7960587 34.0015030 -52.8082199
57.5127449 33.9984932 -53.3301544
54.8924179 34.0168533 -54.2014198
52.2815704 34.0419159 -55.3875504
49.6779976 34.0808792 -56.8824348
-43.5116844 29.1646156 135.5235138
-45.5004730 29.0822906 138.7315979
-47.4998550 29.0122662 141.4619751
-49.5156631 28.9497147 143.8500366
-63.7189980 28.6626816 154.7137604
-65.7635269 28.6370335 155.6867828
-67.8171387 28.6130600 156.5428314
-69.8728027 28.5932579 157.2918091
-71.9407959 28.5735626 157.9450836
-74.0125885 28.5574074 158.5004120
-76.0865173 28.5451126 158.9593048
-78.1741791 28.5321522 159.3237000
-80.2660751 28.5245285 159.5989838
-82.3694763 28.5165672 159.7796936
-84.4787521 28.5125675 159.8640747
-86.6000443 28.5098495 159.8626404
-88.7389908 28.5121841 159.7588196
-90.8794098 28.5146255 159.5541992
-93.0394974 28.5193310 159.2622681
-95.2015686 28.5259285 158.8707275
-110.9676056 28.6690369 152.5743408
-113.3385620 28.7054272 150.9955750
-115.7409592 28.7472572 149.1847229
-118.2070007 28.7986908 147.0465698
81.4646912 36.6310272 -53.1189156
78.6889038 36.5888596 -51.6606979
75.9502182 36.5571060 -50.5399170
73.2497787 36.5298233 -49.7264824
70.5561295 36.5138092 -49.1539116
57.3230133 36.5158310 -49.6915283
54.7051468 36.5387306 -50.4741058
52.0967979 36.5635376 -51.5190430
49.4936142 36.6012115 -52.8102493
46.8956070 36.6434326 -54.4412155
44.3142967 36.7052765 -56.4383087
-43.6014938 31.3099403 134.2147369
-49.5847397 31.0653801 142.8738403
-63.7831802 30.7446499 153.9892273
-65.8307037 30.7174721 154.9724274
-67.8835602 30.6902351 155.8513794
-69.9473953 30.6670113 156.6181488
-72.0043793 30.6469765 157.2660522
-74.0804672 30.6326809 157.8244171
-76.1548996 30.6168022 158.2875214
-78.2492065 30.6052322 158.6597595
-80.3387604 30.5952263 158.9396973
-82.4466019 30.5879440 159.1216278
-84.5633392 30.5860481 159.1915588
-86.6828156 30.5845299 159.1920166
-88.8168793 30.5858116 159.0871277
-90.9611511 30.5895214 158.8851929
-93.1254120 30.5964870 158.5803833
-95.2951355 30.6072636 158.1721649
-111.0904922 30.7761135 151.6990967
-113.4717712 30.8214588 150.0581970
-115.8906021 30.8725071 148.1684723
83.9562225 39.1837692 -51.1285744
81.1817856 39.1341553 -49.5498962
78.4450989 39.0914497 -48.2977982
75.7208862 39.0636902 -47.3105736
46.7506485 39.1657982 -50.9315300
44.1620598 39.2157974 -52.6896896
-49.6608162 33.1911163 141.7311401
-72.0856094 32.7273941 156.5003357
-74.1603699 32.7109566 157.0593719
-82.5309372 32.6687164 158.3483276
-111.2429199 32.8967094 150.6545258
-113.6315384 32.9476776 148.9517822
92.2218628 41.9060440 -54.5104866
89.3345032 41.8113785 -51.8431549
86.4986191 41.7432556 -49.6925659
83.7067413 41.6811142 -47.9687996
80.9536133 41.6378899 -46.5583878
78.2260437 41.5940819 -45.4465141
75.5245895 41.5695190 -44.5690346
46.6161041 41.6840210 -47.9990311
-49.7556343 35.3306389 140.4054565
-72.1769104 34.8176918 155.6043243
-74.2510986 34.7977753 156.1760864
-82.6301498 34.7548866 157.4806213
-111.4175339 35.0262260 149.4446411
-113.8246841 35.0879860 147.6465149
91.9203796 44.3905220 -51.1059341
89.0675049 44.3088150 -48.7544289
86.2702179 44.2376900 -46.8560028
51.6885071 44.1179581 -43.2146263
49.0988770 44.1559258 -44.2447701
46.5072098 44.2022743 -45.4968758
-47.8632545 37.5889587 135.9582062
-49.8584023 37.4874840 138.8389587
-51.8647003 37.3952789 141.3192902
-53.8779488 37.3175659 143.4707031
-72.2742615 36.9176979 154.5859680
-74.3550797 36.8963661 155.1726685
-82.7414703 36.8509674 156.4968262
-111.6207275 37.1724548 148.0408173
-114.0411911 37.2407570 146.1456604
94.5573120 46.9827652 -50.8858871
91.6815262 46.8840637 -48.3168259
88.8522568 46.7997131 -46.2204361
86.0719757 46.7362366 -44.4782982
51.5843048 46.6311569 -41.1648941
49.0003395 46.6707420 -42.1485786
-49.9820023 39.6604118 137.0155334
-51.9783936 39.5571861 139.6537781
-53.9914055 39.4692841 141.9352722
-72.3870468 39.0270157 153.4510803
-74.4676895 39.0055199 154.0437164
-76.5522919 38.9852829 154.5416260
-78.6481476 38.9730682 154.9246216
-80.7501221 38.9626465 155.2024231
-82.8658905 38.9581604 155.3768616
-111.8469238 39.3341446 146.4212036
97.2343979 49.5945969 -51.1676712
94.3253708 49.4749870 -48.3138275
91.4766235 49.3787079 -45.9812164
88.6664658 49.2985306 -44.0249939
85.8976669 49.2355042 -42.3927307
56.6762199 49.0793686 -38.0112572
54.0792503 49.1087494 -38.6029968
51.4897919 49.1421738 -39.3770752
-50.1270790 41.8597145 134.8482056
-52.1157951 41.7407341 137.7164917
-54.1197815 41.6405640 140.1441803
-56.1322975 41.5516701 142.2616119
-58.1530609 41.4767838 144.1057129
-107.3325653 41.3674202 147.9657898
-109.7011871 41.4344711 146.3953705
-112.1157684 41.5168953 144.5255280
97.0149689 52.0865974 -48.7690582
94.1321106 51.9720078 -46.1512527
91.2974014 51.8766441 -43.9628143
88.5026703 51.7978401 -42.1334076
85.7512512 51.7304840 -40.6109161
56.5937386 51.5863304 -36.4767494
54.0010376 51.6179047 -37.0592995
51.4126053 51.6534691 -37.8129807
-52.2738609 43.9511871 135.4046326
-54.2701683 43.8334579 138.0619507
-56.2763634 43.7337494 140.3371582
-58.2955475 43.6475258 142.2955627
-107.5864868 43.5464859 146.0851288
-109.9856720 43.6280136 144.3588867
99.7580872 54.7208481 -49.7553177
96.8275223 54.5833282 -46.7694397
93.9589691 54.4697266 -44.3084412
91.1492233 54.3753052 -42.2492599
56.5151215 54.0936470 -35.1371880
53.9260635 54.1258202 -35.6935883
-54.4493027 46.0588799 135.5872345
-56.4461441 45.9424477 138.0807800
-58.4591064 45.8451653 140.1956177
-60.4821625 45.7593193 142.0524597
-62.5168724 45.6838150 143.6611938
-103.1875458 45.6073418 146.7956238
-105.5139771 45.6723633 145.4781952
-107.8844452 45.7542191 143.8860474
102.5498657 57.3915367 -51.3146133
99.5671844 57.2226257 -47.8653488
96.6682129 57.0864792 -45.0817795
93.8203735 56.9710808 -42.7558708
91.0121765 56.8787842 -40.7775269
56.4483948 56.6026955 -33.9643135
53.8535271 56.6360817 -34.5223808
-56.6407852 48.1877480 135.3863983
-58.6506805 48.0717621 137.7469330
-60.6664543 47.9707718 139.7651825
-62.6946716 47.8897400 141.4876556
-103.4811172 47.8194122 144.5460358
-105.8356934 47.9016380 143.0606232
102.3824310 59.8951874 -49.5553665
99.4169235 59.7285995 -46.3129539
96.5323334 59.5916824 -43.6599770
56.3864517 59.1142845 -32.9431992
53.7954216 59.1503067 -33.5037079
-58.8766823 50.3385391 134.8063507
-60.8799706 50.2211571 137.0613861
-62.9056702 50.1280365 138.9471130
-64.9408264 50.0374832 140.6067810
-66.9855728 49.9701462 142.0132599
-94.6642303 49.8214417 146.0346069
-96.9075470 49.8650093 145.3181763
-99.1787720 49.9190712 144.4111023
-101.4817657 49.9870300 143.2791138
-103.8281784 50.0681915 141.8917236
102.2343750 62.4079514 -48.1095581
99.2883759 62.2401886 -45.0225067
96.4150543 62.1037674 -42.4691353
56.3291321 61.6264496 -32.1055603
53.7458420 61.6656952 -32.6558228
-63.1516914 52.4037743 135.9458771
-65.1784973 52.3066330 137.7727051
-67.2236786 52.2227478 139.3224792
-94.9685974 52.0612411 143.4944153
-97.2287598 52.1141129 142.6766205
-99.5262604 52.1819992 141.6222839
102.1167068 64.9289246 -46.9597626
82.5397491 64.1983109 -33.7137566
79.8533707 64.1535339 -32.8038368
77.1939392 64.1175079 -32.0824509
74.5417938 64.0919037 -31.4861374
71.9075775 64.0743103 -31.0516834
69.2780151 64.0652924 -30.7725334
66.6628036 64.0649567 -30.6241913
64.0597687 64.0723724 -30.5950737
61.4616089 64.0869370 -30.7149315
58.8697510 64.1131134 -30.9996700
56.2905121 64.1467361 -31.3987427
53.6950531 64.1851044 -31.9381275
-67.5016479 54.5216370 136.1088409
-69.5452423 54.4400482 137.5765381
-71.6127930 54.3733063 138.8123779
-73.6897430 54.3177223 139.8345642
-75.7839432 54.2746201 140.6714630
-86.4551315 54.2149124 142.2571716
-88.6395416 54.2301712 142.0863953
-90.8460541 54.2591476 141.7421112
-93.0751038 54.2974701 141.2058716
-95.3312988 54.3505936 140.4602509
105.0139923 67.6697388 -49.5902939
102.0224915 67.4582977 -46.0580750
82.4824524 66.7145844 -33.0869293
79.8032150 66.6682587 -32.2084541
77.1306915 66.6315842 -31.4539413
-69.8806763 56.7895813 133.8058472
-71.9382477 56.7072830 135.2340851
-74.0158997 56.6437912 136.3861084
-76.1016083 56.5926628 137.3201904
-86.8098373 56.5228729 139.0027161
-89.0111618 56.5486374 138.7550354
-91.2347260 56.5819359 138.3208313
104.9380722 70.2137375 -48.8536415
101.9456863 69.9982834 -45.3838654
87.8555984 69.3663864 -34.9257660
85.1313705 69.2942963 -33.6588631
82.4367828 69.2358322 -32.6054764
79.7603683 69.1874008 -31.7177162
-76.4993134 58.9818764 133.1173248
-78.6116333 58.9392204 133.9489288
-80.7369385 58.9080124 134.5421600
-82.8834381 58.8923111 134.9004059
-85.0590057 58.8925095 135.0280762
-87.2557526 58.9081154 134.9230347
-89.4731827 58.9387589 134.5697784
104.8767624 72.7696381 -48.3477478
101.9031830 72.5486298 -44.9379082
87.8175507 71.8984833 -34.5737152
85.1024933 71.8238907 -33.3157425
82.4029236 71.7630463 -32.2607307
79.7285385 71.7145157 -31.3858528
104.8473511 75.3409882 -48.1045227
101.8699646 75.1108627 -44.6906281
87.7939148 74.4386749 -34.3691177
85.0743179 74.3615417 -33.1130447
74.3959198 74.1819153 -29.9145412
71.7700882 74.1658783 -29.5116692
69.1440964 74.1575928 -29.2309494
104.8434982 77.9286118 -48.0994873
101.8577728 77.6872787 -44.6597862
87.7818909 76.9887543 -34.3139153
85.0661774 76.9096069 -33.0660973
74.3859787 76.7218933 -29.8308601
71.7465668 76.7041092 -29.4179020
69.1325302 76.6973953 -29.1548843
45.8771820 77.0872345 -32.8435974
43.3149223 77.1841812 -33.9794617
104.8587418 80.5331497 -48.3242607
101.8702011 80.2804565 -44.8452454
87.7785797 79.5477448 -34.3884125
85.0647507 79.4662857 -33.1391754
74.3787384 79.2732849 -29.9250202
71.7556610 79.2562256 -29.5129261
69.1318893 79.2484283 -29.2219048
66.5189590 79.2530365 -29.0981503
63.9246902 79.2653351 -29.0900707
61.3273201 79.2891388 -29.2272186
45.8716736 79.6583939 -32.9328232
43.3081627 79.7603683 -34.0797195
40.7472687 79.8761597 -35.4050369
33.0503998 80.3249664 -40.6814003
25.3289299 80.9828491 -48.6756783
108.0214920 83.5117798 -53.4014664
104.8995361 83.1605911 -48.8253059
101.9055710 82.8917847 -45.2526550
87.7985077 82.1226196 -34.6428680
85.0747681 82.0340195 -33.3570900
82.3748779 81.9643555 -32.2983704
79.6946106 81.9078674 -31.4049129
77.0319061 81.8657455 -30.6882343
74.3920212 81.8361359 -30.1264267
71.7548828 81.8157196 -29.6908607
69.1322784 81.8088074 -29.4158974
66.5270996 81.8150177 -29.3025875
63.9200821 81.8292389 -29.2890949
61.3339272 81.8534241 -29.4222527
58.7441025 81.8879852 -29.6894665
51.0108185 82.0670929 -31.3502636
48.4430122 82.1469421 -32.1702309
45.8763771 82.2423706 -33.1683006
43.3143234 82.3477478 -34.3230362
40.7481918 82.4708099 -35.6701813
38.1883469 82.6082382 -37.2055550
35.6170540 82.7646561 -38.9821930
33.0537720 82.9423218 -41.0134697
30.4793262 83.1434784 -43.3354454
27.9105968 83.3718185 -46.0094147
101.9605713 85.5253296 -45.8993454
99.0344925 85.2969666 -42.9260025
96.1672058 85.1064987 -40.4328690
61.3438759 84.4307709 -29.7620163
58.7500343 84.4705124 -30.0463104
56.1655045 84.5200424 -30.4553680
53.5874405 84.5793076 -31.0039825
51.0125160 84.6548157 -31.7037640
48.4467850 84.7388153 -32.5416260
30.4859333 85.7897034 -43.8983917
27.9180183 86.0325317 -46.6432800
102.0426483 88.1848602 -46.8012810
99.1037064 87.9392471 -43.7183609
96.2261353 87.7335968 -41.1451569
61.3613739 87.0175705 -30.2399006
58.7621269 87.0611115 -30.5179939
56.1892929 87.1119232 -30.9232616
53.6076279 87.1764145 -31.4921379
51.0314026 87.2568970 -32.2060585
48.4637032 87.3452759 -33.0620956
30.4957657 88.4576187 -44.6757355
27.9224854 88.7202835 -47.5319633
102.1497116 90.8742676 -47.9995766
99.1874771 90.6029434 -44.7335587
96.3082123 90.3877335 -42.0720367
93.4651489 90.2049255 -39.8204613
90.6881638 90.0608063 -37.9588699
35.6558914 90.6960983 -40.9640350
33.0866280 90.9086151 -43.1509781
30.5150108 91.1504517 -45.6917610
27.9438419 91.4312286 -48.6560936
102.2885895 93.5987854 -49.5417557
99.3037567 93.3012238 -46.0438156
96.4065552 93.0653229 -43.2413139
93.5569534 92.8715057 -40.9023781
90.7563019 92.7107697 -38.9427490
35.6750717 93.3831482 -42.0259972
33.1135330 93.6095886 -44.2961731
99.4550629 96.0412140 -47.7074127
96.5263138 95.7772064 -44.6929169
93.6684875 95.5686340 -42.2434196
90.8537827 95.3929977 -40.1792107
40.8448410 95.7033386 -39.5284805
38.2790833 95.8880005 -41.2870102
35.7090492 96.1006317 -43.3317604
33.1433029 96.3429260 -45.7093391
96.6826019 98.5282440 -46.4752388
93.7985992 98.2955475 -43.8346252
90.9739227 98.1031876 -41.6509323
40.8840485 98.4228973 -40.9147110
38.3184280 98.6230469 -42.7539291
35.7549477 98.8494720 -44.9024124
33.1837044 99.1219177 -47.4495316
96.8790588 101.3355560 -48.7154770
93.9675598 101.0691681 -45.8044434
91.1256714 100.8597260 -43.4490204
88.3078690 100.6786880 -41.4795303
85.5477829 100.5446243 -39.8728294
40.9428062 101.1734695 -42.5437393
38.3755836 101.3914642 -44.4977570
35.8041000 101.6424408 -46.8105087
33.2397537 101.9373932 -49.5380325
94.1791153 103.9014359 -48.2304153
91.3005753 103.6543579 -45.6137772
88.4739380 103.4594574 -43.4813652
85.6935577 103.3011627 -41.7221527
41.0049744 103.9680405 -44.4990768
38.4385986 104.2066956 -46.6164246
91.5314102 106.5229111 -48.2959633
88.6639862 106.2916260 -45.8897095
85.8650436 106.1102219 -43.9539452
83.0988922 105.9658203 -42.3811264
80.3689346 105.8611145 -41.1269226
51.3824272 106.0807114 -40.7971039
48.7963295 106.2245026 -41.9268112
46.2248306 106.3915558 -43.2882538
43.6576653 106.5852661 -44.9035416
41.0780983 106.8123016 -46.8461914
38.5177460 107.0843048 -49.1776428
88.9036407 109.2004013 -48.8582039
86.0830765 108.9842377 -46.6592407
83.2900696 108.8208008 -44.9020920
80.5473709 108.6934204 -43.5112114
51.4839935 108.9127197 -43.0663033
48.8956375 109.0671310 -44.2898178
46.3238449 109.2506638 -45.7644234
43.7495651 109.4739456 -47.5561447
41.1780052 109.7335052 -49.7213364
86.3417664 111.9411087 -50.0160561
83.5218277 111.7504578 -48.0046425
80.7542343 111.5930023 -46.3977203
78.0137711 111.4803772 -45.1406555
75.2985229 111.3984833 -44.1753426
51.6007767 111.8055267 -45.7889099
49.0132484 111.9839172 -47.1526108
46.4390450 112.1930466 -48.7994423
43.8712616 112.4375687 -50.8170090
83.8170776 114.7836761 -51.9523621
81.0216370 114.5956421 -50.0067444
78.2490845 114.4529572 -48.5139542
75.5169067 114.3462524 -47.3749847
51.7538223 114.7800751 -49.1052780
49.1654015 114.9856415 -50.6538353
78.5577393 117.5518799 -52.8882027
75.7996674 117.4211349 -51.4595032
73.0706177 117.3279495 -50.4411316
70.3649445 117.2814636 -49.7979355
67.6897659 117.2667236 -49.4392319
65.0252991 117.2835999 -49.3604546
62.3883171 117.3321533 -49.5577774
59.7566376 117.4225540 -50.0588341
57.1470642 117.5368729 -50.8215981
54.5392494 117.6917267 -51.9093323
51.9488449 117.8881912 -53.3629990
67.9947815 120.4431305 -54.3167076
65.3108368 120.4644775 -54.2006836
-81.0332947 -34.8144188 124.2199173
-82.0850601 -34.8132095 124.6046448
-83.0421219 -34.7480240 125.0713425
-84.2810440 -34.8132286 124.9420929
-75.3787384 -33.5943451 125.5601044
-76.4060516 -33.5439873 126.2991180
-77.4398117 -33.4887543 126.9831543
-78.4704895 -33.4663544 127.5356674
-79.5239639 -33.4489708 127.9862823
-80.5829315 -33.4335365 128.3732758
-81.6428833 -33.4303360 128.6625366
-82.7395630 -33.4325371 128.8482361
-83.8156738 -33.4380302 128.9686584
-84.9125519 -33.4513054 129.0220337
-86.0153122 -33.4670105 128.9778442
-87.1325912 -33.4906654 128.8577423
-88.2666855 -33.5526581 128.6458588
-70.0030899 -32.5494804 124.1170349
-70.9792557 -32.4670372 125.4323273
-71.9752121 -32.3984108 126.5482330
-72.9803619 -32.3404160 127.5038147
-73.9988174 -32.2961502 128.3637390
-75.0390778 -32.2637978 129.1098785
-76.0566940 -32.2526321 129.6901245
-77.0975189 -32.2312584 130.2406006
-78.1367416 -32.2217941 130.6983185
-79.1978836 -32.2075844 131.1166687
-80.2526398 -32.2034340 131.4375153
-81.3187332 -32.2010651 131.6888428
-82.3982544 -32.1995010 131.8835449
-83.4799805 -32.2011452 132.0126648
-84.5852356 -32.2077408 132.0654297
-85.6842957 -32.2236099 132.0310822
-86.7953339 -32.2346153 131.9530029
-87.8962708 -32.2456436 131.8255463
-89.0406342 -32.2790146 131.5889893
-90.1703262 -32.3085670 131.2936554
-91.3152542 -32.3428040 130.9049988
-92.4790497 -32.3804893 130.4151459
-93.6448059 -32.4170723 129.8519440
-69.6619263 -31.2090874 127.8488159
-70.6696930 -31.1610699 128.8549500
-93.3031235 -31.1889610 132.8346710
-65.4363708 -30.2085419 125.8837662
-66.4136353 -30.1261139 127.3093338
-67.3954468 -30.0821018 128.5748901
-68.3888168 -30.0432777 129.6688538
-69.4016495 -29.9903297 130.6572876
-70.4140396 -29.9603157 131.5088959
-93.0100174 -29.9853439 135.3007507
-94.1755524 -30.0289803 134.8226776
-95.3271942 -30.0592556 134.2824860
-96.4871826 -30.1026516 133.6658936
-97.6814880 -30.1713581 132.9302826
-98.8932800 -30.2439804 132.0530853
-65.1825714 -28.9656029 128.9012146
-66.1749268 -28.9087639 130.1220245
-97.3761292 -28.9487305 135.3761139
-98.5765915 -28.9997597 134.6457062
-99.7822571 -29.0769958 133.8380127
-100.9958115 -29.1540756 132.9129181
-64.9791412 -27.7697716 131.3980103
-65.9726257 -27.7308006 132.4330444
-97.1170273 -27.7821236 137.4825439
-98.3049698 -27.8266907 136.8394470
-99.4837952 -27.8690910 136.1368256
-100.6695709 -27.9217491 135.3412628
-63.7846985 -26.6381035 132.4427185
-64.8023376 -26.5907860 133.5274811
-65.8078308 -26.5495186 134.4944153
-99.2347641 -26.7081871 138.1427155
-100.4076767 -26.7478371 137.4365387
-101.6062927 -26.8060818 136.6242981
-102.8197479 -26.8821087 135.7324219
-59.6485214 -25.6796722 129.3712158
-60.6391335 -25.6049633 130.8678589
-61.6253281 -25.5594730 132.1488953
-62.6261826 -25.5186386 133.3209076
-63.6357918 -25.4677200 134.4259186
-64.6570206 -25.4352150 135.4124756
-65.6679993 -25.3988037 136.3000793
-99.0153885 -25.5574265 139.9186554
-100.1685944 -25.5934944 139.2889252
-101.3624496 -25.6431732 138.5478058
-102.5432434 -25.6877270 137.7576599
-103.7792358 -25.7619915 136.8272400
-105.0049438 -25.8391304 135.8020935
-60.4839592 -24.4510498 132.9002228
-61.4794579 -24.3985863 134.0905151
-103.5306091 -24.5913754 138.6975098
-104.7421722 -24.6485901 137.7730408
-57.3605957 -23.4592590 130.6777344
-58.3377228 -23.4025021 132.1286163
-59.3443451 -23.3493805 133.4747467
-60.3529510 -23.3055992 134.6917419
-61.3487816 -23.2632446 135.7832336
-103.3192596 -23.4545479 140.3720551
-104.5041809 -23.4989376 139.5409088
-105.7198486 -23.5624084 138.6078796
-106.9703293 -23.6502094 137.5667267
-55.2584305 -22.4345474 129.4465942
-56.2296753 -22.3628254 131.0841675
-57.2203064 -22.3046799 132.5828094
-105.5027924 -22.4181690 140.2527161
-106.7122345 -22.4684353 139.3105316
-54.1352463 -21.3396797 129.6804657
-55.1275558 -21.2738209 131.3994141
-56.1012497 -21.2220707 132.8936768
-57.1004448 -21.1655197 134.2805176
-105.3062286 -21.2946815 141.7562408
-106.5070496 -21.3389397 140.8868713
-107.7391815 -21.3966312 139.8946533
-52.0584908 -20.3341675 127.8254776
-53.0246124 -20.2584381 129.8023071
-54.0044250 -20.1921158 131.5429382
-55.0001984 -20.1390133 133.1054840
-107.5450668 -20.2711182 141.3595428
-50.9705353 -19.2562523 127.8246307
-51.9250641 -19.1780701 129.8256989
-52.9047432 -19.1223278 131.5852814
-53.8934479 -19.0657997 133.1778259
-54.8904762 -19.0130558 134.6348114
-107.3640518 -19.1575356 142.7207489
-108.5904999 -19.2072525 141.7806091
-109.7907410 -19.2607498 140.7840881
-50.8382912 -18.1137981 129.7425537
-51.8046150 -18.0502586 131.5281677
-52.7893181 -17.9962044 133.1457062
-109.5974121 -18.1357117 142.1446686
-110.8405304 -18.1975021 141.0780334
-51.7105942 -16.9252090 133.0567627
-52.6992569 -16.8744812 134.5804443
-109.4330597 -17.0309963 143.3823700
-110.6605072 -17.0789528 142.3679199
-111.8903580 -17.1260967 141.2721100
-50.6395798 -15.8593054 132.8704224
-51.6192322 -15.8169937 134.4166260
-52.6076584 -15.7730026 135.8488007
-111.7214355 -16.0249176 142.5348969
-48.5809021 -14.8547974 130.6969452
-49.5749359 -14.8005724 132.5653076
-50.5550461 -14.7522879 134.1951599
-51.5388603 -14.7078133 135.6633606
-52.5273476 -14.6723328 137.0201721
-111.5612793 -14.9252663 143.6858521
-112.8247833 -14.9789371 142.5835419
-114.0696793 -15.0392466 141.4260864
-47.5270844 -13.8033075 130.1942139
-48.4944534 -13.7440186 132.1084747
-113.8863220 -13.9227266 142.5883789
-46.4738045 -12.7532759 129.5688171
-47.4361343 -12.6954336 131.5599365
-48.4132080 -12.6467142 133.3692627
-113.7446671 -12.8315744 143.6454010
-114.9988480 -12.8876038 142.4860687
-45.4359589 -11.7016973 128.8668823
-46.3969879 -11.6404438 130.9492035
-113.6018372 -11.7446690 144.6424561
-114.8312454 -11.7867517 143.5352325
-45.3712616 -10.5873241 130.2332764
-46.3187866 -10.5429840 132.1768646
-113.4776611 -10.6608582 145.5607605
-114.6984406 -10.7000160 144.4941101
-115.9652176 -10.7486706 143.3048859
-45.3033333 -9.4884148 131.4521332
-46.2634087 -9.4498644 133.3048096
-115.8264008 -9.6615276 144.2392883
-117.1175995 -9.7170010 142.9793701
-44.2336540 -8.4569445 130.4864502
-45.2371750 -8.3995037 132.5350647
-46.2082672 -8.3608093 134.3240051
-115.6931458 -8.5782499 145.1170807
-116.9656906 -8.6215210 143.9175720
-45.1880722 -7.3112402 133.5487671
-46.1502533 -7.2826443 135.2337952
-115.5854492 -7.5079274 145.9000549
-116.8454132 -7.5445657 144.7412720
-118.1341171 -7.5960889 143.4921875
-44.1362000 -6.2706928 132.5750427
-45.1262970 -6.2335343 134.4345551
-46.0952301 -6.2054176 136.0631409
-115.4857483 -6.4363360 146.6258392
-116.7334671 -6.4687757 145.5051880
-117.9995422 -6.5078211 144.2861023
-43.1035843 -5.2254891 131.4800110
-44.0845337 -5.1907887 133.4609680
-75.6216583 -4.8818507 157.2542114
-76.6803589 -4.8772612 157.4703979
-77.7230072 -4.8848677 157.6535797
-78.7589111 -4.8846884 157.8164825
-79.8070908 -4.8833380 157.9476471
-80.8600693 -4.8915143 158.0523834
-117.8984528 -5.4337463 145.0164185
-119.1533051 -5.4745884 143.7674255
-42.0613174 -4.1912661 130.2502441
-43.0527687 -4.1453915 132.3553772
-44.0359497 -4.1144767 134.2653656
-75.5869827 -3.8430815 157.6616669
-76.6447601 -3.8447630 157.8716736
-77.6877594 -3.8477702 158.0519409
-80.8157806 -3.8479619 158.4431152
-117.7976227 -4.3648539 145.7052765
-119.0519791 -4.3997812 144.4786682
-43.0162430 -3.0717492 133.1683350
-43.9926147 -3.0466518 134.9923401
-75.5555954 -2.8012776 158.0518341
-76.6124878 -2.8058672 158.2574005
-80.7815094 -2.8175664 158.8445435
-81.8448257 -2.8288627 158.9366760
-82.8894958 -2.8359599 159.0035706
-83.9414215 -2.8333621 159.0539551
-84.9972229 -2.8409145 159.0738373
-117.6968460 -3.2958212 146.3547058
-118.9379272 -3.3270905 145.1637115
-42.9773674 -1.9962426 133.8969269
-43.9711647 -1.9719436 135.6948090
-75.5268097 -1.7667947 158.4057465
-76.5698395 -1.7694031 158.6106262
-80.7423096 -1.7855943 159.2136536
-81.8064880 -1.7924045 159.2965393
-82.8467865 -1.7958667 159.3567047
-83.9074402 -1.8038113 159.3939514
-84.9642029 -1.8106853 159.4154358
-117.6215897 -2.2343469 146.9281311
-118.8533401 -2.2611802 145.7681274
-41.9573326 -0.9532424 132.6538696
-42.9476509 -0.9284574 134.5656433
-43.9187698 -0.9109355 136.2706146
-65.1796722 -0.7211704 155.3382111
-66.1949310 -0.7225456 155.7897949
-67.2281342 -0.7248589 156.2210083
-68.2632217 -0.7203342 156.6295471
-69.2882385 -0.7256179 156.9985962
-70.3152542 -0.7244158 157.3469849
-71.3470993 -0.7245917 157.6767731
-72.3834915 -0.7291938 157.9730377
-75.4942551 -0.7339999 158.7234192
-76.5400925 -0.7378859 158.9292908
-77.5825424 -0.7384590 159.1140289
-78.6259155 -0.7456287 159.2735443
-79.6673279 -0.7464284 159.4215698
-83.8820648 -0.7720305 159.7140503
-84.9356842 -0.7748179 159.7408752
-85.9987793 -0.7812439 159.7409058
-87.0616913 -0.7881364 159.7185211
-117.5390701 -1.1716175 147.4655914
-118.7793121 -1.1969664 146.3154602
-41.9186630 0.1143004 133.2748718
-42.9179077 0.1378714 135.1673279
-43.9012680 0.1542157 136.8517761
-65.1484680 0.3077593 155.6569061
-66.1747971 0.3068440 156.1100922
-67.2057571 0.3087899 156.5354767
-68.2321014 0.3122645 156.9279327
-69.2538376 0.3064011 157.2940979
-70.2840958 0.3082611 157.6522980
-71.3169556 0.3076837 157.9837646
-72.3583221 0.3043084 158.2820435
-75.4644470 0.2971489 159.0251465
-76.5205460 0.2966433 159.2365417
-77.5621490 0.2927852 159.4154358
-78.5976715 0.2889038 159.5721893
-79.6469574 0.2833315 159.7136078
-82.7930603 0.2731739 159.9788971
-83.8468018 0.2662375 160.0259705
-84.8999252 0.2593647 160.0450134
-85.9668427 0.2497500 160.0386047
-87.0256195 0.2474879 160.0221558
-117.4739609 -0.1124511 147.9484558
-118.7016220 -0.1346452 146.8272858
-119.9767532 -0.1640213 145.5955353
-40.9090805 1.1567620 131.8999634
-41.8981094 1.1827108 133.8836670
-63.0859299 1.3419156 154.9711914
-64.1050568 1.3440851 155.4757996
-65.1224213 1.3412369 155.9570007
-68.2136688 1.3447117 157.2216492
-69.2427216 1.3408391 157.5963593
-74.4030609 1.3311815 159.0870056
-75.4352646 1.3351985 159.3208466
-76.4894714 1.3251437 159.5280457
-77.5355682 1.3225117 159.7036743
-78.5684357 1.3191587 159.8580322
-79.6244354 1.3147639 159.9971619
-80.6591263 1.3162060 160.1076965
-87.0120087 1.2751741 160.3060455
-88.0670166 1.2667421 160.2609406
-89.1421204 1.2580855 160.2032166
-90.1971664 1.2555661 160.1062164
-91.2931671 1.2498120 159.9679260
-92.3662872 1.2377758 159.8246307
-93.4438782 1.2263025 159.6621704
-94.5255508 1.2196913 159.4642487
-95.6171265 1.2129471 159.2449646
-119.9081421 0.8995094 146.0632019
-121.1799927 0.8734259 144.7552795
-40.8847885 2.2269776 132.4853516
-41.8712692 2.2474890 134.4193420
-63.0692635 2.3772268 155.2483368
-64.0925751 2.3806970 155.7520752
-80.6390457 2.3402512 160.3721161
-90.1761932 2.2844346 160.3749695
-91.2699127 2.2790289 160.2351379
-92.2951813 2.2723072 160.1489868
-95.5938492 2.2450142 159.5187073
-119.8349762 1.9602231 146.5144501
-58.9657097 3.4076579 153.1903687
-59.9834671 3.4097354 153.8157806
-61.0004616 3.4093547 154.4088898
-62.0165024 3.4094439 154.9689484
-63.0507240 3.4101248 155.4977112
-95.5694962 3.2786496 159.7639465
-119.7952042 3.0156481 146.9044647
-121.0489807 2.9967809 145.6431885
-38.8739662 4.3232951 128.9202881
-39.8759003 4.3438511 131.3548584
-58.9543419 4.4448142 153.4337311
-59.9630394 4.4432373 154.0476837
-63.0393829 4.4423585 155.7300568
-64.0556183 4.4443917 156.2181244
-95.5383453 4.3115964 159.9881439
-119.7310791 4.0725298 147.2854004
-38.8539925 5.3929868 129.4270325
-39.8514061 5.4090261 131.7754364
-58.9426155 5.4777679 153.6411133
-59.9547653 5.4774790 154.2558594
-95.5195770 5.3436813 160.1868744
-96.6123199 5.3364716 159.9489441
-97.6967850 5.3299007 159.6841736
-98.7980042 5.3220673 159.3843842
-99.8964386 5.3139367 159.0655518
-119.6959915 5.1264052 147.5988159
-38.8253136 6.4578786 129.8428345
-39.8312874 6.4712439 132.1457214
-58.9248619 6.5107861 153.8217926
-59.9373207 6.5088277 154.4389038
-60.9681816 6.5091171 155.0366364
-61.9751740 6.5072422 155.5862122
-95.4935150 6.3746252 160.3643036
-98.7865829 6.3532166 159.5645447
-99.8724518 6.3461800 159.2539978
-119.6567993 6.1804180 147.8719177
-120.9013138 6.1685681 146.6542969
-122.2037811 6.1530905 145.2944031
-39.8155403 7.5330195 132.4677887
-60.9535904 7.5396285 155.1944885
-61.9694901 7.5378485 155.7456970
-98.7692795 7.3836107 159.7270813
-99.8470917 7.3800702 159.4205017
-119.6142349 7.2333045 148.1195831
-120.8661728 7.2228990 146.9074402
-38.8131561 8.5899334 130.4829712
-39.8114662 8.5938339 132.7649841
-60.9442863 8.5702381 155.3272400
-98.7502136 8.4146252 159.8653717
-99.8367157 8.4109907 159.5548706
-119.5844421 8.2848568 148.3270569
-120.8419800 8.2763996 147.1066589
-38.8074265 9.6523428 130.7535858
-39.7980957 9.6524925 132.9856873
-56.8684540 9.6137466 152.9278870
-57.8894501 9.6109877 153.6054077
-58.9076881 9.6083288 154.2505951
-59.9131355 9.6037436 154.8555908
-96.5502090 9.4560022 160.5064392
-97.6294250 9.4525623 160.2577362
-119.5662231 9.3361034 148.4914856
-120.8125229 9.3290691 147.2940063
-38.7876930 10.7135172 130.9570313
-39.7998848 10.7115030 133.1889801
-56.8616600 10.6471395 153.0163727
-57.8792419 10.6424694 153.6922455
-58.8990097 10.6394024 154.3415833
-59.9102592 10.6346016 154.9544067
-97.6293182 10.4812155 160.3443604
-119.5362854 10.3869400 148.6401062
-120.7892303 10.3816204 147.4513092
-122.0851746 10.3758011 146.1274414
-123.3770599 10.3690166 144.7254181
-38.7661247 11.7741203 131.0959473
-39.7998695 11.7696066 133.3340302
-56.8492928 11.6789770 153.0799103
-57.8719330 11.6738720 153.7619476
-97.6198273 11.5101862 160.4132996
-122.0688019 11.4297771 146.2436523
-123.3576660 11.4258175 144.8549042
-39.7863731 12.8269787 133.3837585
-56.8624763 12.7119751 153.1419373
-57.8746529 12.7058601 153.8124084
-97.6249161 12.5385008 160.4659882
-122.0609436 12.4832020 146.3154297
-123.3611145 12.4815989 144.9193420
-39.7919235 13.8846369 133.4241028
-58.8937492 13.7311239 154.4751129
-98.7222519 13.5648289 160.2025299
-99.8068695 13.5623455 159.8936157
-39.7811050 14.9427280 133.3892822
-58.9018936 14.7619572 154.4719238
-98.7267151 14.5945024 160.1918030
-99.8089142 14.5922966 159.8911438
-39.8008461 16.0004616 133.3639069
-56.8665543 15.8088760 153.1346436
-97.6262741 15.6256466 160.4528961
-98.7376251 15.6246271 160.1639557
-99.8132706 15.6223707 159.8644104
-122.0688171 15.6442070 146.3057098
-123.3688202 15.6503735 144.9132385
-38.8046875 17.0811882 131.0744171
-39.8119011 17.0587234 133.2633362
-56.8745117 16.8413067 153.0850067
-97.6330490 16.6543789 160.4117737
-98.7444458 16.6538372 160.1164398
-99.8265991 16.6533661 159.8117065
-122.0830765 16.6984215 146.2306671
-123.3779831 16.7076855 144.8435822
-38.8210869 18.1438351 130.8753967
-39.8174133 18.1185780 133.0933533
-56.8822250 17.8744411 153.0158081
-57.9056206 17.8643761 153.6911621
-58.9236145 17.8552799 154.3262329
-59.9297256 17.8475037 154.9370728
-97.6479034 17.6844597 160.3392334
-119.5816422 17.7369537 148.5928040
-120.8178482 17.7441082 147.4227753
-122.0964279 17.7525139 146.1089935
-38.8329163 19.2081585 130.6404419
-39.8306198 19.1787090 132.8954926
-56.8952217 18.9071598 152.9235687
-57.9196701 18.8967323 153.5991058
-58.9340515 18.8872738 154.2341919
-59.9449539 18.8774738 154.8432312
-96.5730667 18.7150974 160.5127716
-97.6574783 18.7141209 160.2461548
-119.6023941 18.7878304 148.4566956
-120.8322830 18.7955933 147.2627563
-39.8530922 20.2386131 132.6768036
-58.9481697 19.9196091 154.1176758
-59.9652023 19.9088593 154.7249603
-60.9821396 19.8995094 155.3047485
-61.9932785 19.8896561 155.8518066
-63.0212326 19.8805981 156.3859863
-96.5843506 19.7436676 160.4023438
-97.6890564 19.7459698 160.1343231
-119.6196671 19.8397427 148.2898865
-120.8711700 19.8505135 147.0621033
-39.8668327 21.3025627 132.3730774
-58.9545898 20.9542313 153.9677887
-59.9783745 20.9410915 154.5838318
-60.9948044 20.9306297 155.1657410
-62.0106430 20.9216652 155.7101135
-63.0370026 20.9113293 156.2401733
-94.4253998 20.7735653 160.7075195
-95.5121994 20.7745323 160.5015411
-96.6111450 20.7754326 160.2630768
-97.6952667 20.7747135 160.0063934
-119.6675339 20.8939514 148.0691223
-120.8969879 20.9056168 146.8753357
-122.1859894 20.9225883 145.4933319
-39.8932190 22.3658466 132.0366821
-63.0538025 21.9408302 156.0781708
-94.4514236 21.8036747 160.5537109
-95.5366592 21.8053226 160.3408813
-119.7088318 21.9486179 147.8198700
-120.9441223 21.9628239 146.6104431
-122.2371063 21.9804497 145.2329407
-123.5497284 22.0036545 143.7797852
65.7307739 27.0521946 -68.9137268
64.3838882 27.0517597 -68.9405518
63.0541763 27.0521660 -69.1028214
-39.8975754 23.4356308 131.6138153
-63.0670204 22.9756165 155.8880157
-94.4718246 22.8346672 160.3798523
-95.5582275 22.8358250 160.1658630
-119.7498016 23.0043964 147.5347443
-120.9960709 23.0213795 146.2970276
72.3166504 28.3484154 -65.8333054
70.9110794 28.3690491 -65.2456436
69.5537338 28.3544693 -64.8176041
68.1795502 28.3476620 -64.5065308
66.8235321 28.3407974 -64.3288193
65.4728851 28.3480930 -64.2324371
64.1342621 28.3386917 -64.3136902
62.7993660 28.3521175 -64.4053192
61.4631195 28.3407516 -64.6780167
60.1480026 28.3502769 -65.0613098
58.8113174 28.3596954 -65.5715332
57.4989166 28.3290615 -66.1903381
-39.9243469 24.5043564 131.1558990
-40.9058075 24.4632301 133.2616577
-41.8927994 24.4243069 135.1860504
-63.0912704 24.0045090 155.6885681
-64.1074600 23.9979591 156.1761627
-93.4252319 23.8641243 160.3710938
-94.5022125 23.8667107 160.1821289
-95.5914001 23.8687096 159.9665375
-119.7915497 24.0602226 147.2209930
77.6448975 29.6546803 -65.0957642
76.2217331 29.6660061 -64.0489502
74.8234406 29.6485596 -63.2115326
73.4261169 29.6368332 -62.4955292
72.0599594 29.6229744 -61.9304810
70.6807098 29.6029873 -61.5022430
69.3208618 29.5932636 -61.1693115
67.9637070 29.5856113 -60.9270439
66.6223679 29.5753479 -60.7912560
65.2785721 29.5728779 -60.7452431
63.9326553 29.5725136 -60.7874222
62.5985756 29.5779305 -60.9037895
61.2712059 29.5802288 -61.1378937
59.9503708 29.5946922 -61.4468384
58.6276932 29.6035023 -61.8835640
57.3137207 29.6148739 -62.4168129
56.0011215 29.6302319 -63.0237961
54.6976318 29.6368980 -63.7578735
53.3847427 29.6220589 -64.6442184
-39.9528465 25.5773239 130.6274567
-40.9439316 25.5276279 132.7961121
-41.9099083 25.4910278 134.7189484
-63.1102333 25.0406532 155.4663696
-64.1309357 25.0291176 155.9725037
-65.1569595 25.0169716 156.4591980
-72.3600006 24.9547291 159.0385284
-73.3901291 24.9447289 159.2945251
-77.5489731 24.9218197 160.1893921
-92.3655701 24.8957787 160.3142242
-93.4594727 24.8981819 160.1473541
-94.5256729 24.8990192 159.9628754
-95.6156998 24.9005089 159.7455902
-119.8559647 25.1198692 146.8440857
-121.1124725 25.1427937 145.5773010
80.2184143 30.9603138 -63.5044022
78.7933731 30.9529724 -62.3639832
77.3715668 30.9391346 -61.3689423
75.9769211 30.9143085 -60.5522423
53.2294388 30.8980980 -61.3246307
51.9213028 30.9059639 -62.1850853
48.0455627 30.9703751 -65.7221985
-40.9635811 26.5991497 132.2306519
-41.9583092 26.5534973 134.2598877
-65.1827240 26.0525761 156.1949768
-66.2021561 26.0401707 156.6463013
-71.3546524 25.9897041 158.5033875
-72.3932266 25.9774952 158.8137360
-73.4096298 25.9808941 159.0710907
-77.5757294 25.9557457 159.9333801
-78.6204834 25.9491806 160.0929260
-79.6626816 25.9445896 160.2335510
-80.7074051 25.9386234 160.3542786
-83.8738251 25.9304886 160.5446930
-89.1907501 25.9265022 160.4175262
-90.2332993 25.9230251 160.3329620
-91.3323135 25.9315510 160.2087708
-92.4037323 25.9290295 160.0672913
-93.4880753 25.9304085 159.9016571
-119.9114456 26.1798515 146.4324493
82.8191986 32.2814484 -62.4903564
81.3974152 32.2589111 -61.2473068
79.9693680 32.2291985 -60.1402168
78.5648270 32.1964149 -59.2064552
77.1741409 32.1738243 -58.3987732
75.7832870 32.1570892 -57.7120132
53.1074257 32.1525650 -58.4851646
51.7979202 32.1639366 -59.2597046
50.5011139 32.1849098 -60.1398468
49.1982918 32.2201843 -61.1552048
47.9203606 32.2699471 -62.2809677
46.6180878 32.2920609 -63.5969238
-41.0055161 27.6725121 131.6607056
-41.9925156 27.6236134 133.7088470
-65.2158508 27.0859222 155.9185486
-66.2260056 27.0758648 156.3671875
-67.2578125 27.0643673 156.7973480
-68.2861328 27.0529499 157.1855469
-69.3208008 27.0404091 157.5310211
-70.3614426 27.0319214 157.8982239
-71.3666229 27.0304451 158.2396698
-72.4161224 27.0180454 158.5432129
-73.4389648 27.0132065 158.8079529
-74.4913940 27.0021992 159.0717926
-75.5215607 26.9913311 159.3030548
-76.5596619 26.9908085 159.4963074
-77.6059647 26.9836826 159.6773071
-78.6495438 26.9819336 159.8363953
-79.7024460 26.9743767 159.9756622
-80.7386932 26.9725552 160.0843201
-81.7978973 26.9700851 160.1691284
-82.8428802 26.9656792 160.2318420
-83.9060516 26.9651260 160.2772675
-84.9550476 26.9594994 160.3106232
-86.0149155 26.9631805 160.3201752
-89.2171783 26.9604759 160.1591949
-90.2746048 26.9558372 160.0653076
-91.3676910 26.9597836 159.9411469
-92.4375229 26.9624462 159.7985535
-93.5259247 26.9695778 159.6286163
-119.9840393 27.2427406 145.9697571
-121.2705078 27.2762299 144.6465912
82.5879059 33.5149078 -59.3988457
81.1862488 33.4934654 -58.3261871
47.7897987 33.4954605 -59.4800568
46.4935837 33.5328255 -60.6202278
45.1969528 33.5388451 -61.8877678
-41.0200119 28.7551575 130.9664001
-42.0275726 28.6942787 133.0903168
-120.0634232 28.3089390 145.4642334
85.2561188 34.8205872 -59.1139297
83.8265305 34.8010597 -57.8739281
82.3915253 34.7717018 -56.7788582
81.0091705 34.7389870 -55.8569374
47.6865387 34.7453194 -57.0555611
46.3874207 34.7759781 -58.0872345
45.1050110 34.8136978 -59.2051315
43.8026314 34.8328400 -60.4928131
42.5003204 34.8326569 -61.9207535
-42.0608177 29.7716885 132.3916931
-120.1428604 29.3768120 144.9206390
87.9403458 36.1560287 -59.2999344
86.4834671 36.1196213 -57.8394012
85.0499802 36.0813560 -56.5851822
83.6481628 36.0418320 -55.5129280
42.4257202 36.1293297 -59.3474617
41.1307144 36.1503067 -60.7883415
-42.1042824 30.8526669 131.6539612
-45.0599976 30.7034683 137.1332550
-46.0412064 30.6645393 138.6282501
-47.0624084 30.6202297 140.0571289
-48.0547333 30.5832443 141.3397827
-117.7044373 30.3829308 146.8362885
-118.9566193 30.4129181 145.6333771
-120.2427979 30.4509850 144.3127136
87.7378845 37.3980751 -56.7834625
