-60.8180771 71.0891953 146.1226196
-62.8310432 70.9569550 147.8513794
-64.8530197 70.8452759 149.3393707
-66.8993683 70.7547760 150.5906677
-90.1071777 70.6235886 153.8185730
-92.3217773 70.6899414 153.1877289
-94.5602112 70.7755127 152.3587646
-96.8195190 70.8730469 151.3350830
108.8342514 88.3837128 -42.1562729
105.8183746 88.0738525 -38.3591270
80.9750977 86.8985748 -22.9389400
55.1051369 87.0573196 -22.8282604
-63.0987320 73.3231354 144.5870972
-65.1118851 73.1854401 146.2881622
-67.1475677 73.0793152 147.6857758
-90.4325256 72.9394989 151.0281982
-92.6660004 73.0203781 150.2789612
-94.9277649 73.1173706 149.3130798
108.7636871 90.8929596 -41.4920654
105.7532730 90.5795898 -37.7643776
80.9337692 89.3839111 -22.5149994
-67.4600983 75.4844971 144.1007385
-69.4952774 75.3743973 145.4588165
-71.5513992 75.2906189 146.5565491
-73.6265564 75.2248611 147.4449921
-75.7164764 75.1811829 148.1195068
-77.8159180 75.1500702 148.6008148
-79.9351196 75.1375198 148.9041443
-82.0678864 75.1405334 149.0300598
-84.2219620 75.1605606 148.9788208
-86.3966370 75.1948242 148.7382202
-88.5981979 75.2521896 148.2907715
-90.8230820 75.3281860 147.6201935
108.7156982 93.4223557 -41.0911598
105.7096558 93.1018448 -37.3895340
80.9025879 91.8779526 -22.2217770
52.5084000 92.1439285 -22.8979740
-74.0023270 77.6824570 143.4466553
-76.0920563 77.6222916 144.2460327
-78.1954880 77.5893173 144.7787781
-80.3218536 77.5735016 145.1029663
-82.4670105 77.5803223 145.2043762
-84.6365814 77.6059189 145.0907898
108.6941071 95.9731216 -40.9415169
105.6846619 95.6420898 -37.2300873
80.8857040 94.3835602 -22.0639801
78.2610245 94.3449402 -21.4528198
52.4892159 94.6629791 -22.7580872
49.9503059 94.7651749 -23.6317291
108.6964951 98.5468750 -41.0416374
105.6884155 98.2035065 -37.2923927
80.8780365 96.8996429 -22.0370102
78.2536697 96.8629456 -21.4362907
75.6276703 96.8327332 -20.9347916
73.0290527 96.8200226 -20.5954990
52.4832382 97.1930084 -22.7464504
49.9373703 97.3005981 -23.6344872
47.3958511 97.4235229 -24.6811028
44.8663979 97.5594788 -25.8698654
108.7317581 101.1487579 -41.4123840
105.7084351 100.7856293 -37.5671844
80.8763580 99.4301300 -22.1438885
78.2545929 99.3895111 -21.5287247
75.6240997 99.3616486 -21.0445518
73.0309753 99.3490677 -20.6946449
60.1402969 99.4898529 -21.0452042
57.5837479 99.5579605 -21.5205288
55.0338516 99.6417694 -22.1241970
52.4783173 99.7375183 -22.8687859
44.8567352 100.1206055 -26.0367413
42.3218460 100.2830887 -27.4421062
39.7887459 100.4639969 -29.0380325
37.2433739 100.6715698 -30.8767529
34.7083015 100.9040146 -32.9711952
32.1608658 101.1697617 -35.3874817
29.6205635 101.4719162 -38.1720085
27.0699844 101.8258820 -41.4667282
108.7860565 103.7796326 -42.0578842
105.7507172 103.3934479 -38.0792160
80.8933487 101.9749451 -22.3775978
78.2648926 101.9312973 -21.7590942
70.4366150 101.8942108 -20.7366028
67.8565369 101.9053040 -20.6550522
65.2720642 101.9372253 -20.7294197
62.7117996 101.9790268 -20.9374313
60.1482239 102.0395279 -21.2831459
57.5841599 102.1105881 -21.7634182
55.0421448 102.1962891 -22.3732452
52.4840088 102.2957001 -23.1303768
44.8688393 102.6938629 -26.3337517
42.3256111 102.8648834 -27.7637005
39.7863350 103.0561523 -29.3915863
37.2503052 103.2705994 -31.2481689
34.7056122 103.5162964 -33.3941612
32.1730614 103.7908478 -35.8379097
29.6216030 104.1119308 -38.7075539
105.8341217 106.0341644 -38.8669357
102.8860092 105.7115784 -35.5983200
100.0041275 105.4491653 -32.9111176
80.9164429 104.5344009 -22.7546234
78.2849197 104.4886169 -22.1118546
70.4544983 104.4505005 -21.0903549
67.8723297 104.4644775 -21.0174465
34.7151108 106.1488037 -33.9967613
32.1764107 106.4413300 -36.5260391
105.9251709 108.7080078 -39.9337006
102.9649124 108.3569489 -36.4887695
100.0749054 108.0790710 -33.7005234
80.9510498 107.1109314 -23.2874966
78.3192825 107.0664139 -22.6279640
75.6932373 107.0353775 -22.1324768
73.0787201 107.0224686 -21.7894363
70.4769363 107.0224762 -21.5800095
67.8935013 107.0427170 -21.5294838
34.7396851 108.8043823 -34.7951355
32.2024040 109.1155319 -37.4090195
103.0800400 111.0463562 -37.6883087
100.1573715 110.7406006 -34.7356033
97.3240280 110.4956970 -32.3175125
94.5249023 110.2885361 -30.2511463
91.7688751 110.1214294 -28.5305901
89.0344315 109.9818268 -27.0663757
34.7618828 111.4925156 -35.8256950
32.2213364 111.8276520 -38.5663300
103.2116776 113.7714462 -39.1925278
100.2849884 113.4402313 -36.0477142
97.4267731 113.1723022 -33.4878387
94.6072311 112.9485626 -31.3280506
91.8478317 112.7729340 -29.5448265
89.1128693 112.6222992 -28.0099678
34.7908974 114.2174683 -37.1164436
100.4373627 116.1845703 -37.6884270
97.5608902 115.8911896 -34.9526520
94.7281570 115.6479797 -32.6667404
91.9495697 115.4528885 -30.7764492
89.2083511 115.2945709 -29.1835861
86.4876404 115.1611099 -27.8452187
83.7990952 115.0591812 -26.7428150
39.9141159 116.3558197 -33.8671608
37.3782387 116.6473083 -36.0893059
34.8332672 116.9827499 -38.7042007
100.6187134 118.9821930 -39.7183762
97.7215805 118.6557388 -36.7333717
94.8645020 118.3856583 -34.2805328
92.0751953 118.1726074 -32.2759781
89.3126831 117.9972916 -30.5863342
86.5972900 117.8611145 -29.1946220
83.8896561 117.7407532 -28.0116577
39.9570389 119.1207352 -35.4752007
37.4277039 119.4319534 -37.8356018
97.9186172 121.4821701 -38.9543228
95.0444641 121.1818466 -36.2703743
92.2234039 120.9402161 -34.0795441
89.4482269 120.7420578 -32.2610893
86.7160950 120.5906372 -30.7711658
84.0130005 120.4689026 -29.5462132
81.3250198 120.3742218 -28.5603905
78.6661682 120.3060989 -27.7679939
76.0149002 120.2596207 -27.1715393
73.3925018 120.2395554 -26.7553940
50.1926231 120.9620514 -30.5043354
47.6451721 121.1503067 -31.8256607
45.0998878 121.3778839 -33.4006386
42.5629158 121.6296387 -35.2281799
40.0204468 121.9312363 -37.4053268
37.4983902 122.2719650 -39.9485741
95.2502136 124.0403748 -38.6858177
92.4096298 123.7640686 -36.2604141
89.6221466 123.5479965 -34.3001328
86.8692856 123.3706436 -32.6761093
84.1460876 123.2311859 -31.3503265
81.4510727 123.1300430 -30.2933254
78.7834778 123.0469513 -29.4454994
76.1254196 123.0015869 -28.8153858
73.4953842 122.9784088 -28.3678627
50.2718849 123.7398987 -32.2946053
47.7191696 123.9506378 -33.7231979
45.1773491 124.1929779 -35.4026031
42.6369019 124.4746399 -37.3811798
40.0997238 124.8011169 -39.7396698
95.5155716 126.9882813 -41.7518005
92.6393127 126.6664581 -38.9481010
89.8240814 126.4084320 -36.7327194
87.0478821 126.2139587 -34.9585037
84.3159256 126.0611572 -33.5137711
76.2629089 125.7911224 -30.7455044
73.6233826 125.7558441 -30.2612381
55.4808960 126.2165298 -32.1305923
52.9094467 126.3821411 -33.1673279
50.3663101 126.5758896 -34.4316330
47.8116837 126.8061981 -35.9770737
45.2734108 127.0722961 -37.7921638
42.7313690 127.3860550 -39.9897079
90.0769043 129.3699188 -39.7761803
87.2742844 129.1350098 -37.7380142
84.5159912 128.9441376 -36.0969238
76.4248810 128.6383667 -33.0264015
73.7706909 128.6017151 -32.5031967
55.5942078 129.0830688 -34.4768105
53.0269699 129.2617645 -35.6052094
50.4742737 129.4786987 -36.9998169
47.9240990 129.7368774 -38.6906242
87.5452423 132.1539764 -41.2008171
84.7737732 131.9364014 -39.2936821
82.0129547 131.7651062 -37.7978020
79.3048782 131.6404114 -36.6304131
76.6134644 131.5572815 -35.7726974
73.9532623 131.5113068 -35.1761551
60.8775330 131.7284546 -35.5640869
58.2959633 131.8648376 -36.3236313
55.7363510 132.0252075 -37.3046761
53.1640091 132.2309570 -38.5766563
50.6163712 132.4791870 -40.1458626
48.0635033 132.7704926 -42.0844879
82.3001251 134.8476257 -41.5792007
79.5662537 134.6920776 -40.1779556
76.8483734 134.5928345 -39.1818390
74.1707687 134.5249634 -38.4623260
61.0590820 134.7411804 -38.8344612
58.4706421 134.8921661 -39.6843758
55.9068375 135.0841675 -40.8204689
53.3419952 135.3193207 -42.2909241
50.7965355 135.6121521 -44.1582718
48.2584763 135.9812469 -46.5496979
77.1634903 137.7737427 -43.5886154
74.4624252 137.6784515 -42.6620789
71.7783737 137.6380157 -42.1115036
69.1311111 137.6406860 -41.8867264
66.5051270 137.6894226 -41.9604797
63.8896103 137.7690125 -42.3112946
61.2897568 137.9048462 -43.0055847
58.7033310 138.0782471 -44.0269203
-77.6772614 -15.6446152 131.1100922
-80.8547058 -15.6360731 132.1396332
-73.0660553 -14.4662437 133.0508728
-74.1193848 -14.4205933 133.7817688
-75.1458282 -14.3983307 134.4127197
-76.1821823 -14.3860197 134.9479370
-77.2220612 -14.3844099 135.3858185
-80.4010544 -14.3754063 136.2125702
-81.4895554 -14.3925486 136.2930145
-82.5598755 -14.3932972 136.3557892
-83.6703186 -14.4101086 136.2848816
-84.7740173 -14.4346952 136.1726837
-85.8907700 -14.4477730 135.9495697
-87.0242996 -14.4575014 135.6122894
-88.1512833 -14.5017300 135.2240143
-68.7207336 -13.3778591 133.0178833
-69.7191086 -13.3168964 134.1083527
-70.7183075 -13.2867517 135.0554810
-71.7337952 -13.2648287 135.8819733
-72.7478638 -13.2553167 136.5686188
-86.6493378 -13.2852154 138.9359131
-87.7695160 -13.2998371 138.6343842
-66.4350586 -12.2324047 134.2441406
-67.4254074 -12.1834192 135.4219055
-68.4202271 -12.1701345 136.3928680
-69.4352112 -12.1451693 137.3186646
-70.4387817 -12.1370277 138.0850830
-71.4600677 -12.1218014 138.7763367
-72.4820862 -12.1200161 139.3539581
-86.3589172 -12.1530733 141.5994263
-87.4735260 -12.1721506 141.3497772
-88.6047516 -12.1922579 141.0359497
-89.7198334 -12.2057714 140.6581726
-90.8722610 -12.2168646 140.1841736
-92.0300446 -12.2453489 139.6237030
-93.2025986 -12.3034630 138.9673157
-64.1996689 -11.1244421 134.9937286
-65.1808472 -11.0883017 136.2178955
-66.1673737 -11.0664873 137.3018646
-92.8806152 -11.1272964 141.6413422
-60.0643387 -10.1501961 131.9718933
-61.0226212 -10.0815973 133.7483521
-61.9871712 -10.0337334 135.2649231
-62.9711723 -10.0010309 136.6136780
-63.9650841 -9.9804668 137.8029327
-64.9582825 -9.9598465 138.8613129
-65.9573669 -9.9423323 139.7989502
-92.6203156 -10.0211601 143.9227448
-93.7585220 -10.0426693 143.3900757
-94.9224014 -10.0741749 142.7746277
-96.1023865 -10.0990906 142.0528717
-97.2786865 -10.1467028 141.2693787
-59.8268166 -8.9582186 135.1981964
-96.9878922 -9.0014439 143.5824890
-98.1836243 -9.0426712 142.7793732
-58.6349487 -7.8662310 136.3382568
-59.6261787 -7.8369665 137.7885895
-96.7461700 -7.8978467 145.6028442
-97.9167938 -7.9244671 144.8805389
-99.0923157 -7.9557238 144.0798340
-100.3128433 -8.0048246 143.1614990
-58.4586029 -6.7538075 138.7034302
-59.4627304 -6.7239628 140.0138855
-98.8515320 -6.8527198 146.0194397
-100.0377197 -6.8797832 145.2077637
-101.2357330 -6.9242268 144.3261719
-57.3161125 -5.6705408 139.4629059
-58.3095665 -5.6508193 140.7542877
-59.3211708 -5.6310740 141.9303894
-98.6510162 -5.7701230 147.7464752
-99.8089218 -5.7869544 147.0277710
-100.9886017 -5.8125191 146.2067108
-102.2001724 -5.8465056 145.2761536
-103.4253616 -5.8955736 144.2581024
-56.1955490 -4.5985012 140.0704651
-57.1869774 -4.5798836 141.3722839
-103.1738205 -4.7762165 146.1277161
-104.3824921 -4.8146267 145.1130219
-52.1690788 -3.5962815 135.6820221
-53.1173172 -3.5729263 137.4851990
-54.1094246 -3.5443993 139.1372070
-55.0843964 -3.5293927 140.5671387
-56.0631065 -3.5137246 141.8610840
-57.0621986 -3.4955659 143.0608826
-102.9496765 -3.6940131 147.8164063
-104.1469498 -3.7176232 146.8770905
-51.0489578 -2.5380728 135.9573059
-52.0116882 -2.5109367 137.7983856
-52.9824142 -2.4848421 139.4508667
-102.7653046 -2.6228166 149.3299408
-103.9406357 -2.6396217 148.4691772
-105.1585922 -2.6741638 147.5012817
-106.3884888 -2.7192912 146.4512177
-50.9140854 -1.4422029 138.0405426
-51.8825912 -1.4279163 139.6726074
-52.8642845 -1.4087439 141.1757507
-102.5863647 -1.5495658 150.7252502
-103.7551270 -1.5663478 149.9160461
-104.9656448 -1.5897940 148.9969025
-106.1665268 -1.6134322 148.0132141
-50.7906799 -0.3688673 139.7950439
-104.7784119 -0.5232748 150.3815002
-105.9785461 -0.5450124 149.4503174
-107.2041931 -0.5725689 148.4174500
-108.4147949 -0.5958047 147.3113098
-49.7168808 0.6875476 139.8264771
-50.6947517 0.7097653 141.3815765
-104.6117783 0.5384130 151.6433716
-105.7973480 0.5219448 150.7770691
-107.0265656 0.4977759 149.7947845
-108.2206268 0.4833924 148.7672729
-109.4646149 0.4426337 147.6179199
-49.6222839 1.7626234 141.3434448
-50.6043320 1.7778680 142.8113098
-109.2651978 1.5248640 149.0019379
-46.5909348 2.7791378 137.5731812
-47.5598717 2.7989707 139.4723358
-48.5422821 2.8108230 141.1721649
-49.5360413 2.8259952 142.7096100
-50.5113068 2.8344913 144.0836334
-109.0813904 2.5924358 150.2927399
-110.3371658 2.5576062 149.1518250
-45.5504227 3.8381426 137.2181396
-46.5054550 3.8557854 139.1558228
-108.9258881 3.6484928 151.4612122
-110.1472855 3.6331987 150.3880310
-111.4118958 3.6044579 149.1831055
-44.5002937 4.8910489 136.7476807
-45.4616318 4.9114099 138.7654419
-46.4155655 4.9154563 140.5621796
-108.7949677 4.6951361 152.5308533
-109.9844208 4.6904125 151.5368958
-111.2291946 4.6760211 150.3922577
-112.5046082 4.6426926 149.1629944
-44.4083443 5.9571490 138.2298584
-111.0873184 5.7266440 151.4949951
-112.3259048 5.7124949 150.3400574
-44.3353386 7.0189047 139.5849762
-110.9441910 6.7750301 152.5260620
-112.1799011 6.7647271 151.4136047
-44.2822533 8.0805998 140.8502197
-110.8108826 7.8228703 153.4780273
-112.0439529 7.8138962 152.4003601
-113.2722168 7.7960987 151.2749176
-44.2049332 9.1258450 141.9371338
-110.6992416 8.8658485 154.3407288
-111.9216003 8.8580036 153.3021088
-113.1270828 8.8516760 152.2137604
-42.1840744 10.1737728 139.2846680
-43.1613617 10.1776752 141.2083282
-44.1580849 10.1767979 142.9817810
-113.0014496 9.8979607 153.0932770
-42.1368484 11.2305851 140.3853302
-43.1096916 11.2231913 142.2145081
-44.0937386 11.2171650 143.8918304
-112.8937149 10.9392395 153.9069214
-114.1248169 10.9325981 152.7823029
-42.0727844 12.2738590 141.3400726
-112.7846527 11.9789438 154.6738281
-114.0198822 11.9765263 153.5654144
-42.0339355 13.3203115 142.2737274
-112.6837997 13.0161390 155.3840485
-113.9113693 13.0159740 154.3077240
-115.1359482 13.0198212 153.1463013
-40.0517883 14.3843327 139.3309784
-41.0133667 14.3722057 141.3005066
-41.9931374 14.3601599 143.1134338
-67.1384048 14.1719179 164.0657349
-68.1490326 14.1647339 164.4041443
-69.1823044 14.1627264 164.7265778
-70.1931839 14.1553364 165.0189056
-115.0323029 14.0587130 153.8671570
-40.0102844 15.4311562 140.2155457
-40.9685631 15.4148235 142.1070251
-41.9450302 15.4010506 143.8553619
-67.1032562 15.1866741 164.4904785
-68.1192169 15.1839771 164.8368530
-69.1498947 15.1727066 165.1517639
-70.1635208 15.1714687 165.4429321
-114.9470520 15.0921555 154.5336304
-116.2198181 15.0922155 153.3009338
-117.4703369 15.0964298 152.0046234
-39.9533195 16.4682503 140.9992371
-65.0273285 16.2148495 164.1114197
-66.0472031 16.2036972 164.5086823
-69.1244812 16.1962681 165.5549316
-70.1360931 16.1855011 165.8351898
-117.3683014 16.1385307 152.6850433
-39.9225655 17.5108376 141.7549744
-65.0007172 17.2312851 164.4876099
-68.0606232 17.2084675 165.5940552
-69.0789566 17.2053528 165.9038391
-70.1063995 17.1952362 166.1891327
-117.2755356 17.1767025 153.3158264
-39.8899994 18.5492325 142.4156647
-62.9433556 18.2557411 163.9777222
-63.9566345 18.2500896 164.4222717
-64.9741211 18.2422466 164.8417053
-65.9907074 18.2378273 165.2322998
-67.0249939 18.2303047 165.5999908
-68.0319595 18.2216206 165.9270630
-69.0603867 18.2194462 166.2383118
-70.0760727 18.2109184 166.5257111
-71.1111832 18.2053947 166.7975922
-72.1393204 18.1997795 167.0451355
-73.1645050 18.1949482 167.2677612
-74.1965408 18.1897964 167.4545898
-79.3756638 18.1668053 168.1020050
-80.4206619 18.1645432 168.1707153
-81.4558411 18.1626492 168.2149048
-82.5119934 18.1559715 168.2227783
-83.5629425 18.1568108 168.2161865
-84.6140060 18.1512642 168.1865845
-85.6713104 18.1537437 168.1328735
-86.7253876 18.1491184 168.0519867
-87.7892838 18.1472588 167.9512482
-88.8427048 18.1469650 167.8348083
-89.9220276 18.1460152 167.6880341
-90.9993744 18.1423149 167.5096741
-92.0696411 18.1425991 167.3150940
-93.1477814 18.1432838 167.1016693
-117.2042694 18.2118187 153.8852997
-36.9266663 19.6678257 136.5162811
-37.9030838 19.6433563 138.9485016
-38.8697433 19.6118813 141.0999451
-39.8665924 19.5888214 143.0355988
-62.9178696 19.2715321 164.3093414
-65.9630508 19.2483444 165.5544586
-74.1656494 19.1987114 167.7634430
-79.3433838 19.1769295 168.4169464
-82.4780884 19.1700478 168.5377350
-83.5266418 19.1674500 168.5292053
-84.5700989 19.1642704 168.4980469
-85.6463470 19.1607609 168.4388123
-86.6948547 19.1606598 168.3619385
-87.7618713 19.1565285 168.2655029
-88.8166962 19.1585751 168.1511688
-89.8988647 19.1521263 168.0030670
-90.9629211 19.1555519 167.8339844
-92.0362549 19.1523666 167.6388092
-93.1166840 19.1552639 167.4213257
-117.1228867 19.2513409 154.4165039
-37.8772240 20.6837063 139.6129303
-62.8995667 20.2865658 164.6092224
-65.9427338 20.2589474 165.8480988
-72.0906296 20.2224197 167.6544952
-73.1109085 20.2142067 167.8541107
-74.1435623 20.2130680 168.0536346
-75.1700821 20.2050648 168.2245331
-76.2167664 20.1993942 168.3751831
-77.2424164 20.1947441 168.5067139
-78.2855072 20.1918259 168.6180115
-79.3140106 20.1896839 168.7031860
-80.3627243 20.1855564 168.7645721
-81.4082947 20.1809559 168.8059845
-82.4550400 20.1793900 168.8222656
-85.6169434 20.1721954 168.7331238
-91.9980927 20.1697769 167.9449768
-93.0818634 20.1672211 167.7182465
-117.0551147 20.2840080 154.8885345
-118.3269196 20.2944050 153.6194153
-36.8744545 21.7569542 137.8976440
-37.8468285 21.7223701 140.1921692
-62.8767548 21.3026009 164.8668518
-73.0848923 21.2219830 168.1245422
-91.9683075 21.1828022 168.2227783
-93.0483017 21.1815205 167.9953918
-116.9933319 21.3176231 155.3266907
-118.2522430 21.3317699 154.0852661
-36.8423157 22.7978401 138.4819641
-37.8215790 22.7618160 140.7118073
-58.7994766 22.3479652 163.1458588
-59.8142242 22.3382721 163.6912842
-60.8220100 22.3273659 164.2031555
-61.8434715 22.3196621 164.6905365
-62.8618126 22.3127384 165.1407318
-63.8700638 22.3013000 165.5676880
-93.0240326 22.1926422 168.2526550
-94.0980225 22.1983147 168.0160828
-95.1904144 22.1976604 167.7470093
-96.2686615 22.2017174 167.4546509
-97.3616409 22.2052479 167.1366425
-116.9387741 22.3517399 155.7228088
-118.1937561 22.3674355 154.4944305
-36.8322830 23.8397789 139.0172424
-37.8010864 23.7998753 141.1829834
-58.7930984 23.3632202 163.3937225
-92.9942169 23.2062035 168.4994202
-94.0716019 23.2094326 168.2581177
-95.1612320 23.2122269 167.9857025
-96.2457657 23.2151394 167.6894836
-97.3389435 23.2181072 167.3735352
-116.8915405 23.3828316 156.0702667
-118.1330872 23.4028416 154.8721619
-36.8130226 24.8814220 139.4669647
-37.7857933 24.8385143 141.6051941
-58.7752380 24.3796635 163.6038208
-96.2266617 24.2284489 167.9036102
-97.3214569 24.2323380 167.5866089
-116.8594589 24.4152603 156.3765869
-118.0946884 24.4357643 155.1918030
-119.3605042 24.4555798 153.9098206
-36.7849655 25.9199352 139.8410339
-37.7623024 25.8755341 141.9474487
-58.7668228 25.3926735 163.7990112
-96.1970444 25.2442169 168.1018372
-97.2984543 25.2467365 167.7815857
-116.8100128 25.4477749 156.6704407
-118.0442963 25.4708347 155.4868469
-119.3199005 25.4929504 154.1989441
-36.7747421 26.9597244 140.2139435
-37.7584343 26.9140129 142.2815857
-56.7248955 26.4296684 162.8141785
-57.7556801 26.4170494 163.4261169
-58.7557983 26.4034443 163.9869385
-95.1123657 26.2501526 168.5633240
-96.1805191 26.2568855 168.2741394
-97.2824402 26.2607307 167.9543152
-116.7821960 26.4789753 156.9101563
-118.0276642 26.5038300 155.7218323
-36.7537308 27.9987335 140.4934082
-37.7542458 27.9517689 142.5543671
-56.7250481 27.4460907 162.9775696
-96.1698151 27.2697811 168.4233093
-97.2597885 27.2757454 168.1090546
-116.7556305 27.5115795 157.1178284
-117.9874954 27.5378895 155.9526978
-119.2376175 27.5664387 154.6919708
-56.7178268 28.4600849 163.1108398
-96.1454010 28.2836208 168.5520782
-97.2492599 28.2900505 168.2344971
-119.2173233 28.6018715 154.8758545
-56.7047729 29.4747276 163.2117310
-96.1459045 29.2968636 168.6485596
-97.2398224 29.3041706 168.3340759
-119.1993256 29.6381168 155.0308380
-56.7109795 30.4898777 163.3070374
-97.2276382 30.3185501 168.4183655
-119.1934586 30.6746635 155.1461639
-56.7072754 31.5049324 163.3682098
-96.1371765 31.3253517 168.7904510
-97.2282104 31.3340454 168.4774323
-119.1718292 31.7119789 155.2409058
-54.6953087 32.5607109 162.1263428
-55.7003403 32.5401268 162.7822266
-56.7080841 32.5207672 163.3973694
-96.1359634 32.3402405 168.8274994
-97.2237701 32.3495331 168.5153656
-119.1761703 32.7508163 155.2761841
-54.7002144 33.5785904 162.1411438
-55.7107124 33.5570564 162.7984009
-56.7100449 33.5373459 163.4103851
-96.1339035 33.3556709 168.8415985
-97.2308655 33.3660278 168.5265503
-119.1740875 33.7903214 155.2847443
-54.7035599 34.5971222 162.1332245
-55.7073212 34.5749664 162.7880707
-95.0592041 34.3625946 169.1216736
-96.1303711 34.3717117 168.8368073
-97.2282715 34.3826027 168.5205536
-119.1899643 34.8314552 155.2467957
-54.7091599 35.6162529 162.0991058
-55.7097054 35.5940704 162.7550049
-56.7208099 35.5710258 163.3861694
-57.7328949 35.5521889 163.9820862
-96.1461411 35.3881874 168.8050232
-97.2493820 35.4012756 168.4845276
-119.2022018 35.8735275 155.1849823
-36.7580566 37.4047165 140.9301453
-37.7517548 37.3296547 142.9481506
-56.7309952 36.5898018 163.3231506
-57.7467575 36.5692177 163.9148712
-96.1570129 36.4066353 168.7523499
-97.2489471 36.4184227 168.4386139
-116.7216949 36.8265991 157.4988403
-117.9626312 36.8697624 156.3319702
-119.2166595 36.9166946 155.0878601
-36.7828865 38.4568710 140.7563019
-37.7701187 38.3783989 142.7977448
-56.7352104 37.6110954 163.2356110
-57.7502556 37.5893784 163.8203278
-96.1643829 37.4249115 168.6828613
-97.2644348 37.4382820 168.3647461
-116.7483902 37.8672104 157.3687592
-117.9861679 37.9124298 156.1996918
-119.2438354 37.9620514 154.9365540
75.1270142 47.3056068 -59.2336006
73.7525940 47.2888184 -58.6029739
72.3823395 47.3040161 -58.1205254
71.0215607 47.2988358 -57.7563400
69.6712646 47.2918930 -57.5258942
68.3317261 47.2800674 -57.4580841
66.9872055 47.2949295 -57.4287491
65.6679153 47.2907486 -57.5816307
64.3333588 47.3100891 -57.8044167
63.0272903 47.3260117 -58.1871071
61.7115860 47.3228989 -58.6468658
60.3925400 47.3224869 -59.2929001
-36.8062553 39.5112953 140.5064545
-37.7807388 39.4304581 142.5794067
-56.7502594 38.6312943 163.1379395
-57.7663345 38.6095200 163.7236176
-94.0107422 38.4213066 169.1532135
-95.1023941 38.4332542 168.8771973
-96.1851425 38.4453926 168.5818176
-97.2740173 38.4586716 168.2652283
-116.7809906 38.9106102 157.2059784
-118.0218353 38.9577293 156.0232239
79.0123520 48.5587082 -57.3592567
77.6118088 48.5423164 -56.4933052
76.2243576 48.5220947 -55.7233887
74.8626633 48.4962273 -55.1268921
73.4923706 48.4724617 -54.6497803
72.1334763 48.4545097 -54.2757683
70.7883987 48.4395332 -54.0142670
69.4454041 48.4368286 -53.8364830
68.1135178 48.4371223 -53.7647095
66.7595291 48.4383545 -53.7953453
65.4505463 48.4410324 -53.9302750
64.1269684 48.4513550 -54.1447601
62.8220139 48.4771042 -54.4134827
61.5069351 48.5012093 -54.8150330
60.1939926 48.5285263 -55.3455200
58.8955116 48.5594482 -55.9589043
-36.8240433 40.5701256 140.2143250
-37.8093681 40.4825249 142.3446960
-56.7590027 39.6544800 163.0178528
-57.7816429 39.6297646 163.6101685
-94.0232544 39.4398193 169.0301056
-95.1242828 39.4540939 168.7539368
-96.2050781 39.4668694 168.4642029
-97.2979736 39.4805298 168.1483765
-116.7980957 39.9524803 157.0263672
-118.0598450 40.0048256 155.8134918
82.9924088 49.8283386 -56.8281021
81.5495911 49.8078613 -55.5920639
80.1449432 49.7722588 -54.5434914
78.7410889 49.7332840 -53.6864014
77.3792725 49.6955757 -52.9946480
60.0321312 49.6841507 -52.2025986
58.7250824 49.7115555 -52.7460976
57.4244919 49.7404518 -53.3866997
56.1411819 49.7846985 -54.1219521
54.8504410 49.8291473 -54.9743767
53.5503044 49.8459930 -55.9961929
-36.8433533 41.6314850 139.8601837
-37.8208313 41.5408859 142.0201111
-58.7971725 40.6297989 164.0256348
-92.9838486 40.4529037 169.1278992
-94.0566559 40.4630203 168.8812561
-95.1498871 40.4758644 168.6146545
-116.8473434 41.0004311 156.7836914
-118.0833435 41.0518875 155.5866089
87.0571747 51.1509209 -57.4694710
85.5776596 51.1061859 -55.7948875
84.1291580 51.0654678 -54.4022865
82.7179184 51.0143356 -53.2587547
81.3105621 50.9726257 -52.2521667
79.9282761 50.9248657 -51.4430618
78.5283813 50.8939400 -50.7207031
77.1744385 50.8746834 -50.1072655
59.8843956 50.8652229 -49.5708656
58.5760040 50.8839874 -50.0817223
57.2844734 50.9191437 -50.6212006
55.9992371 50.9504318 -51.2646027
54.6988220 50.9972649 -52.0066681
53.4147835 51.0448036 -52.8567123
52.1200104 51.0896530 -53.8520660
50.8469505 51.1185150 -54.9433136
-36.8733444 42.6944695 139.4683685
-37.8409882 42.5997849 141.6515808
-58.8138237 41.6530151 163.8723297
-59.8265228 41.6295319 164.4281616
-93.0129700 41.4746246 168.9591675
-94.0792084 41.4847374 168.7225342
-95.1681976 41.4982033 168.4576263
-116.8849869 42.0486526 156.5217896
-118.1347198 42.1037025 155.3001404
88.1880035 52.3964729 -55.3063354
86.7514114 52.3384361 -53.8193359
85.3172073 52.2781906 -52.4895363
51.9863625 52.2697449 -51.1138077
50.7156334 52.3183136 -52.0999107
49.4319687 52.3709030 -53.2212715
48.1650391 52.4360275 -54.4818230
46.8803864 52.4834518 -55.9456329
-36.8992653 43.7643967 139.0011597
-37.8679237 43.6644211 141.2249603
-58.8281097 42.6789360 163.6804352
-59.8398438 42.6563797 164.2262726
-60.8479080 42.6336899 164.7414246
-61.8651199 42.6126709 165.2333984
-74.1182785 42.4558716 169.1131134
-89.8171005 42.4674454 169.3424683
-90.8879929 42.4744987 169.1817322
-91.9492035 42.4831467 168.9971619
-93.0334167 42.4970703 168.7808838
-98.4535599 42.5698967 167.3148346
-99.5620041 42.5897560 166.9300537
-100.6762848 42.6119347 166.5074615
-101.7816544 42.6330414 166.0622253
-116.9333954 43.0995789 156.2172546
-118.2022781 43.1606674 154.9685059
90.8955841 53.6788712 -55.4600754
89.4054031 53.6316681 -53.6625786
87.9348755 53.5643654 -52.1194611
86.5182495 53.4970512 -50.8591499
85.0997162 53.4471436 -49.7356949
51.8769455 53.4536705 -48.7343826
50.6070747 53.4982071 -49.6258888
49.3174744 53.5553169 -50.6251717
48.0375786 53.6133804 -51.7620125
46.7637787 53.6868095 -53.0285454
-36.8968201 44.8464317 138.4316406
-37.8957520 44.7321243 140.7462006
-58.8481216 43.7034073 163.4676971
-59.8619804 43.6824722 164.0133514
-60.8768120 43.6558189 164.5328979
-61.8858223 43.6384277 165.0148315
-72.0809326 43.4885864 168.5047913
-73.1060333 43.4841766 168.7208862
-74.1439896 43.4756851 168.9180603
-78.2253876 43.4521561 169.5678406
-90.9102402 43.4981728 168.9862366
-91.9863434 43.5089340 168.7944336
-93.0594864 43.5210648 168.5791626
-98.4866486 43.5976791 167.0977325
-99.5862350 43.6160393 166.7108917
-116.9728394 44.1512146 155.8899231
-118.2478256 44.2151566 154.6218414
92.1174622 54.9316025 -54.0584564
90.6150818 54.8712006 -52.2685623
46.6518478 54.8626556 -50.5354691
45.3697548 54.9191284 -51.7937851
42.8078537 55.0634155 -54.8556061
-37.9181480 45.8048477 140.2149658
-38.8936996 45.7059708 142.2871552
-39.8800354 45.6175995 144.1741028
-60.8966980 44.6833115 164.3020172
-61.9101944 44.6631813 164.7831573
-62.9134369 44.6465721 165.2367859
-63.9359856 44.6230812 165.6873169
-69.0357666 44.5457382 167.4716797
-70.0469818 44.5330238 167.7550964
-71.0825653 44.5224380 168.0349731
-72.1088715 44.5125237 168.2851257
-73.1401749 44.5014114 168.5062103
-74.1719894 44.4990234 168.7014465
-75.1916275 44.4881821 168.8733673
-76.2302856 44.4869499 169.0191345
-77.2523880 44.4841766 169.1704865
-81.4177246 44.4777718 169.4588318
-85.6294708 44.4868240 169.3673706
-86.6747894 44.4915276 169.2886810
-90.9363556 44.5222969 168.7665405
-98.5310516 44.6310043 166.8481903
-99.6240234 44.6506767 166.4626923
-100.7424316 44.6732941 166.0438385
-101.8490524 44.6952286 165.5942078
-117.0446472 45.2093124 155.4951630
91.8607483 56.1118355 -51.1714020
90.3925629 56.0335007 -49.6384354
46.5612869 56.0572166 -48.3596001
45.2683792 56.1170807 -49.5402985
44.0144272 56.1961174 -50.8122520
42.7329712 56.2630424 -52.2458076
-38.9301949 46.7765923 141.7670593
-39.9141350 46.6816940 143.6810150
-60.9149475 45.7144318 164.0440063
-61.9323769 45.6908073 164.5323181
-62.9490967 45.6694565 164.9973145
-63.9619217 45.6519279 165.4374390
-64.9870911 45.6311531 165.8627167
-65.9872284 45.6171608 166.2448120
-69.0567627 45.5725555 167.2478485
-70.0711212 45.5603714 167.5329132
-71.1011963 45.5518761 167.7989044
-72.1310196 45.5368500 168.0432739
-73.1623840 45.5277023 168.2661133
-74.1969910 45.5205841 168.4608612
-75.2197495 45.5148087 168.6251984
-76.2570343 45.5103149 168.7755585
-81.4553680 45.5014343 169.2118530
-84.5934143 45.5018616 169.1889648
-85.6540375 45.5092201 169.1296539
-86.7085037 45.5163040 169.0466461
-87.7802353 45.5245247 168.9446106
-88.8351822 45.5305481 168.8326111
-89.9042053 45.5408592 168.6884766
-90.9690170 45.5497627 168.5153198
-98.5662766 45.6618347 166.5832062
-99.6616287 45.6811104 166.1979675
-100.7748108 45.7057953 165.7716217
-101.8904266 45.7337799 165.3066101
-117.1132050 46.2697105 155.0689697
94.5939331 57.4411430 -52.0279007
93.1044006 57.3656349 -50.2432556
91.6599808 57.2783661 -48.7377281
90.2095184 57.2145538 -47.3880615
46.4734116 57.2602921 -46.4391327
45.1900787 57.3149261 -47.5233994
43.9331322 57.3928947 -48.6763916
42.6442451 57.4724350 -50.0476341
41.3884468 57.5600700 -51.5081863
40.0880356 57.6152649 -53.1854134
-38.9488564 47.8568916 141.1481628
-39.9448090 47.7526321 143.1171570
-65.0028076 46.6576691 165.5862122
-66.0239334 46.6429100 165.9760742
-70.1084518 46.5777054 167.2870178
-75.2491074 46.5414200 168.3668518
-76.2846985 46.5332336 168.5226898
-77.3182373 46.5283203 168.6568604
-78.3585052 46.5265732 168.7620850
-79.3940277 46.5242729 168.8415680
-80.4383087 46.5202560 168.8980103
-81.4889526 46.5262184 168.9360352
-82.5306320 46.5277481 168.9560089
-83.5861053 46.5298309 168.9512177
-84.6252747 46.5312500 168.9245758
-114.7036743 47.2081642 156.9357147
-115.9408951 47.2683716 155.8067627
-117.1933289 47.3350449 154.5914612
95.8497849 58.7160492 -51.3128128
94.3743591 58.6211510 -49.5262718
92.9138718 58.5375519 -47.9608574
91.4710312 58.4756203 -46.5790672
90.0444870 58.4063606 -45.3911133
46.4020271 58.4736824 -44.6775818
45.1178741 58.5276489 -45.6745071
43.8467369 58.5824890 -46.7766457
40.0506325 58.8621292 -50.9447060
-39.9874153 48.8261566 142.5077820
-65.0352402 47.6928787 165.2891235
-66.0566711 47.6694031 165.6844788
-67.0699615 47.6556587 166.0514069
-68.0851440 47.6404305 166.3931580
-69.1208496 47.6269226 166.7119446
-70.1329880 47.6156731 166.9896698
-75.2784958 47.5692596 168.0933533
-76.3204193 47.5584145 168.2516174
-77.3478088 47.5566978 168.3757477
-78.3939362 47.5538139 168.4754028
-79.4282074 47.5517197 168.5571289
-80.4731750 47.5512085 168.6172485
-81.5229874 47.5528908 168.6555786
-82.5613785 47.5501175 168.6727142
-83.6139221 47.5566521 168.6635132
-84.6647491 47.5601997 168.6370697
-114.7786407 48.2715034 156.4585724
-116.0170135 48.3325119 155.3027496
97.1365509 59.9838562 -50.8255653
95.6577148 59.8767395 -48.9931870
46.3344231 59.6841469 -43.0804977
-40.0210648 49.9120178 141.7904053
-114.8449783 49.3319550 155.9523163
-116.0911942 49.3952789 154.7470703
98.4556885 61.2521858 -50.5389824
96.9394073 61.1581573 -48.5809517
95.4592667 61.0650482 -46.9113770
46.2715950 60.9047546 -41.6191940
44.9719620 60.9361420 -42.5320663
-39.0587234 51.1302528 138.8719177
-40.0675850 50.9973450 141.0289001
-114.9275284 50.4010696 155.3886719
99.7399902 62.5446892 -50.3181839
98.2568207 62.4345207 -48.3742523
46.2134933 62.1210175 -40.2730331
44.9264870 62.1710129 -41.1404991
-40.1038589 52.0929298 140.1954498
-41.0810661 51.9765625 142.2067108
-42.0604858 51.8805695 144.0368652
-115.0149918 51.4731903 154.7794037
101.0880890 63.8352051 -50.3819275
99.5432281 63.7264404 -48.2427864
98.0798798 63.6180115 -46.4696465
46.1583595 63.3419189 -39.0189629
44.8740883 63.3917847 -39.8640404
-40.1335182 53.2070351 139.2767487
-41.1303253 53.0702057 141.3556061
-42.1101151 52.9642410 143.2538757
-115.1195526 52.5514641 154.1060181
102.4286957 65.1374512 -50.5640450
100.8938904 65.0221786 -48.3635902
48.6610832 64.4683151 -36.3789749
47.3819695 64.5095139 -37.0874825
46.1061668 64.5641479 -37.8531265
-41.1839256 54.1761703 140.4185791
-42.1585159 54.0596848 142.3820190
-112.7761307 53.4945526 155.6707764
-114.0051651 53.5650444 154.5604858
-115.2288971 53.6396523 153.3554688
102.2362289 66.3242035 -48.6026077
100.7198486 66.2039108 -46.5770454
48.6023788 65.6890640 -35.3442039
47.3331757 65.7405319 -36.0151672
46.0633583 65.7933884 -36.7474518
-41.2096062 55.2998734 139.3668518
-42.2186432 55.1567078 141.4503021
-112.8700485 54.5740776 154.9678650
-114.1119003 54.6508331 153.8062286
-115.3396149 54.7266579 152.5630798
103.6129303 67.6330719 -49.0394745
102.0640640 67.5123520 -46.8661194
100.5726089 67.3989868 -45.0042572
51.1173248 66.8298645 -33.1996727
49.8439064 66.8676910 -33.7536545
48.5633583 66.9116592 -34.3616714
-42.2677536 56.2793045 140.3910828
-43.2480087 56.1548347 142.3251648
-44.2204437 56.0508652 144.0789642
-112.9842072 55.6606865 154.1905823
-114.2333221 55.7426186 152.9908295
104.9978027 68.9681473 -49.6793404
103.4419250 68.8274155 -47.3441811
101.9289246 68.7008362 -45.3497124
100.4433975 68.5992966 -43.5886078
51.0744629 68.0540543 -32.2921104
49.8104591 68.0996552 -32.8221092
-42.3187866 57.4097214 139.2489166
-43.3144112 57.2656975 141.2632141
-44.2858810 57.1536064 143.1016541
-113.1153488 56.7558823 153.3411560
104.8018112 70.1629639 -47.9321365
103.2862091 70.0244522 -45.8050156
51.0382462 69.2871094 -31.4339714
49.7760925 69.3204498 -31.9547577
-43.3768806 58.3914833 140.1110229
-44.3478165 58.2669945 142.0200043
-110.7966080 57.7027206 154.6757355
-112.0081863 57.7742157 153.6072998
-113.2461929 57.8579025 152.4284363
106.2105408 71.4978638 -48.7582016
104.6660004 71.3479156 -46.4518127
103.1680450 71.2172165 -44.4578247
50.9881439 70.5074234 -30.6634750
-44.4095230 59.3998680 140.8563995
-110.9131470 58.7985306 153.7920227
-112.1499939 58.8797951 152.6533966
-113.4004898 58.9726563 151.4218750
106.0574036 72.6923141 -47.2587013
53.5093651 71.6636734 -29.0151215
52.2381706 71.7002258 -29.4552097
50.9548302 71.7378540 -29.9272556
-44.4916687 60.5320816 139.5475464
-45.4615593 60.4031296 141.4460297
-46.4368744 60.2872658 143.2056122
-108.6414337 59.7572441 154.8592987
-109.8359451 59.8272285 153.8920898
-111.0550385 59.9060020 152.8135681
-112.2938004 59.9927902 151.6308594
107.5140610 74.0502777 -48.3667297
105.9190369 73.8925781 -45.9130135
53.4724884 72.8870316 -28.3467331
52.1951675 72.9253540 -28.7737675
-44.5648155 61.7020226 138.0415497
-45.5500717 61.5342522 140.1169739
-46.5230713 61.4107513 141.9832916
-108.7676239 60.8609581 153.9117126
-109.9812622 60.9366074 152.8851318
-111.2023544 61.0196037 151.7594452
107.3718948 75.2549286 -47.0183563
105.8104172 75.0993729 -44.7239151
53.4450417 74.1302261 -27.6945591
52.1720276 74.1570511 -28.1148453
-45.6302528 62.7032166 138.5880585
-46.6083145 62.5554543 140.5744629
-47.5807457 62.4352684 142.3752136
-48.5507584 62.3334465 143.9605713
-106.5243988 61.8307457 154.7479553
-107.7137833 61.8982162 153.8542480
-108.9205780 61.9734116 152.8698730
-110.1353226 62.0575676 151.7961731
107.2493362 76.4593506 -45.8314590
105.7188110 76.3061295 -43.6828842
53.4081726 75.3523560 -27.1028500
52.1359787 75.3890915 -27.5230198
-46.7104111 63.7173462 139.0361176
-47.6827812 63.5758171 140.9851685
-48.6355476 63.4638023 142.6561584
-106.6671677 62.9433441 153.7247925
-107.8497925 63.0135422 152.7949677
-109.0745316 63.0990181 151.7448730
108.6936798 77.8357697 -47.1097908
107.1439667 77.6704025 -44.7785263
105.6156235 77.5244141 -42.7060165
53.3651428 76.5764847 -26.5644569
-47.7703590 64.7529678 139.4050446
-48.7366219 64.6177521 141.1980286
-49.7186699 64.5016022 142.8659515
-50.6920624 64.3967285 144.3528442
-106.8234406 64.0642242 152.6065063
-108.0189514 64.1435852 151.6117706
108.5936737 79.0520554 -46.0857735
107.0315933 78.8875275 -43.7912636
105.5232086 78.7414627 -41.8231812
53.3487396 77.8173828 -26.0491486
-48.8397675 65.7939224 139.6011047
-49.8242493 65.6524200 141.3811035
-50.7866249 65.5460052 142.9500580
-106.9789505 65.1972275 151.3890686
-108.1908417 65.2759857 150.3159637
110.1080551 80.4470367 -47.6685219
108.4833069 80.2683487 -45.1183243
53.3275909 79.0525742 -25.5739861
-49.9219971 66.8355713 139.7160797
-50.8877258 66.7046051 141.4044037
-51.8750496 66.5943909 142.9731445
-52.8498077 66.4990768 144.3598328
-104.7616882 66.1818848 152.0038452
-105.9511566 66.2569427 151.0775757
-107.1582489 66.3426056 150.0265045
-108.4100418 66.4873810 148.7682495
109.9856720 81.6728210 -46.7249298
108.3930511 81.4904022 -44.2637329
53.3001709 80.2890625 -25.1472969
-51.0113068 67.8804550 139.6841431
-51.9918060 67.7571182 141.3617859
-52.9570427 67.6589050 142.8489685
-104.9430847 67.3324585 150.6548157
-106.1252136 67.4065399 149.6658325
-107.3668823 67.5097122 148.4903717
109.9045563 82.8984985 -45.9180756
108.3115082 82.7171402 -43.5000229
66.1024704 81.2786102 -22.6027756
64.7911224 81.2888412 -22.6727600
63.5255127 81.3101654 -22.7470703
62.2276077 81.3258438 -22.8810463
60.9610062 81.3452530 -23.0456200
59.6699944 81.3708344 -23.2372131
53.2676468 81.5227661 -24.7505493
-52.1220589 68.9446869 139.5249329
-53.0788155 68.8360825 141.1447754
-54.0613403 68.7230835 142.6557617
-55.0395432 68.6194077 144.0119476
-100.4025497 68.1884766 152.5851135
-101.5649567 68.2572327 151.8571014
-102.7455139 68.3307800 151.0521545
-103.9269409 68.4042892 150.1720276
-105.1333389 68.4927673 149.1744080
-106.3380661 68.5862045 148.0761871
111.4327850 84.3229370 -47.7706223
109.8203735 84.1303787 -45.1684570
108.2449417 83.9482574 -42.8282738
66.0809479 82.5134888 -22.2397041
64.7794876 82.5307083 -22.3051987
63.5004883 82.5429993 -22.3963776
62.1984253 82.5604019 -22.5312119
60.9198112 82.5796661 -22.6919441
59.6351814 82.6044464 -22.8721027
53.2583542 82.7653503 -24.3673592
-53.2200241 70.0337524 139.2185059
-54.1884956 69.9091034 140.8616943
-55.1591835 69.7970734 142.3375854
-100.5801697 69.3445740 151.2123871
-101.7441254 69.4125519 150.4389343
-102.9343262 69.4902802 149.5699463
-104.1330109 69.5813599 148.6116180
109.7519913 85.3635101 -44.5152283
108.1943665 85.1848297 -42.2555847
68.6314316 83.7322922 -21.8731918
67.3322144 83.7394409 -21.8657970
66.0460815 83.7485123 -21.8901997
64.7533646 83.7579269 -21.9531994
60.9108849 83.8178101 -22.3479118
59.6188049 83.8408051 -22.5394135
58.3508148 83.8693008 -22.7612591
57.0565033 83.8934937 -23.0344582
53.2297096 84.0049057 -24.0412235
-55.2992935 70.9960251 140.4423523
-56.2747612 70.8884583 141.8878021
-57.2676926 70.7873077 143.1977234
-98.4448700 70.3754578 151.1721191
-99.6124725 70.4439621 150.4679871
-100.7815247 70.5152969 149.6982269
-101.9392242 70.5740433 148.8687744
111.2669220 86.8021698 -46.4344330
109.6748123 86.6025543 -43.9235153
108.1332703 86.4258423 -41.7308273
68.5942917 84.9724731 -21.5885277
67.3129425 84.9708557 -21.5685978
60.8917999 85.0570984 -22.0529861
59.6098099 85.0824127 -22.2562656
58.3283691 85.1095276 -22.4869995
57.0638161 85.1421661 -22.7503967
53.2166214 85.2493057 -23.7494812
-55.4627724 72.2216721 138.2595520
-56.4235420 72.1003113 139.8676910
-57.4054642 71.9932709 141.3018799
-98.6361313 71.5446091 149.6438751
-99.8130035 71.6176300 148.8781433
-100.9869843 71.6928711 148.0408630
-102.1705093 71.7770081 147.1156311
111.1921692 88.0422592 -45.8408585
79.0070343 86.2481079 -22.5622883
77.6884613 86.2342834 -22.2727699
76.3769913 86.2188568 -22.0372887
75.0765839 86.2130051 -21.8414688
73.7757187 86.2037354 -21.6685677
72.4710846 86.2011337 -21.5271626
71.1687393 86.2039108 -21.4435482
69.8712540 86.2023163 -21.3797626
68.5785370 86.2103958 -21.3325710
67.3098297 86.2103729 -21.3060703
62.1404266 86.2738647 -21.6390495
60.8667603 86.2984314 -21.8042011
59.5617638 86.3189316 -22.0021629
57.0179672 86.3825912 -22.4976940
53.1846504 86.4919434 -23.4854298
-57.5673981 73.2103119 139.1507568
-58.5407295 73.1119614 140.5823059
-59.5255775 73.0054474 141.8776398
-60.5131454 72.9164200 143.0349121
-61.5242844 72.8304214 144.0995026
-96.5171738 72.6023941 149.3290558
-97.6830902 72.6680756 148.6687317
-98.8562241 72.7433014 147.9175720
-100.0308228 72.8154144 147.0990753
111.1473312 89.2925415 -45.3989944
78.9866257 87.4881668 -22.3184376
75.0564728 87.4535522 -21.6141281
73.7434540 87.4462204 -21.4150658
72.4609375 87.4380951 -21.2820854
71.1562653 87.4424973 -21.1906033
67.2815857 87.4572983 -21.0685654
63.4250107 87.4997406 -21.2723961
62.1300430 87.5204544 -21.4072800
60.8511772 87.5408173 -21.5611210
57.0102158 87.6273117 -22.2628651
53.1661301 87.7384186 -23.2480621
51.9080276 87.7798462 -23.6429405
-59.7030373 74.2268677 139.7273865
-60.6739464 74.1307678 140.9970856
-61.6776276 74.0462341 142.1523285
-96.7421722 73.8013611 147.5562134
-97.9207153 73.8718109 146.8133545
111.0904312 90.5504913 -45.0383301
78.9663925 88.7311554 -22.1150780
75.0404968 88.6949997 -21.4041328
73.7251740 88.6850586 -21.1904163
67.2622375 88.7012253 -20.8832283
65.9832230 88.7113113 -20.9055176
64.6872177 88.7274170 -20.9809914
63.4025764 88.7427368 -21.0795345
56.9958000 88.8720932 -22.0472794
55.7252884 88.9065323 -22.3208542
54.4447021 88.9444275 -22.6609421
53.1687698 88.9870834 -23.0364609
51.9130898 89.0311127 -23.4299088
50.6192703 89.0780334 -23.8679733
-60.8652687 75.3883514 138.5831757
-61.8568344 75.2790680 139.9202728
-62.8415833 75.1899643 141.0750122
-63.8454590 75.1057663 142.1471405
-64.8369980 75.0283051 143.1061096
-65.8480682 74.9659119 143.9613953
-92.3976669 74.7817993 147.9624634
-93.5227280 74.8267136 147.4906311
-94.6663742 74.8893661 146.9176788
-95.8306885 74.9565964 146.2622986
-96.9775848 75.0184708 145.5523987
111.0730286 91.8162766 -44.7898407
78.9515991 89.9768219 -21.9473362
75.0301743 89.9385071 -21.2258053
73.7087097 89.9303665 -21.0347099
64.6602020 89.9726334 -20.8116112
63.3915253 89.9878998 -20.8850842
55.7145386 90.1563721 -22.1628132
54.4440842 90.1955109 -22.4977551
53.1461525 90.2375870 -22.8691483
51.8973045 90.2823105 -23.2651176
50.6144180 90.3313980 -23.7115993
-64.0377884 76.3519135 139.8087158
-65.0267334 76.2685547 140.8894653
-66.0265350 76.1931381 141.8566589
-92.6193390 76.0083923 145.9901581
-93.7689209 76.0680389 145.4268188
-94.9242630 76.1296387 144.7817230
-96.0992584 76.2045288 144.0352478
111.0253220 93.0811462 -44.5419006
78.9405060 91.2232819 -21.7989502
77.6295395 91.2078400 -21.5307178
76.3151550 91.1946945 -21.2864609
75.0420837 91.1842346 -21.0842590
73.7154388 91.1785126 -20.9102974
64.6469574 91.2203827 -20.6664295
63.3812141 91.2368469 -20.7466984
55.6956062 91.4113541 -22.0576744
54.4260483 91.4498596 -22.3806267
50.6092300 91.5868683 -23.5789051
49.3348389 91.6377792 -24.0213985
48.0497818 91.7122421 -24.5225487
-65.2413483 77.5606308 138.2130890
-66.2286530 77.4644089 139.3396454
-67.2483673 77.3903046 140.3239288
-68.2543335 77.3137741 141.2015686
-69.2676620 77.2485046 142.0013428
-70.2852173 77.2020569 142.6831207
-71.3075714 77.1497192 143.3067780
-72.3320923 77.1104126 143.8511658
-86.1583099 77.0081100 145.9904327
-87.2586288 77.0383759 145.7707520
-88.3731689 77.0709152 145.4992523
-89.4745407 77.1052246 145.1736145
-90.6182785 77.1565704 144.7461090
-91.7416382 77.2048721 144.2715454
-92.8942337 77.2687378 143.6907043
111.0158920 94.3555756 -44.4080238
78.9308853 92.4726944 -21.6858788
77.6179199 92.4552765 -21.4056129
76.2702637 92.4414063 -21.1471539
74.9909821 92.4335632 -20.9538498
69.7922821 92.4367599 -20.5381947
65.9364777 92.4572983 -20.5096970
64.6362457 92.4731750 -20.5768757
63.3635063 92.4905396 -20.6657944
62.0847397 92.5100098 -20.7800522
55.6870575 92.6673965 -21.9694214
54.4114227 92.7072754 -22.2949982
50.5913506 92.8456879 -23.4855804
49.3222542 92.8983002 -23.9522419
48.0437393 92.9562225 -24.4732399
46.7822495 93.0164948 -25.0255470
-68.4831314 78.6480331 138.4527893
-69.4911957 78.5442734 139.3787842
-70.5032349 78.4794388 140.1864014
-71.5325394 78.4277496 140.8777466
-72.5507050 78.3741608 141.4996643
-86.4076385 78.2708130 143.7250061
-87.5025787 78.2971497 143.4757996
-88.6336517 78.3362656 143.1366882
-89.7498932 78.3810196 142.7412567
-90.8890228 78.4408264 142.2433167
-92.0306396 78.4940109 141.6620941
111.0124054 95.6354599 -44.3379059
76.2888947 93.6959991 -21.0860806
74.9905396 93.6863174 -20.8885479
69.7892303 93.6819382 -20.4382172
65.9285431 93.7094345 -20.4318104
54.4079819 93.9649887 -22.2203808
48.0431862 94.2193298 -24.4098339
46.7706680 94.2826385 -24.9728184
45.5069504 94.3475876 -25.5667038
-72.8182983 79.6872101 138.6682129
-73.8445511 79.6391449 139.3189697
-74.8704224 79.6066055 139.8459930
-75.9205170 79.5552216 140.3385925
-76.9681244 79.5291138 140.7242889
-78.0162964 79.5150146 141.0307312
-79.0865936 79.4969025 141.2806854
-80.1345520 79.4872818 141.4589081
-81.2176895 79.4929581 141.5544434
-82.2936172 79.4922333 141.5983582
-83.3758316 79.5023727 141.5680237
-84.4770508 79.5185852 141.4746246
-85.5815887 79.5477600 141.2908478
-86.6854477 79.5711823 141.0463562
-87.7918396 79.6042480 140.7269592
110.9966278 96.9198990 -44.3167496
76.2954254 94.9514923 -21.0492744
74.9818115 94.9405441 -20.8350277
73.6714478 94.9329834 -20.6559086
72.3835144 94.9295807 -20.5232525
71.0845184 94.9327011 -20.4337120
69.7852936 94.9358444 -20.3821449
54.4031982 95.2234955 -22.1685104
48.0452957 95.4839859 -24.3740692
46.7746925 95.5478134 -24.9382305
45.5083084 95.6150055 -25.5373592
44.2129669 95.6887131 -26.1714058
27.7193718 97.1440430 -40.0413361
26.4441299 97.3204956 -41.7805595
25.1588440 97.5157928 -43.7089043
-76.2165070 80.9008713 137.0290680
-77.2721863 80.8786926 137.4962769
-78.3155670 80.8684082 137.8246460
-79.3905182 80.8350601 138.1334991
-80.4381561 80.8359680 138.3475647
-81.5296860 80.8347092 138.4670105
-82.6140747 80.8497467 138.4600525
110.9982147 98.2122955 -44.3878860
71.0731354 96.1882477 -20.4166832
62.0673141 96.2811890 -20.6667042
60.7808990 96.3107300 -20.8441277
59.4825592 96.3419189 -21.0430679
58.2342453 96.3662338 -21.2567139
56.9502106 96.4037933 -21.5166264
55.6672325 96.4472656 -21.8264923
54.3918076 96.4902725 -22.1628952
42.9621964 97.0360184 -26.8522625
41.6915817 97.1170349 -27.6013832
40.4137497 97.2078323 -28.4073658
39.1477280 97.2979813 -29.2460766
32.7969704 97.8523483 -34.4231987
31.5406876 97.9841461 -35.6832085
30.2459679 98.1316986 -37.0842514
28.9878330 98.2813721 -38.5314941
27.7087402 98.4474716 -40.1306992
26.4448681 98.6258469 -41.8630600
25.1681957 98.8240814 -43.7981491
111.0101013 99.5146027 -44.5489960
71.0702972 97.4499359 -20.4350204
67.1910172 97.4757233 -20.3672180
65.9049377 97.4860001 -20.3789902
62.0523834 97.5455399 -20.6832142
60.7968292 97.5669098 -20.8443203
59.4969101 97.6014328 -21.0482483
58.2124176 97.6374207 -21.2839375
56.9372635 97.6755447 -21.5562477
55.6740723 97.7115250 -21.8585815
54.4048195 97.7539597 -22.1884193
42.9631653 98.3131866 -26.9060783
41.6891251 98.3978271 -27.6637077
40.4277382 98.4876175 -28.4631138
39.1435471 98.5832214 -29.3208637
37.8909607 98.6804199 -30.2086258
36.6115723 98.7891312 -31.1965675
35.3423080 98.9008484 -32.2334518
34.0725594 99.0193481 -33.3329468
32.7918587 99.1491241 -34.5304565
31.5254669 99.2846069 -35.8054581
30.2481041 99.4311218 -37.1817551
28.9899120 99.5841217 -38.6398430
27.6885300 99.7593155 -40.2849350
26.4407501 99.9381332 -42.0104141
25.1664162 100.1423798 -43.9730492
23.8700218 100.3708267 -46.1411362
111.0342941 100.8259048 -44.8068390
71.0789490 98.7134552 -20.4760342
69.7747726 98.7155228 -20.4172459
68.4895172 98.7280731 -20.4048672
67.2026978 98.7334061 -20.3926849
65.9145432 98.7472687 -20.4240856
64.6177597 98.7728271 -20.5132256
63.3374519 98.7868881 -20.6177940
62.0498657 98.8172531 -20.7439022
25.1615181 101.4679565 -44.2186470
23.8700542 101.7024994 -46.3964310
111.0597382 102.1455460 -45.1271286
71.0679169 99.9781723 -20.5570812
69.7884827 99.9865570 -20.5153942
68.4973145 99.9945831 -20.4826851
67.2086258 99.9994354 -20.4655380
