85.3674850 111.6936340 -14.2612658
84.0426331 111.6597290 -13.8554792
80.1391449 111.5926208 -12.9400749
78.8257294 111.5799408 -12.7129450
74.9497223 111.5578766 -12.1899223
73.6688690 111.5606537 -12.0984259
72.3740158 111.5650253 -12.0272083
71.0957031 111.5704575 -11.9731417
69.8088379 111.5830688 -11.9566059
68.5542450 111.5987473 -11.9890938
60.9048615 111.7782440 -12.8656435
59.6533775 111.8181381 -13.1029167
58.3674049 111.8644104 -13.3874731
49.5683746 112.2980499 -16.3643360
-59.6181793 94.1504288 149.0644989
-60.6001282 94.0225983 150.2604370
-61.5994301 93.9170303 151.3159943
-62.5838623 93.8203888 152.2565613
-63.5908089 93.7358093 153.1186066
-87.6470947 93.4342957 157.7752228
-88.7449188 93.4807739 157.4172974
-89.8708420 93.5452576 156.9766388
-90.9801865 93.6186905 156.4752502
-92.1150589 93.6919250 155.9069977
-93.2571793 93.7809753 155.2480011
-94.4192505 93.8836670 154.5077667
113.3524933 115.1809616 -35.7319260
111.7888412 114.9176636 -33.3583374
85.3606567 112.9315948 -14.1814995
84.0427856 112.8992538 -13.7854652
82.7358246 112.8715820 -13.4359245
81.4246063 112.8507996 -13.1384077
80.1354752 112.8326111 -12.8786755
76.2491455 112.8034744 -12.2593603
74.9381561 112.7946625 -12.1150370
73.6552353 112.7965546 -12.0233707
72.3724213 112.8036346 -11.9573879
71.0989380 112.8105240 -11.9060135
69.7995529 112.8207092 -11.8917332
68.5459900 112.8380585 -11.9249916
67.2631607 112.8607712 -12.0018291
65.9890289 112.8867493 -12.1047983
64.7162628 112.9106674 -12.2135830
63.4320068 112.9427032 -12.3689747
62.1610870 112.9802094 -12.5722675
60.9161911 113.0157471 -12.7754335
59.6496124 113.0587692 -13.0226021
58.3752289 113.1042709 -13.3067017
49.5515938 113.5503693 -16.3198318
48.3017654 113.6305847 -16.9016819
47.0300446 113.7161713 -17.5138969
-61.7884064 95.2294617 148.9309235
-62.7620468 95.1114426 150.0178223
-63.7713432 95.0081482 151.0044250
-87.8613815 94.6797714 155.9188690
-88.9699554 94.7411041 155.4996033
-90.1007538 94.8176117 154.9889221
-91.2186890 94.8897476 154.4282379
-92.3651810 94.9743500 153.7825470
113.3533707 116.4589005 -35.7695274
111.7923584 116.1901932 -33.3768768
80.1153641 114.0712585 -12.8235455
71.0931168 114.0517044 -11.8722706
67.2603683 114.0995178 -11.9435024
59.6475067 114.3018799 -12.9709501
58.3608322 114.3523865 -13.2688541
47.0209274 114.9722443 -17.4874477
45.7785378 115.0646362 -18.1517086
44.5058556 115.1641235 -18.8717766
30.6667976 116.7447815 -30.9217453
29.4026947 116.9557114 -32.5854568
28.1670189 117.1799088 -34.3708305
26.8864727 117.4322510 -36.3532066
-63.9819565 96.3339081 148.4704437
-64.9599380 96.2301407 149.4668579
-65.9617157 96.1484680 150.3214722
-66.9699173 96.0700226 151.0992737
-67.9803848 95.9938736 151.8083038
-68.9800949 95.9401169 152.4131165
-70.0046692 95.8733139 153.0009003
-81.5196686 95.7166595 155.3153076
-82.6071014 95.7407150 155.2107544
-83.6872025 95.7673874 155.0524292
-84.7866058 95.8156433 154.8094482
-85.8690033 95.8538513 154.5423889
-86.9819641 95.9137192 154.1789856
-88.0968170 95.9739075 153.7645569
-89.2186127 96.0389252 153.2794189
113.3443298 117.7404327 -35.8453369
111.7812958 117.4662094 -33.4336891
80.1229401 115.3162384 -12.8010826
78.8011322 115.2984695 -12.5512238
77.5337830 115.2910690 -12.3555279
71.0809021 115.2990799 -11.8645496
67.2347794 115.3453979 -11.9250946
59.6394196 115.5507278 -12.9634686
58.3651886 115.6011658 -13.2654638
47.0258255 116.2299118 -17.4964714
45.7738686 116.3271332 -18.1738930
44.5028229 116.4289246 -18.9036732
43.2474823 116.5356140 -19.6441479
41.9784355 116.6651077 -20.4392128
39.4689636 116.8946762 -22.3055611
38.2129173 117.0265579 -23.2830467
34.4662437 117.4739304 -26.7049751
33.1770325 117.6532593 -28.0563202
31.9446983 117.8323364 -29.4466877
30.6714878 118.0349121 -31.0058594
29.4036522 118.2518311 -32.6910248
28.1629810 118.4810944 -34.4950371
26.8754845 118.7409363 -36.4997787
-65.2073212 97.6035004 146.4833221
-66.2080307 97.4947205 147.5498352
-67.1982117 97.4208221 148.4379578
-68.2009583 97.3308258 149.2617188
-69.2023315 97.2583771 149.9851379
-70.2134247 97.1919937 150.6234436
-81.7526932 97.0203094 153.0948181
-82.8452225 97.0522842 152.9420471
-83.9250565 97.0841370 152.7448578
-85.0360641 97.1325150 152.4773865
-86.1344070 97.1844864 152.1423492
-87.2468491 97.2357330 151.7093506
113.3676605 119.0364075 -36.0350266
111.8054962 118.7571106 -33.6066933
77.5250702 116.5372238 -12.3743181
76.2115173 116.5283661 -12.2037897
71.0844650 116.5447998 -11.8752327
67.2353821 116.5973969 -11.9537401
65.9808121 116.6208572 -12.0704165
63.4271507 116.6917953 -12.3724422
62.1644287 116.7201309 -12.5244923
60.8923035 116.7609406 -12.7427053
39.4860497 118.1650467 -22.3675327
38.2223740 118.3025436 -23.3756218
36.9698296 118.4464722 -24.4444675
35.7037582 118.6008148 -25.6000748
34.4504929 118.7650986 -26.8297672
33.1786613 118.9431152 -28.1691036
29.4036312 119.5541763 -32.8430824
28.1519585 119.7913589 -34.6755524
-69.4656906 98.6494370 146.9585114
-70.4805069 98.5578003 147.7098389
-71.5003204 98.5023880 148.3341522
-72.5112152 98.4478607 148.8979797
-73.5480347 98.4042740 149.3747406
-74.5840607 98.3776398 149.7559814
-75.6398239 98.3595276 150.0628662
-76.6846924 98.3438263 150.2903900
-77.7360306 98.3306580 150.4613800
-78.7990112 98.3260727 150.5735474
-79.8709030 98.3366241 150.6020355
-80.9538803 98.3560867 150.5549316
-82.0239258 98.3665771 150.4535370
-83.1215439 98.3959351 150.2608643
113.4113770 120.3456573 -36.3089561
111.8246765 120.0541153 -33.8236504
77.5242538 117.7875671 -12.4225569
76.2205429 117.7808838 -12.2547359
74.9318466 117.7793198 -12.1284637
73.6613083 117.7845001 -12.0372562
72.3671875 117.7840576 -11.9607344
71.0948029 117.7945938 -11.9122972
67.2374268 117.8489914 -11.9953260
62.1568298 117.9750595 -12.5658312
60.8880501 118.0155182 -12.7985268
39.4871140 119.4452438 -22.4734478
38.2257538 119.5863647 -23.4956322
36.9669189 119.7348404 -24.5795078
35.7082253 119.8897705 -25.7400246
34.4615898 120.0556030 -26.9735603
33.1913300 120.2365265 -28.3172035
29.4183578 120.8611984 -33.0420570
28.1492081 121.1102905 -34.9227219
-70.7847595 100.1319351 143.8104248
-71.7624054 100.0155640 144.7437286
-72.8314743 99.9478302 145.3365784
-73.8698425 99.8485031 145.9127502
-76.9886017 99.7601471 147.0480499
-78.0552216 99.7400360 147.2576294
-79.1190186 99.7458038 147.3460693
113.4427567 121.6572952 -36.6014175
111.8379974 121.3550797 -34.0857468
67.2465591 119.1037598 -12.0536137
60.8905334 119.2793884 -12.8891201
29.4136219 122.1816635 -33.3330536
28.1644096 122.4322052 -35.2233696
113.5129852 122.9931335 -37.0511780
111.8904648 122.6775513 -34.4823608
67.2515869 120.3653183 -12.1633587
60.9034195 120.5408096 -13.0128345
29.4185123 123.5089035 -33.6695328
28.1679764 123.7669449 -35.5956802
111.9349823 124.0028458 -34.9095650
110.3666000 123.7213287 -32.5996056
108.8765640 123.4934540 -30.6363106
67.2534866 121.6320648 -12.3314171
60.9053421 121.8093185 -13.1634207
31.9501019 124.3761826 -30.6145668
30.6813316 124.6013718 -32.2713585
29.4331627 124.8418655 -34.0585442
112.0068588 125.3491287 -35.4518242
110.4298477 125.0581665 -33.1036491
108.9136887 124.8121490 -31.0550880
67.2584534 122.9046936 -12.5149508
60.9141617 123.0795898 -13.3349352
31.9604378 125.7042313 -31.0079269
30.6918182 125.9369125 -32.7019157
29.4295082 126.1928864 -34.5574417
28.1534214 126.4778137 -36.5716858
110.4914017 126.3994446 -33.6761932
108.9649658 126.1448288 -31.5543919
67.2642365 124.1810303 -12.7404337
66.0154343 124.2028122 -12.8442926
64.7248993 124.2354965 -12.9737482
63.4481049 124.2766724 -13.1360683
62.1899300 124.3127289 -13.3234940
60.9200134 124.3643188 -13.5518618
31.9740829 127.0440063 -31.4658928
30.6971130 127.2881165 -33.2106323
112.1653214 128.0840302 -36.8227844
110.5479279 127.7527161 -34.3176994
109.0215302 127.4869308 -32.1260834
67.2753067 125.4607315 -12.9858351
66.0081558 125.4897308 -13.0867443
64.7347565 125.5189743 -13.2211475
63.4550362 125.5653076 -13.3888979
62.2047539 125.5974579 -13.5671053
60.9328995 125.6441040 -13.8015089
31.9716854 128.4016571 -32.0194550
30.7126122 128.6450348 -33.7789688
110.6266327 129.1258087 -35.0778732
109.0857391 128.8378906 -32.7920761
31.9928322 129.7596893 -32.6086388
30.7436981 130.0133362 -34.4153519
29.4437256 130.3180847 -36.4560928
110.7206573 130.5156250 -35.9219627
109.1560745 130.2129669 -33.5672150
32.0207558 131.1263428 -33.2726173
30.7537537 131.4027710 -35.1719284
109.2533569 131.6074066 -34.4755211
34.5241890 132.0411835 -30.7380829
33.2578087 132.2774353 -32.3515053
32.0296783 132.5240631 -34.0772934
109.3614807 133.0136414 -35.4690170
34.5594482 133.4125671 -31.4591503
33.2868500 133.6668396 -33.1529388
32.0608673 133.9256439 -34.9359703
109.5070877 134.4608612 -36.6034012
107.9128571 134.1257324 -34.2157402
106.3871231 133.8561096 -32.1111984
34.5840912 134.8112488 -32.2959175
33.3084793 135.0784912 -34.0697098
108.0404892 135.5662842 -35.4011650
106.4817734 135.2676239 -33.1639786
34.5917587 136.2291870 -33.2621384
33.3317528 136.5043030 -35.0929031
108.2069397 137.0505524 -36.7656364
106.6009216 136.7067719 -34.3648949
105.0913696 136.4354706 -32.3023300
103.6239624 136.2141113 -30.5340347
37.1346703 137.1653748 -31.0331039
35.8801727 137.4005737 -32.5852814
34.6365509 137.6538239 -34.2901688
33.3921852 137.9429321 -36.2198219
106.7492523 138.1774750 -35.7181015
105.1952286 137.8656921 -33.4914246
103.7235031 137.6293640 -31.6216526
37.1770096 138.5823975 -32.0254669
35.9065895 138.8415833 -33.6821861
34.6753349 139.1089172 -35.4577713
103.8345642 139.0725403 -32.8431435
39.7048187 139.5664368 -30.2064171
38.4488716 139.7899475 -31.6185112
37.2121773 140.0238037 -33.1448021
35.9446640 140.2969666 -34.8811264
103.9582901 140.5401764 -34.2507477
39.7370987 141.0065765 -31.3077431
38.4838791 141.2411804 -32.7885208
37.2478027 141.4877319 -34.3963318
104.1264648 142.0538940 -35.8565521
102.6344757 141.7700195 -33.8363953
101.1454926 141.5271606 -32.0040627
39.7763367 142.4614868 -32.5261421
102.7969894 143.2892151 -35.5173264
101.2636642 142.9988098 -33.4750404
39.8220100 143.9524078 -33.9039345
103.0137558 144.8780823 -37.4736252
101.4307480 144.5234833 -35.2298470
99.9496994 144.2778015 -33.3655396
98.4915695 144.0605469 -31.7246323
86.0278168 142.9270630 -23.0476093
84.6889572 142.8730316 -22.5020027
83.3572845 142.8162689 -21.9967918
82.0244598 142.7675171 -21.5629177
80.7177124 142.7350616 -21.2055492
79.3811951 142.6932373 -20.8612900
42.3772202 144.9617310 -32.3630714
41.1362076 145.1928406 -33.8162880
39.8789444 145.4692535 -35.4411583
101.6607895 146.1410675 -37.2308273
100.1351013 145.8329163 -35.1738968
98.6315002 145.5709686 -33.3605576
86.1138000 144.3518066 -24.1141548
84.7747040 144.2781372 -23.5304222
80.7869873 144.1330261 -22.1965237
79.4524078 144.0927429 -21.8354912
42.4257431 146.4829254 -33.9028511
41.1845703 146.7342987 -35.4525032
98.8284912 147.1337891 -35.2494354
97.3452530 146.8764496 -33.5055428
95.9266205 146.6830139 -32.0281982
86.2091522 145.7887268 -25.2940674
84.8625717 145.7065735 -24.7202797
79.5369568 145.5273438 -22.9107246
47.4996185 147.1413422 -30.3541412
46.2584801 147.3300629 -31.4657269
45.0027466 147.5331573 -32.6923828
43.7519646 147.7652588 -34.0649452
42.4992676 148.0158844 -35.5927963
97.5389557 148.4643860 -35.5115662
96.0811920 148.2216187 -33.8587494
86.3086548 147.2531586 -26.5895500
84.9543762 147.1552429 -25.9555511
80.9469452 146.9992065 -24.4472122
79.6114731 146.9625244 -24.0605087
47.5573044 148.6517487 -31.8816185
46.3120766 148.8586426 -33.0854683
45.0615311 149.0852661 -34.4197159
43.8243256 149.3296356 -35.8880615
97.7909164 150.1466675 -37.9282722
96.2743988 149.8296204 -36.0458908
94.7962265 149.5964508 -34.3770599
93.3764954 149.4062958 -32.9622498
86.4254532 148.7432861 -28.0192375
85.0791779 148.6555328 -27.3349533
83.7347946 148.5647583 -26.7083359
82.3773193 148.5096436 -26.1798611
81.0493698 148.4694519 -25.7346802
79.7084427 148.4176483 -25.3193054
50.1535149 149.8018036 -31.3256950
48.9019547 149.9909058 -32.3955307
47.6272316 150.2079315 -33.6205864
46.3919983 150.4184265 -34.9106560
96.5342178 151.5426331 -38.6359444
95.0011139 151.2231140 -36.6912613
93.5624924 151.0038605 -35.1025772
86.5593109 150.2618713 -29.6221085
85.2006378 150.1620789 -28.8687401
83.8510895 150.0779724 -28.2101154
82.4855347 150.0190887 -27.6467590
81.1553650 149.9512482 -27.1500912
79.8122330 149.9014282 -26.7227554
50.2340240 151.3614197 -33.0938454
48.9793015 151.5554504 -34.2465363
47.7105331 151.7954102 -35.5906677
46.4823380 152.0348053 -37.0082855
93.7911072 152.7019043 -37.5964966
92.3079529 152.4211426 -35.9771309
90.9070358 152.2348938 -34.6051254
89.4827728 152.0710449 -33.3743286
88.0928040 151.9479218 -32.3540154
52.8325882 152.5769348 -32.9556389
51.5685120 152.7665100 -33.9915733
50.3270264 152.9570007 -35.1094475
49.0870018 153.1710510 -36.3687096
91.1262360 153.9059753 -37.1597290
89.6735229 153.7018585 -35.7324829
88.2519302 153.5354004 -34.5153542
52.9320335 154.1920471 -35.0651016
51.6869583 154.3879395 -36.1967010
50.4441757 154.6140900 -37.4587746
89.9315262 155.4653320 -38.5818939
88.4812469 155.2430420 -37.1808014
87.0669403 155.0642242 -35.9623604
85.6686020 154.9119720 -34.8786736
84.3015671 154.8053436 -34.0028381
82.9182053 154.7149658 -33.2517319
81.5705872 154.6333466 -32.6038971
80.1984253 154.5434418 -31.9995117
58.1061783 155.1807098 -33.7241440
56.8293991 155.3243408 -34.5004272
55.5696449 155.4889679 -35.3937302
54.3144836 155.6579895 -36.3883667
53.0625000 155.8723145 -37.5454216
51.8118782 156.1229553 -38.8393021
87.3321762 156.8668976 -38.9773750
85.8875275 156.6233368 -37.6983109
84.4991150 156.4780884 -36.6302414
83.0970688 156.3597412 -35.7264061
81.7385178 156.2645416 -34.9790573
80.3771973 156.1833038 -34.3153076
58.2310944 156.8536072 -36.1419907
56.9591789 157.0105591 -37.0385742
55.7114677 157.1879730 -38.0350342
84.7782669 158.3354492 -39.9612465
80.5756302 157.8929443 -37.0846024
79.2435226 157.8213196 -36.4571762
77.8795700 157.7624207 -35.9096603
76.5340195 157.7235870 -35.4898872
75.2028732 157.7066040 -35.1892128
73.8876801 157.6792297 -34.9390869
72.5679855 157.6826782 -34.7952499
71.2412262 157.6935730 -34.7353477
69.9413376 157.7148590 -34.7620850
68.6305389 157.7637634 -34.8957748
67.3509674 157.8052979 -35.0658035
66.0492554 157.8745422 -35.3496895
64.7491760 157.9561310 -35.7239990
63.4797478 158.0501404 -36.1833725
62.1939697 158.1608887 -36.7431641
60.9236412 158.2918243 -37.3848038
59.6457634 158.4485779 -38.1697578
58.3976898 158.5880585 -39.0417137
80.8685913 159.8126373 -40.6721954
79.5037384 159.6431274 -39.8279381
78.1210403 159.5642548 -39.1590042
76.7621384 159.5029144 -38.6272011
75.4216003 159.4540405 -38.2180748
74.0957642 159.4302368 -37.9097404
72.7702637 159.4268646 -37.7213364
71.4385071 159.4412384 -37.6651192
70.1335068 159.4482880 -37.6892166
68.8171463 159.5033875 -37.8305626
67.5349655 159.5512085 -38.0135765
66.2299957 159.6345978 -38.3503494
64.9430313 159.7277832 -38.7759285
63.6670227 159.8375092 -39.3097305
75.7326050 161.4495850 -42.2765999
74.3696747 161.3320770 -41.8152924
73.0338211 161.3111267 -41.5711365
67.7793045 161.5040588 -41.8260689
149.8096619 -150.6592407 55.6124306
149.3068237 -150.5273590 56.3205376
149.7464752 -150.0230865 55.9369316
-77.9117737 2.8062937 137.8159027
-78.4412079 2.8066089 137.9365997
-78.9824524 2.8129888 138.0146942
-79.5119400 2.8301268 138.0365753
-82.2686005 2.8052950 137.8127289
-82.8292923 2.7863085 137.6490021
-83.3944702 2.7940581 137.4573822
-73.4984207 3.3674984 138.4982147
-79.2639923 3.4538689 140.5489197
-83.6308975 3.4029472 140.0513458
-70.7331314 3.9163888 138.8585968
-71.2395401 3.9350636 139.3581390
-71.7424240 3.9513779 139.7879486
-72.2420883 3.9629762 140.1318054
-72.7527924 3.9839382 140.4344025
-73.2792969 4.0045133 140.7586365
-79.0381317 3.9844139 142.5553741
-79.5736160 3.9762099 142.6103210
-80.1066666 3.9828510 142.6390839
-80.6681442 3.9874959 142.6154480
-83.4031448 3.9848897 142.2463684
-69.0677109 4.4709711 139.6922302
-85.9951706 4.4850016 143.2611237
-64.9417877 4.9837251 136.5724487
-65.4442978 5.0093694 137.3854675
-65.9405899 5.0523238 138.1864471
-68.3411713 5.0835400 141.1846924
-68.8654175 5.0863109 141.6222534
-84.1206284 5.0283008 145.4499817
-84.6794968 5.0269189 145.3092346
-85.2388840 5.0210404 145.1262665
-85.7977448 5.0264583 144.9444885
-63.7934227 5.5242333 137.3928986
-63.1437492 6.0944223 138.8205872
-63.6302719 6.1300473 139.5483246
-88.2963181 6.0675335 146.8491821
-88.8638306 6.0677156 146.5885315
-89.4315491 6.0708861 146.3029480
-90.0296936 6.0501957 145.9628296
-90.6223221 6.0164509 145.6180420
-91.1813583 6.0015969 145.2909698
-91.7715073 5.9832735 144.8899231
-92.3855743 5.9595265 144.4185944
-62.3747749 6.7440929 140.2614899
-92.7574692 6.5226212 145.4982758
-61.3728752 7.1504068 140.4049683
-61.8655586 7.1930442 141.1525879
-62.3530235 7.2147131 141.8287659
-92.5890427 7.1131043 147.0757446
-60.2651825 7.6787448 140.6080627
-59.6661301 8.2405624 141.5057526
-60.1565895 8.2633381 142.2268219
-94.6215286 8.1615515 148.1575470
-95.2138672 8.1085138 147.7075653
-95.8307800 8.0595675 147.2325439
-57.4993706 9.2858782 141.4568939
-57.9922371 9.3208637 142.2859650
-55.8474846 10.3592091 141.8834229
-97.6291733 10.1863003 150.2312622
-98.2009735 10.1841536 149.7892914
-98.8046951 10.1680470 149.2781219
-99.4362640 10.1452398 148.7154541
-55.7564392 10.8999176 143.2266541
-53.7402496 11.4033203 141.1880493
-54.2398949 11.4274311 142.1331329
-54.7192802 11.4346867 142.9796906
-55.1843109 11.4314804 143.7296600
-55.6691513 11.4369736 144.4990387
-99.7383118 11.2184896 150.4679565
-100.3552094 11.1898136 149.9384460
-53.6475716 11.9439783 142.4872131
-100.6634598 12.2630892 151.5456543
-101.2895737 12.2317333 151.0207977
-53.4063835 13.5061893 146.0662384
-101.6549530 13.2932825 152.4312897
-52.8619537 14.0284615 146.4031067
-53.3426743 14.0293674 147.0579529
-102.7545395 13.7885876 152.2825012
-51.2827568 14.5584841 145.0276489
-51.7466774 14.5794477 145.8404999
-52.2543602 14.5819254 146.6495514
-52.7877579 14.5667343 147.3597412
-53.2738304 14.5627403 148.0182037
-102.6014557 14.3428602 153.2098999
-103.2066345 14.3232536 152.6870575
-104.8311996 15.3507442 152.7292023
-50.1699524 16.1422558 146.4068146
-104.7057495 15.8868237 153.5804291
-49.6232719 16.6521435 146.5318909
-50.1078911 16.6532383 147.2944183
-104.5865097 16.4130039 154.4016418
-105.2226181 16.3910294 153.8339233
-49.0679054 17.1564922 146.6076202
-105.7232132 16.9029312 154.0831146
-105.6048584 17.4355125 154.8677216
-48.9924698 18.2069054 148.3663330
-45.5247879 18.7620621 142.8743439
-46.0092354 18.7670670 143.9161377
-46.4966583 18.7603073 144.9197845
-46.9724236 18.7456741 145.8404694
-47.4543610 18.7341633 146.7242126
-47.9315987 18.7226810 147.5430298
-48.4411888 18.7216148 148.3711090
-48.9377022 18.7137604 149.1140137
-106.6110916 18.5074139 155.1445923
-44.0225716 19.8068523 141.4649200
-44.4888191 19.8365097 142.7026062
-44.9710808 19.8271637 143.8126068
-43.9630699 20.3666534 142.6154327
-43.8919830 20.8821983 143.5669403
-43.8534470 21.3743458 144.4800415
-108.6098557 21.0399094 156.3784485
-43.8141518 21.8897285 145.3605957
-108.5413284 21.5549774 156.9768372
-109.1515045 21.5499439 156.4085083
-109.6924210 22.0633240 156.4183350
-109.5760269 22.5875664 157.0501404
-110.2308350 22.5719528 156.4238129
-109.4857101 23.1040096 157.6474152
-109.4113770 23.6123066 158.2136841
-110.0557404 23.6058254 157.6142273
-110.6234360 24.1198215 157.5404053
-110.5181885 24.6448708 158.1043243
-111.1549072 24.6439190 157.4668121
-111.7847443 24.6457939 156.8325653
-40.6335297 25.5462132 144.4873657
-111.6833496 25.1629429 157.3968353
-112.3378448 25.1543179 156.7359314
-111.5869904 25.6824398 157.9605408
-40.5490532 26.5618191 145.8506165
-40.5160179 27.0711231 146.4997406
-112.7066422 26.6931152 157.7460938
-112.5668564 27.7195206 158.7220917
-113.2215042 27.7163849 158.0775757
-39.4690971 28.6282845 146.3814545
-112.4837036 28.2350693 159.2005157
-39.4408951 29.1364765 146.9519348
-112.4254456 28.7427368 159.6425629
-113.0746613 28.7456093 159.0045166
-38.9005089 29.6527538 146.4833374
-39.4151688 29.6422920 147.5106506
-113.6256409 29.2667427 158.8204041
-114.2729263 29.2694111 158.1668396
-39.3924103 30.1496868 148.0614624
-113.5426102 29.7823372 159.2733459
-39.3542404 30.6500378 148.5496063
-39.3287010 31.1499195 149.0411224
-114.6439590 31.3187637 159.2480011
-39.2669716 32.6670151 150.3833313
-114.5103607 32.3377914 160.0279236
-115.1985016 32.3450165 159.3361969
-38.2078400 33.2390747 148.8899689
-38.7352638 33.1917305 149.8567200
-39.2617569 33.1742592 150.8075104
-114.4321060 32.8496246 160.4096222
-37.2382164 33.7925110 147.3634033
-37.2505188 34.2984810 147.7958069
-69.6900940 33.9344215 174.3003845
-70.1947479 33.9290695 174.4116058
-70.7218781 33.9237709 174.5167084
-71.2437515 33.9214630 174.6164398
-114.2982407 34.3658981 161.4145203
-35.7457771 35.4139442 145.2943726
-36.2520905 35.3829269 146.4759979
-69.6709976 34.4311142 174.4971313
-114.2679291 34.8725052 161.7215424
-114.9191208 34.8819008 161.0864868
-115.5708237 34.8914948 160.4470062
-69.6524506 34.9314537 174.6902008
-72.2266693 34.9062958 175.1855927
-35.2613869 36.4699478 145.0095215
-69.6499405 35.4138832 174.8723907
-72.2086792 35.4066391 175.3680725
-79.9112549 35.8789330 176.2517395
-80.4229050 35.8768997 176.2571411
-80.9394684 35.8742676 176.2551117
-81.4700012 35.8704529 176.2463531
-81.9976501 35.8692245 176.2344360
-82.5076675 35.8760681 176.2189484
-115.3969650 36.4203606 161.3721466
-116.0393372 36.4375534 160.7342834
-79.8843536 36.3670769 176.4286194
-115.3681564 36.9276657 161.6273651
-65.0406342 36.9473648 174.1124115
-83.5150604 36.8620224 176.5018616
-84.0338821 36.8692818 176.4610443
-84.5693512 36.8749695 176.4154510
-85.0992508 36.8755302 176.3636322
-85.6183929 36.8761368 176.3076782
-86.1529083 36.8764038 176.2452240
-86.6856461 36.8767281 176.1777496
-65.0279236 37.4430656 174.2800751
-86.6603088 37.3792381 176.3480377
-35.1760292 38.9962463 146.9207153
-62.5083122 37.9942932 173.4439087
-62.9912605 37.9832840 173.5719452
-66.0330505 37.9243279 174.7532043
-66.5377808 37.9220047 174.8984680
-67.0403824 37.9164734 175.0362396
-67.5495834 37.9115295 175.1718292
-68.0618210 37.9081993 175.3094482
-71.6164780 37.8731537 176.1031952
-72.1318893 37.8772049 176.1967468
-74.6892166 37.8631210 176.5648041
-75.2189255 37.8675041 176.6294861
-75.7282715 37.8543015 176.6790314
-76.7581711 37.8266754 176.7796478
-86.6380081 37.8758430 176.5061798
-115.2567902 38.4452133 162.3966064
-115.8586578 38.4684486 161.8036957
-35.1547279 39.5005531 147.2424622
-62.5090981 38.4932556 173.6130676
-67.5393524 38.4063187 175.3077240
-72.1113129 38.3684196 176.3499451
-86.6242294 38.3676453 176.6567993
-115.2178192 38.9499130 162.6477356
-35.1360092 40.0055389 147.5344086
-59.4636002 39.0169640 172.5369415
-59.9565086 39.0046768 172.7646637
-60.4548225 38.9940147 172.9879761
-60.9603424 38.9840317 173.2051697
-61.4802055 38.9829865 173.4182129
-71.5866928 38.8660278 176.4176178
-72.0914154 38.8605576 176.4993896
-72.6133041 38.8582458 176.5825195
-73.1354752 38.8567543 176.6617279
-73.6418533 38.8531761 176.7339325
-74.1537323 38.8554535 176.8059845
-116.4198608 39.5028076 161.6385345
-34.6308517 40.5507050 146.7455750
-35.1315079 40.5139160 147.8378296
-59.4534111 39.5130081 172.6874542
-116.3819885 40.0125885 161.8481598
-117.0232010 40.0375710 161.1630554
-117.6844177 40.0629425 160.4424133
-118.3543549 40.0889473 159.7075500
-59.4448929 40.0051804 172.8296661
-87.1208878 39.8563652 177.0047455
-87.6440430 39.8616142 176.9237213
-88.1503143 39.8699226 176.8450775
-88.6935349 39.8705864 176.7558289
-117.6376495 40.5740967 160.6726685
-59.4354820 40.5029755 172.9634247
-34.6066360 42.0742340 147.6013031
-35.1079254 42.0338211 148.6704712
-59.4255142 40.9983292 173.0843811
-59.9118309 40.9860344 173.3100891
-89.2157669 40.8642426 176.9313354
-89.7475510 40.8702583 176.8290710
-90.2846680 40.8739700 176.7205048
-90.8106384 40.8798904 176.6092224
-91.3274612 40.8903694 176.4955444
-91.8645630 40.8978043 176.3694153
-35.1049957 42.5385094 148.9173584
-59.4102097 41.4953384 173.1934662
-91.8785706 41.3897781 176.4830780
-34.0872841 43.1374168 146.9325562
-58.3816071 42.0081482 172.8258057
-58.8608780 41.9959717 173.0502167
-59.4208107 41.9970970 173.3118744
-91.8605881 41.8855820 176.6005859
-117.5116043 42.6043091 161.4680328
-118.1533508 42.6352959 160.7725525
-34.0922546 43.6472816 147.1646271
-91.8386459 42.3850594 176.7189484
-117.4838715 43.1114311 161.6564331
-34.0613251 44.1572151 147.3013306
-91.8305435 42.8799782 176.8332062
-117.4666290 43.6183014 161.8256226
-33.5675774 44.7167244 146.3809509
-34.1118622 44.6696396 147.6129761
-117.4297028 44.1261406 161.9947205
-118.0816879 44.1573563 161.2861633
-118.7260437 44.1893463 160.5775757
-92.8699265 43.8891258 176.7682800
-118.6986008 44.6999168 160.7244415
-57.3676491 44.5157433 172.8574982
-92.8609009 44.3871002 176.8511658
-118.6715317 45.2099533 160.8734283
-56.3545494 45.0379944 172.3979950
-56.8622932 45.0260201 172.6750641
-56.3553886 45.5356026 172.4906006
-91.7883606 45.3666267 177.2735443
-55.3553696 46.0597916 172.0229645
-91.7728195 45.8653526 177.3528595
-92.3074493 45.8722916 177.2190094
-92.8370590 45.8799477 177.0845032
-117.3475876 46.6669044 162.6235809
-117.9911499 46.7019157 161.9475861
-55.3438797 46.5576401 172.0985870
-92.8178711 46.3787346 177.1596832
-117.3427353 47.1759415 162.7209473
-34.0445633 48.2361069 148.6201782
-92.8320999 46.8763084 177.2202759
-34.0442429 48.7466354 148.7385559
-92.8304367 47.3743553 177.2817230
-34.0307770 49.2596092 148.8077545
-118.5807190 48.7829018 161.5667725
-119.2246704 48.8224449 160.8519287
-34.0161781 49.7732315 148.8581848
-55.3201942 48.5507660 172.3340607
-118.5734482 49.2939568 161.6381989
-34.0174026 50.2865067 148.9286652
-118.5866089 49.8066254 161.6819153
-34.0146370 50.8005943 148.9799347
-92.8132706 49.3692856 177.4663086
-118.5680313 50.3178596 161.7464905
-34.0136032 51.3150406 149.0235291
-53.8374443 50.0961761 171.5588074
-92.8105545 49.8689308 177.5014801
-118.5494461 50.8297234 161.8003387
-34.0176010 51.8296165 149.0635376
-53.8337975 50.5968132 171.5823517
-55.3239670 50.5508614 172.4701080
-92.7988968 50.3686371 177.5337067
-118.5641708 51.3442421 161.8099213
-34.0254974 52.3446541 149.0917664
-53.8340912 51.0978355 171.5988007
-55.3314171 51.0505791 172.4880066
-92.7952728 50.8682404 177.5566559
-118.5454559 51.8566742 161.8477783
-34.0346832 52.8606758 149.0944366
-52.3340302 51.6506157 170.6649780
-52.8324318 51.6331940 170.9897919
-53.3332253 51.6158829 171.3032837
-53.8349800 51.5991669 171.6081543
-92.7961273 51.3685532 177.5700989
-118.5602722 52.3721542 161.8412170
75.1331863 65.1294479 -55.5539970
-34.0497208 53.3781204 149.0769043
-92.2866135 51.8607712 177.7152710
-92.8099518 51.8701439 177.5746155
-118.5589676 52.8866692 161.8434601
77.6835327 65.6993484 -54.0534134
76.9994812 65.6605530 -53.6021767
76.2917786 65.6799393 -53.2147675
75.6074524 65.6992493 -52.9484253
74.9098663 65.7273865 -52.5836105
66.9206543 65.7035980 -52.1454811
63.6716537 65.7648315 -53.3767319
61.1207581 65.8782425 -55.4402199
-33.0328979 54.0376167 146.7022858
-33.5571976 53.9641075 147.9194641
-34.0417404 53.8994064 149.0151062
-92.8051987 52.3703346 177.5780487
-118.5709076 53.4032516 161.8232574
77.4784775 66.2132645 -51.3935242
63.5427475 66.3141632 -51.0001450
61.6028252 66.4175415 -52.0448456
58.3754158 66.4587631 -54.7650032
-33.0121040 54.5611534 146.6226044
-92.8082352 52.8725433 177.5740356
-118.5469513 53.9168472 161.8339691
82.2417221 66.8854218 -52.4931488
81.5271454 66.8593674 -51.8528900
80.8303680 66.8339005 -51.2893066
80.1236115 66.8199997 -50.7433815
78.0567093 66.7282486 -49.6023331
77.3783569 66.7584000 -49.2980423
63.4206619 66.8182526 -49.0224380
62.7741089 66.8187637 -49.3312378
62.1417351 66.8562546 -49.6165504
61.4934921 66.9210510 -49.8923073
58.2738266 67.0552444 -52.2393265
57.6612701 67.0029449 -53.0538826
-33.0482826 55.0734711 146.6812897
-92.8150330 53.3747864 177.5641937
-118.5588455 54.4337807 161.7979431
83.4764404 67.4842148 -51.4204559
82.7868042 67.4797363 -50.8027000
55.6667480 67.6541290 -52.7712402
-34.0401688 55.4558220 148.9336395
-118.5874176 54.9534721 161.7357178
84.0485535 68.0825958 -49.7491760
83.3324661 68.0566788 -49.2623940
82.6142883 68.0408478 -48.6934471
55.5119972 68.2384796 -50.3886986
54.8587494 68.2119827 -50.9748573
-34.0446320 55.9758682 148.8817444
-91.2116241 54.3452606 177.9225464
-91.7584229 54.3561516 177.7926331
-118.5743866 55.4691734 161.7118073
-34.0329514 56.5017166 148.7663727
-56.3384895 55.0331459 173.0129700
-91.2365112 54.8510017 177.8976898
-91.7704391 54.8601875 177.7705078
-118.6021347 55.9896622 161.6378632
88.7808380 69.3889847 -50.9743881
88.0124207 69.3895569 -49.9955711
87.2739029 69.3548050 -49.1624641
86.5634689 69.3066254 -48.4528427
52.8148727 69.4283829 -49.2184067
52.1580048 69.4646301 -49.9336815
51.5294342 69.5010757 -50.7038269
-34.0611153 57.0205307 148.7133179
-56.3457642 55.5365448 172.9853821
-91.7710571 55.3623238 177.7472534
-118.6214676 56.5097389 161.5693054
51.4743004 70.1136627 -48.9478989
-34.0818481 57.5414276 148.6261139
-91.7788315 55.8646660 177.7161713
-117.3642349 56.9312782 162.8828583
89.1703262 70.5304489 -47.7817230
51.4105644 70.6744537 -47.3664970
-34.0710258 58.0700760 148.4480896
-91.7862854 56.3683128 177.6772156
-117.3837204 57.4522324 162.8018951
51.3362885 71.2133636 -45.9110413
-90.7114105 56.8522949 177.8812408
-117.4013596 57.9736824 162.7080536
51.2770500 71.7653427 -44.5575752
50.6758766 71.8189468 -45.0605202
50.0316086 71.8604202 -45.7056541
49.3943672 71.9128113 -46.3881760
48.7182159 71.9395752 -47.1844978
48.0996971 71.9747238 -47.8805161
47.4535561 71.9964218 -48.7027168
-90.7185364 57.3545761 177.8303223
-117.4071274 58.4923706 162.6144714
88.7615433 72.1483383 -43.1153297
-33.5655556 59.7375870 146.8407745
-34.0847359 59.6529388 148.0316162
-57.9000397 58.0078049 173.5297241
-106.6716537 58.3596039 171.4266052
-109.5731354 58.5047989 169.4974670
90.8832092 72.8162689 -43.6720467
90.1521301 72.8188934 -43.0055885
89.4068604 72.7791443 -42.3836288
88.6931763 72.7194290 -41.8797607
-57.8994751 58.5107994 173.4968567
-59.4101791 58.4688072 174.2195129
-89.6731186 58.3412704 177.9430084
-106.6906433 58.8741837 171.3466339
-109.5802002 59.0176315 169.4128571
44.7590675 73.8984833 -47.6396790
-57.8939285 59.0173264 173.4333649
-59.4013672 58.9777603 174.1615448
-59.8964996 58.9621925 174.4039764
-106.7038498 59.3872528 171.2602234
-117.4955597 60.0649796 162.2060547
-118.1323929 60.1181145 161.5142059
95.7172546 74.2819519 -46.6547852
44.7286797 74.4583282 -46.3675194
-56.3953323 59.5745544 172.5733185
-56.9141045 59.5567169 172.8551483
-57.4174309 59.5385361 173.1176605
-57.8786316 59.5334015 173.3466034
-59.4159508 59.4799461 174.0999603
-106.7118759 59.8986511 171.1683807
-107.2894897 59.9277573 170.8058014
-107.8505402 59.9545250 170.4413605
-108.4312057 59.9848595 170.0489044
-34.1227455 61.7759819 147.3215485
-59.4300804 59.9827461 174.0302124
98.4997330 75.6234131 -47.8942528
97.6999893 75.5728149 -46.6931419
96.9148712 75.5238113 -45.5802307
43.3472214 75.7217331 -45.4314232
42.7195244 75.7683487 -46.2535324
-34.1024704 62.3198204 147.0201263
-59.4189873 60.4962273 173.9380951
-66.9585800 60.3241768 176.6884613
-67.3929443 60.3559036 176.3591766
-87.6090698 60.3343811 178.0235901
-117.5588303 61.6390800 161.7689362
42.0435333 76.3932648 -45.8861122
-34.1072655 62.8598213 146.7659760
-34.6556969 62.7579155 148.0315552
-35.1327705 62.6826439 149.0954742
-66.9900970 60.8321877 176.6419373
-67.4352417 60.8488503 176.3254547
-74.1077652 60.7626610 178.1018829
-75.6540527 60.7587395 178.2965546
-117.5983658 62.1704063 161.5814667
99.7389374 76.8675003 -47.1085739
42.0328064 77.0030746 -44.7177505
41.4008827 77.0467072 -45.5534973
-35.1426773 63.2143326 148.8751831
-61.4394951 61.4598885 174.6513214
-70.5593567 61.2922401 177.4111176
-71.0570297 61.2930756 177.5066528
-72.5971451 61.2728043 177.7861786
-73.1100845 61.2734070 177.8676605
-73.6167679 61.2712936 177.9396820
-74.1193390 61.2635345 178.0077820
-75.6613541 61.2608604 178.1986694
-117.6402359 62.7032051 161.3921661
99.5595398 77.4414978 -45.5581627
40.7232819 77.7029648 -45.3682251
-35.1661949 63.7442017 148.6511536
-62.4555511 61.9426079 174.9619446
-65.4935455 61.8706284 176.0126190
-66.0059586 61.8601570 176.1883087
-70.5665359 61.8010445 177.3272095
-71.0718689 61.7972298 177.4255524
-71.5814514 61.7852974 177.5223999
-72.0771408 61.7854500 177.6127014
-72.5979156 61.7770042 177.7014618
-73.1195831 61.7745361 177.7775421
-75.6716537 61.7678833 178.1004028
-79.8064728 61.7774124 178.3140411
-85.5401764 61.8273201 178.0538025
-116.3594284 63.1139946 162.6410522
100.2222214 78.0512695 -45.3285255
99.4448853 77.9946442 -44.2288475
40.7010231 78.2939453 -44.2653313
-34.6557007 64.3807755 147.2292023
-35.1747627 64.2863998 148.3804932
-62.4607124 62.4482384 174.8499451
-62.9792747 62.4315910 175.0545349
-65.5053329 62.3775787 175.9155426
-68.5505981 62.3229485 176.7868805
-69.0494385 62.3254890 176.9019318
-69.5543213 62.3230820 177.0171204
-70.0685425 62.3079071 177.1319427
-70.5836487 62.3048592 177.2411957
-73.1247940 62.2820969 177.6811981
-75.6797180 62.2725182 178.0028381
-76.1916580 62.2751579 178.0662994
-78.7794037 62.2844772 178.2098694
-79.2887497 62.2784843 178.2092285
-79.8114395 62.2803993 178.2132416
-82.9139175 62.2938652 178.1511993
-83.4353943 62.3007698 178.1211090
-83.9666367 62.3107796 178.0850525
-84.4912262 62.3117447 178.0454559
-85.0129700 62.3202324 177.9987488
-85.5360565 62.3315811 177.9492188
-94.6023636 62.5132828 176.0906372
-95.1351395 62.5240402 175.9284210
-116.3932571 63.6495934 162.4654388
-117.0384140 63.7070618 161.7784729
100.8852310 78.6590347 -45.1384010
59.6904907 77.7586212 -30.0306683
59.0432396 77.7518234 -30.2579517
58.4261932 77.7825012 -30.4470577
57.7958755 77.8104630 -30.6569691
43.1599159 78.6011734 -40.2451820
42.5111542 78.6598206 -40.9341354
-34.6563988 64.9247742 146.9387360
-35.1771011 64.8266373 148.1013489
-65.5104065 62.8824463 175.8348694
-68.0505219 62.8442688 176.5603485
-73.1402817 62.7872200 177.5837555
-79.8396072 62.7950783 178.1115875
-82.4306870 62.8062897 178.0679779
-113.9232788 63.9640732 164.7628021
-114.5555115 64.0148926 164.1496429
-117.0211029 64.1944427 161.5214539
43.1885567 79.1323853 -39.3096046
-63.5170975 63.4306488 175.0379944
-64.0181274 63.4208336 175.2214661
-64.5097733 63.4180107 175.3892365
-65.0054703 63.4045448 175.5516052
-65.5183716 63.3973656 175.7140656
-66.0397263 63.3878708 175.8769226
-68.0550842 63.3528900 176.4454498
-73.1580582 63.3031883 177.4810638
-76.7344360 63.3154831 177.9062958
-77.2450714 63.3491592 177.9365540
-77.7876663 63.3543816 177.9629517
-78.2858582 63.2928047 177.9828339
-79.8477020 63.2970772 178.0103302
-82.4406204 63.3079796 177.9600830
-86.0932465 63.3481636 177.6682129
-86.6234589 63.3560143 177.6007385
-87.1575470 63.3701363 177.5252380
-87.6801605 63.3799553 177.4463196
-113.9575577 64.4911652 164.5611725
100.6446533 79.7825165 -42.6379471
44.3802338 79.6806946 -37.2429962
43.7446709 79.7116852 -37.8293381
-35.1936874 65.9150925 147.5017242
-116.4933777 65.2525635 161.5271606
102.8274002 80.5433807 -44.6810875
102.0317154 80.4846649 -43.5379372
101.2583847 80.4205246 -42.4685974
100.5279694 80.3515091 -41.5285454
44.3375015 80.2520142 -36.4931297
-35.1982155 66.4620056 147.1795349
-116.4671249 65.7622375 161.4596100
44.3079338 80.8455811 -35.7578850
43.6753998 80.8736954 -36.2874222
-36.2262344 66.8183670 149.0710907
-114.0552750 66.0770569 163.8899994
-114.6863480 66.1274414 163.2473297
103.3385773 81.7669373 -43.4956284
44.2853737 81.4426575 -35.0509377
-35.7309723 67.4613800 147.5964661
-36.2430382 67.3641586 148.7195587
-114.0775375 66.6045303 163.6522217
44.2583580 82.0330963 -34.3717499
-114.1151276 67.1393127 163.4099731
104.6648407 83.0530014 -43.6174088
44.2417030 82.6186142 -33.6966972
-114.1679535 67.6788483 163.1545258
-36.2801208 69.0139313 147.6037445
-114.2412262 68.2210312 162.8481750
-36.2535019 69.5876541 147.1149597
105.9280701 84.9225464 -42.9101715
106.6546631 85.5686874 -43.2040024
105.8418274 85.4872284 -41.9682808
-114.3648453 69.8420639 161.9413147
107.3083038 86.2324905 -43.3621788
49.1687393 85.2551346 -27.4995003
-114.4534073 70.9226227 161.2979431
107.1064682 87.3696594 -41.5001450
50.3787079 86.4059067 -25.8726807
49.7463303 86.4195480 -26.1931229
-37.4213676 72.1520157 147.2123718
-114.5255814 71.4790192 160.9138641
107.8123627 88.0268936 -41.8644104
107.0048294 87.9418335 -40.6308937
50.3458710 86.9890137 -25.4291611
-36.8972931 72.8555603 145.3500366
-37.4242210 72.7249908 146.7018127
108.5136948 88.6918945 -42.2514648
51.6216202 87.5326538 -24.3815632
50.9690475 87.5583954 -24.6808281
-113.3730164 72.4349442 161.5006104
-114.0112686 72.5096664 160.8307648
108.4063034 89.2711716 -41.3956337
51.5888023 88.1219711 -23.9710636
-38.3861122 73.6823044 147.8968353
-113.4459686 72.9921646 161.1053009
-38.4200897 74.1992722 147.4613495
-112.2673264 73.4224319 161.9885864
109.8712616 90.6211395 -42.4141045
109.7682648 91.2022247 -41.6025429
52.7874870 89.8698807 -22.2864895
-38.9650688 75.2935333 147.3303223
-39.4819183 75.1727524 148.4411469
-111.1223602 74.3907013 162.4381256
-111.7523193 74.4593887 161.8324127
110.4621201 91.8835602 -42.1066399
109.6590805 91.7836761 -40.7982216
52.7564163 90.4606094 -21.9312477
-39.4917870 75.7581711 147.8801880
-111.1993637 74.9498138 162.0133820
-111.2408142 75.5003510 161.6122742
-111.8913269 75.5749283 160.9819641
111.1029587 93.1547623 -41.9990082
-111.3089142 76.0539551 161.1791992
53.9850655 92.2198486 -20.3950558
-40.5367279 77.2964706 148.1533051
-110.1374893 76.4887466 161.9138947
54.0212173 92.8387070 -20.0429916
-110.2391052 77.0550995 161.4207611
-110.8518219 77.1219025 160.8344574
112.5569382 95.1348877 -42.8404121
-41.0864105 78.3619766 147.9150085
-41.6081085 78.2381516 148.9502869
-110.2996674 77.6092072 160.9561157
-41.6546326 78.8102875 148.3199768
-110.3820572 78.1853638 160.4448547
55.1698647 94.5696182 -18.7721558
54.5969887 94.5775452 -18.9560719
-41.1699905 79.5418930 146.4433899
-41.6732063 79.4230270 147.6169586
-109.1934891 78.6045761 161.1593781
-109.8169556 78.6764755 160.5593567
55.1610641 95.1783524 -18.4915447
54.5689125 95.1874924 -18.6869755
-109.2804413 79.1753387 160.6270294
55.1552887 95.7898407 -18.2235851
54.5035896 95.8011780 -18.4386673
-42.6760406 80.3395996 148.4084930
-109.3600082 79.7458420 160.0785828
-109.9849472 79.8218536 159.4630585
112.2269211 98.0367203 -39.6133041
55.1393242 96.3859558 -17.9752712
-42.6831169 80.8932953 147.7644958
-109.4312820 80.3137665 159.5281525
112.1586151 98.6234818 -39.0501747
55.1172180 96.9907150 -17.7360325
-43.2222137 81.4896164 147.8373718
-43.7836151 81.3604355 148.8646240
-108.3048706 80.7624664 160.1250763
-108.9187851 80.8308640 159.5299835
112.0404282 99.2378235 -38.4246750
-43.8271255 81.9551086 148.0757599
-108.3948441 81.3406677 159.5369415
113.6563721 100.0750504 -40.8651848
-43.3371620 82.7134933 146.1044769
-43.8614883 82.5744400 147.2314301
-106.0197830 81.6577606 161.2211151
-106.6169586 81.7118988 160.7015076
-107.2252045 81.7782135 160.1440887
-107.8498001 81.8457489 159.5520477
-108.4930878 81.9328690 158.9181213
113.6016617 100.6652069 -40.3477669
-43.8710976 83.2167053 146.3026276
-106.0829849 82.2160873 160.6454773
113.5228958 101.2608490 -39.8479156
55.0676003 99.4074173 -16.8235130
-44.3989983 83.7180481 146.5205994
-44.9102097 83.5786972 147.5978699
55.0628014 100.0217209 -16.6162491
-44.9381485 84.2242432 146.7007294
-106.2188644 83.3512192 159.3708649
55.0468254 100.6326523 -16.4250088
-45.4591751 84.7361984 146.8193817
-45.9551620 84.6072388 147.8193970
-105.1138535 83.8280411 159.8741608
-105.7309875 83.8862228 159.2944031
55.0490303 101.2416534 -16.2430038
-45.9859390 85.2514954 146.9017487
-105.2117157 84.4104538 159.2004852
113.3692856 103.6653671 -38.3202171
70.2638855 101.4762421 -13.7242184
69.6256485 101.4854584 -13.7428980
55.0279083 101.8475494 -16.0786705
-46.5470963 85.7554092 147.0659027
-47.0601883 85.6320801 148.0361176
-105.3199692 85.0063858 158.4918518
113.2864609 104.2673874 -37.9227943
70.2374191 102.0735245 -13.5493584
55.0301361 102.4625931 -15.9096384
-47.0764961 86.2812653 147.0744934
-105.4225464 85.6105652 157.7704163
-106.0524597 85.6893387 157.1559753
74.1201324 102.6821747 -13.5863199
73.4742661 102.6748428 -13.5355272
72.8330078 102.6733475 -13.4913216
72.2005692 102.6759949 -13.4510651
70.9944534 102.6531677 -13.2364464
55.0079117 103.0757675 -15.7512569
-47.6131630 86.7989349 147.0509338
-48.1228561 86.6695251 147.9920044
-105.5428314 86.2216797 157.0053558
54.9855881 103.6798706 -15.5960274
-48.1710052 87.3152847 146.9295959
77.9685745 103.9123154 -13.7552099
77.3402634 103.8914490 -13.6825018
75.3704910 103.8233261 -13.4209938
74.7478409 103.8970032 -13.3530846
63.8366547 104.0108719 -13.5291290
63.2199364 104.0232162 -13.5999088
62.5999870 104.0394058 -13.6760082
61.9590340 104.0580444 -13.7716627
61.3442345 104.0803680 -13.8843622
60.6989288 104.0926971 -14.0249443
-49.2350388 87.6993942 147.9093018
-103.3321686 87.1535110 157.7486572
77.9756851 104.5126877 -13.6308346
74.0914841 104.5028381 -13.1493187
73.4278107 104.5062256 -13.1138811
72.7846069 104.5107422 -13.0798492
72.1455688 104.5121918 -13.0477953
63.8324127 104.6223831 -13.3807325
60.6670761 104.7035141 -13.8974133
80.5448380 105.1541367 -13.9200306
79.9042435 105.1429825 -13.7934370
79.2478485 105.1366882 -13.6808290
78.5991516 105.1317596 -13.5821400
65.1093063 105.2089615 -13.1031055
64.4743042 105.2222214 -13.1727734
63.8352013 105.2334595 -13.2511749
60.6791840 105.3190918 -13.7619410
57.5000305 105.4201584 -14.4578400
-50.3140526 88.7717438 147.6750946
-101.1332169 88.1027222 158.2378387
-101.7395554 88.1681824 157.7364349
-102.3286743 88.2352295 157.2354431
-102.9457703 88.3179474 156.6873169
114.7879333 108.2052460 -39.0668564
76.9339981 105.8110275 -14.4293623
65.1392365 105.7631149 -12.9729662
60.6705437 105.9300308 -13.6351519
57.5073967 106.0362854 -14.3342323
56.8603172 106.0560608 -14.4912214
56.2449417 106.0828323 -14.6572580
55.5993309 106.1046219 -14.8444376
-101.2534561 88.7156830 157.4193420
114.7380600 108.8183289 -38.8096466
77.3238449 106.3730011 -13.1532907
76.6486969 106.4090195 -13.0678749
75.9860153 106.4175644 -13.0048218
74.0517807 106.3407593 -12.7790890
73.3879242 106.3359680 -12.7393751
72.7536087 106.3402786 -12.7050610
72.1045837 106.3468552 -12.6678514
66.3674545 106.4051743 -12.7748423
65.7696075 106.3794937 -12.8095798
60.6859627 106.5445404 -13.5112486
56.1961632 106.6981049 -14.5720663
-51.9032936 89.7657013 148.1875763
-52.3845406 89.6858902 148.9945221
-101.3613281 89.3214569 156.5800629
114.7014465 109.4350281 -38.5931053
77.9389801 106.9571075 -13.1141806
77.2776489 106.9590530 -13.0479250
76.6158066 106.9605331 -12.9781532
75.9918213 106.9531555 -12.8983126
66.3605270 107.0167618 -12.6686821
65.7802048 107.0226517 -12.6974220
60.6454086 107.1553345 -13.4167280
56.1993217 107.3141251 -14.4739733
114.6956482 110.0570984 -38.4403801
77.9229965 107.5739136 -13.0366411
77.2824173 107.5501556 -12.9737797
76.5918274 107.5459442 -12.8930931
75.9559860 107.5149384 -12.7813396
75.2896576 107.5042191 -12.7066593
67.6264877 107.6113129 -12.5006466
66.9715652 107.6225128 -12.5319471
60.6227226 107.7695847 -13.3312025
56.1880150 107.9307175 -14.3836327
53.0327339 108.0748291 -15.4134951
52.4098282 108.1067276 -15.6354809
-53.4894485 90.7983322 148.4211121
114.6846313 110.6795120 -38.2920303
75.2658386 108.1726608 -12.6039352
74.7010117 108.1751404 -12.5614557
74.0400848 108.1773834 -12.5245018
67.6013718 108.2251053 -12.4008369
61.9102287 108.3459625 -12.9876852
61.2779922 108.3676910 -13.1144905
60.6237679 108.3871002 -13.2470303
56.2013359 108.5476837 -14.2936068
55.5399132 108.5732574 -14.4808607
54.9351540 108.6009216 -14.6677313
54.3204727 108.6307068 -14.8735209
53.6698647 108.6628036 -15.1039639
53.0308723 108.6937332 -15.3321028
52.3977318 108.7251740 -15.5567579
51.7806320 108.7555771 -15.7764940
114.6503372 111.2997742 -38.1204185
74.6666641 108.7895966 -12.4818649
74.0217056 108.7928162 -12.4448910
73.3448257 108.7826385 -12.3381844
68.8864594 108.8233490 -12.2692938
68.2465134 108.8320923 -12.2819338
67.6011276 108.8370514 -12.3018637
61.8946457 108.9617615 -12.9129019
51.1409683 109.4083862 -15.9387112
-54.1592026 91.9840851 146.9783020
-54.6234093 91.9056549 147.7895050
-97.0683670 91.3190231 156.7443695
114.6334076 111.9245834 -37.9943771
73.3533936 109.4022980 -12.2802010
68.8747025 109.4351120 -12.1787367
51.1434708 110.0289230 -15.8736143
50.5094452 110.0635834 -16.1232986
114.6348343 112.5547791 -37.9179993
83.0971222 110.0975571 -13.7466717
82.4365158 110.0863342 -13.5785675
81.7737885 110.0738907 -13.4193506
81.1250000 110.0634842 -13.2699842
73.3588791 110.0205154 -12.2190256
-56.7242889 92.8925323 148.4360962
-96.1358337 92.4679718 155.6826172
114.6388550 113.1873856 -37.8644028
75.2271805 110.6696777 -12.3093834
74.0004425 110.6337891 -12.1978178
73.3462601 110.6352005 -12.1575909
48.6382027 111.4201202 -16.8421879
-56.8188477 93.5634918 147.1342621
-96.2494812 93.0990524 154.6725769
114.6197662 113.8174286 -37.7896233
77.8745422 111.2767868 -12.5876303
77.2391281 111.3005371 -12.4918070
76.5800171 111.3206711 -12.3842058
75.8889999 111.3198853 -12.3049192
-57.8787956 94.0808182 147.2931366
-58.3661232 93.9908905 148.0564728
-58.8480644 93.9178314 148.7397614
-95.2332077 93.6443558 154.4340668
-95.8039474 93.7000580 154.0258179
-96.4107666 93.7743835 153.5337372
114.5944214 114.4479294 -37.7204475
77.8402328 111.8758926 -12.5178795
77.2218704 111.8722153 -12.4175205
76.5451050 111.8702316 -12.3215332
75.8838806 111.8597412 -12.2397337
67.5796432 111.9273224 -12.0299520
66.9426193 111.9387512 -12.0805931
66.3188782 111.9497757 -12.1351099
65.6945343 111.9623566 -12.1906958
65.0418549 111.9773865 -12.2468376
64.3789597 111.9906769 -12.3027010
47.3655777 112.8103638 -17.4139671
-58.9388466 94.5983810 147.4080658
-95.3828506 94.3237534 153.3161926
114.6186905 115.0901642 -37.7475777
79.1499405 112.5106049 -12.7007923
78.4963531 112.5021286 -12.5717926
77.8459167 112.4941254 -12.4549522
77.2056885 112.4815063 -12.3595562
46.0804443 113.4711227 -18.0048256
-60.0081406 95.1139832 147.4602661
-60.4976234 95.0458679 148.1171875
-61.0018196 94.9829178 148.7311554
-93.1390152 94.7142715 153.8601532
-93.7325745 94.7893448 153.4645691
114.5948486 115.7243118 -37.7165527
46.0867844 114.0990524 -17.9887714
45.4540100 114.1464615 -18.3330650
44.8046150 114.1969833 -18.6948051
28.4737816 116.1510391 -33.8402328
27.8354168 116.2706223 -34.7937660
27.1920052 116.3957901 -35.7867241
26.5554352 116.5212936 -36.7876472
-61.1042633 95.6626282 147.3598480
114.6271210 116.3733292 -37.7950668
74.6090164 113.7217407 -12.0361547
73.9788437 113.7257614 -11.9979591
73.3284302 113.7287140 -11.9630766
72.6768341 113.7308655 -11.9304466
72.0434952 113.7330475 -11.9027042
66.3011780 113.8093567 -12.0244360
65.6669769 113.8237000 -12.0734205
65.0221481 113.8339462 -12.1282663
64.3939743 113.8516312 -12.1981201
63.7439308 113.8674469 -12.2924728
63.1173210 113.8854141 -12.3893814
62.4993896 113.9014893 -12.4776478
61.8481827 113.9197845 -12.5701561
61.2035294 113.9406433 -12.6697884
60.5799904 113.9595261 -12.7842159
-61.7008362 96.2964783 146.5373077
-62.1877785 96.2198486 147.2063446
-62.6725426 96.1508026 147.7903442
-63.1780548 96.0808716 148.3647461
-90.0028458 95.7681427 153.4696503
-90.5685959 95.8131180 153.1671448
-91.1306534 95.8480377 152.8595581
-91.6997757 95.8824692 152.5304260
-92.2869492 95.9591141 152.1287384
114.6163330 117.0147247 -37.8215675
72.0625610 114.3615646 -11.8887901
66.3108826 114.4277878 -11.9950647
62.5080490 114.5202332 -12.4417868
43.5693398 115.5557709 -19.4263763
