-48.4172745 39.6690674 162.4559479
-50.3827133 39.5864716 164.4776154
-52.3694458 39.5184402 166.2807465
-54.3453674 39.4532547 167.8380585
-93.6317825 39.2910156 172.6748199
-95.8472748 39.3342743 171.6809082
-98.0844345 39.3841400 170.5075226
-100.3777008 39.4428940 169.1040955
-44.3665924 41.8102417 159.8852539
-46.3138351 41.7024002 162.3910522
-76.4745331 41.0862427 177.2259979
-78.5352325 41.0908051 177.2796021
-80.6231537 41.0940590 177.2191772
-82.6870422 41.1082687 177.0730591
-84.8297729 41.1195831 176.7680817
-86.9501572 41.1388855 176.3692322
-97.8539581 41.3277969 172.3971710
-100.1199646 41.3890152 171.1046753
-102.4091034 41.4566803 169.5961304
-104.7554626 41.5403290 167.8024139
-42.2909393 43.8724365 159.3217621
-44.2450638 43.7478409 162.0511475
-46.2005615 43.6410599 164.3770142
-76.3364868 43.0247955 178.6276550
-78.4007263 43.0241318 178.6765442
-80.4832764 43.0295563 178.6192169
-82.5642853 43.0385742 178.4602814
-84.6787338 43.0570412 178.1953735
-86.7931824 43.0783653 177.8257599
-97.6509247 43.2701912 174.0794067
-99.9077606 43.3290825 172.8545532
-102.1693268 43.4009628 171.4530334
-104.5009766 43.4816208 169.7887573
-42.1761017 45.8094788 161.3694458
-72.1170578 44.9681702 179.5023041
-74.1623383 44.9601631 179.7462616
-76.2108383 44.9571533 179.8934937
-78.2707367 44.9577904 179.9460449
-86.6551514 45.0130272 179.1395111
-101.9618073 45.3445206 173.0973206
-104.2709885 45.4259834 171.5435638
-106.6018524 45.5224838 169.7447205
-40.1355743 47.8908272 160.3797607
-42.0779266 47.7489624 163.1467896
-72.0171814 46.8991318 180.6463165
-74.0526047 46.8920517 180.8883514
-86.5235214 46.9493942 180.3336182
-101.7753906 47.2882385 174.5581818
-104.0741043 47.3703918 173.0752258
-106.3880615 47.4657021 171.3798676
-38.0953445 49.9982491 158.9910126
-40.0412445 49.8318634 162.0814972
-42.0016556 49.6914635 164.7096863
-55.8456726 49.0819359 176.3567200
-57.8383904 49.0305634 177.3930511
-59.8369217 48.9841003 178.3134155
-61.8408241 48.9442368 179.1235657
-63.8401146 48.9118118 179.8191986
-65.8613968 48.8832588 180.4283295
-67.8670959 48.8591003 180.9402924
-69.8979645 48.8427467 181.3526306
-71.9261856 48.8296967 181.6775970
-73.9610901 48.8221054 181.9187317
-86.4079437 48.8842278 181.4038696
-106.2021484 49.4131012 172.8136597
-38.0123596 51.9412193 160.6166382
-39.9716034 51.7773247 163.5493469
-41.9293213 51.6352005 166.0602875
-55.7786331 51.0180283 177.3714752
-57.7686653 50.9638252 178.3893890
-59.7652435 50.9179268 179.2961121
-61.7700768 50.8768272 180.0853729
-63.7705002 50.8431320 180.7723999
-65.7884827 50.8153839 181.3756714
-67.7932053 50.7907982 181.8764648
-69.8193359 50.7743759 182.2858887
-71.8463364 50.7614059 182.6078796
-73.8808136 50.7529755 182.8418884
-80.0435867 50.7608299 183.0145264
-82.1132507 50.7737198 182.8884277
-84.2090607 50.7941208 182.6733551
-86.3046722 50.8179016 182.3593445
-106.0394135 51.3621635 174.0726776
-108.3766861 51.4747124 172.2698212
-36.0027466 54.0841827 158.7418518
-37.9445572 53.8897438 162.0163269
-55.7188492 52.9546585 178.2732239
-57.7062111 52.8983192 179.2657776
-63.7045860 52.7771034 181.6212311
-65.7163239 52.7458344 182.2147827
-71.7757416 52.6917152 183.4429169
-73.8104172 52.6846390 183.6692810
-75.8509674 52.6817169 183.8131714
-77.8967209 52.6855469 183.8798676
-84.1201935 52.7286530 183.5213623
-86.2156982 52.7543259 183.2185669
-88.3293228 52.7858124 182.8127747
-90.4516754 52.8239517 182.3135681
-105.8954926 53.3123207 175.1807251
-108.2164993 53.4267197 173.4501953
-110.5954895 53.5592766 171.4263611
-35.9444695 56.0359192 160.0928802
-37.8933754 55.8422623 163.2238312
-55.6630554 54.8916779 179.0686951
-57.6548271 54.8361588 180.0598450
-90.3674393 54.7628822 183.0996094
-105.7695999 55.2657814 176.1481171
-108.0869598 55.3827248 174.4676819
-110.4465561 55.5157852 172.5273132
-35.8942947 57.9940720 161.2295380
-37.8496399 57.7994003 164.2542725
-51.6483002 56.9679565 177.4919434
-53.6290741 56.8952026 178.6893311
-55.6178322 56.8310623 179.7722931
-90.2954865 56.7038498 183.7812195
-92.4326096 56.7509956 183.1880646
-94.5821381 56.8075714 182.4962463
-110.3249588 57.4769516 173.4683533
-35.8546028 59.9586029 162.1833344
-37.8058434 59.7619095 165.1082458
-51.6132584 58.9138107 178.1191711
-53.5942612 58.8384666 179.3079834
-92.3609619 58.6969795 183.8042908
-94.5116501 58.7540321 183.1181641
-110.2215881 59.4428673 174.2660522
-33.8814850 62.1651993 159.6057129
-35.8249512 61.9290771 162.9712524
-37.7794952 61.7301178 165.8337402
-47.6292343 61.0434189 175.9074097
-49.6007042 60.9471436 177.3534241
-51.5829964 60.8616943 178.6607361
-92.3099670 60.6438637 184.3207092
-94.4537201 60.7036514 183.6429596
-110.1359711 61.4137192 174.9305115
-33.8534737 64.1475983 160.2963562
-35.7999573 63.9072647 163.6001434
-37.7578659 63.7033157 166.4248657
-47.6046219 62.9997749 176.3764038
-49.5757141 62.9017105 177.8081970
-92.2639694 62.5957336 184.7507782
-94.4114075 62.6573944 184.0760193
-110.0724640 63.3899994 175.4654694
-33.8379211 66.1391296 160.8202972
-47.5919266 64.9611053 176.7592926
-94.3750687 64.6151047 184.4222107
-110.0222549 65.3727570 175.8841705
-112.3975296 65.5461731 173.8462830
-31.8911285 68.4471741 157.2887726
-33.8277130 68.1397552 161.1937561
-47.5776825 66.9280472 177.0388184
-94.3476791 66.5773163 184.6923065
-109.9881058 67.3619080 176.1911926
-112.3568573 67.5408020 174.1679840
72.2154083 86.3211288 -37.8481216
-33.8270378 70.1507797 161.4196167
-47.5708008 68.9015656 177.2215576
-94.3371658 68.5458069 184.8663330
-109.9648056 69.3593826 176.3786621
-112.3400116 69.5453491 174.3505249
-114.7730331 69.7603455 171.9825439
82.4848633 88.5542603 -34.8214531
79.7911072 88.4812927 -33.7711487
77.1252747 88.4391937 -33.0927849
74.4845200 88.4231033 -32.6942596
71.8648834 88.4265747 -32.5925331
69.2715607 88.4617920 -32.7507935
66.6807327 88.5124664 -33.1738472
64.1060486 88.5919647 -33.8620834
61.5506172 88.6942444 -34.8631859
59.0027466 88.8329849 -36.2015648
-33.8331566 72.1747894 161.4806824
-47.5714073 70.8817673 177.3162689
-49.5469894 70.7703552 178.7389221
-94.3355179 70.5200195 184.9615479
-109.9696655 71.3668976 176.4403381
-112.3390656 71.5590134 174.4169006
-114.7710495 71.7823029 172.0399323
87.5484924 90.8958740 -32.7976532
84.8249359 90.7804718 -31.3089333
82.1249084 90.6979523 -30.1898003
58.7582741 90.9845963 -31.6225224
56.2210846 91.1346893 -33.0477905
-33.8398781 74.2124786 161.3828583
-35.7893448 73.9312363 164.6497192
-37.7434273 73.6928635 167.4411621
-47.5851898 72.8689728 177.3236694
-49.5550537 72.7536850 178.7503967
-94.3445282 72.5018311 184.9694672
-109.9791107 73.3824310 176.4046173
-112.3570938 73.5834351 174.3597870
92.7335358 93.3517075 -32.2424126
89.9488602 93.1886597 -30.2303181
87.2087021 93.0592346 -28.6546268
84.5122757 92.9615326 -27.4041710
81.8330231 92.8937454 -26.4533901
58.5493851 93.1988220 -27.9012871
56.0141602 93.3334503 -29.1738434
53.4863815 93.4985809 -30.7405510
50.9732094 93.6965942 -32.6458702
-33.8602104 76.2654572 161.1279297
-35.8111191 75.9705963 164.4470215
-37.7609329 75.7222214 167.2666626
-47.5994797 74.8654175 177.2331238
-49.5690155 74.7453613 178.6710815
-92.2194290 74.4130554 185.5639648
-94.3580170 74.4902039 184.8975067
-110.0172882 75.4110413 176.2373047
-112.3949738 75.6203156 174.1718445
95.1677628 95.7070160 -30.4292679
92.3787155 95.5249939 -28.2929478
89.6348572 95.3769684 -26.6011200
86.9202805 95.2701111 -25.2176247
53.3157234 95.7251587 -27.3350201
50.8027954 95.9101715 -29.0208111
48.2853394 96.1262054 -31.0906906
-35.8336487 78.0258484 164.0907898
-37.7872505 77.7645874 166.9692688
-47.6186066 76.8708649 177.0470276
-49.5917015 76.7479706 178.4936066
-51.5652695 76.6375656 179.7942047
-53.5507622 76.5386353 180.9750061
-92.2453308 76.4088898 185.4045105
-94.3888855 76.4897308 184.7281189
-110.0632629 77.4511795 175.9568481
97.6630936 98.1056900 -29.1961956
94.8517609 97.8992233 -26.9104252
92.0949097 97.7387772 -25.0490837
89.3671265 97.6101913 -23.5237713
86.6780396 97.5081406 -22.3088455
53.1703415 97.9863815 -24.4432583
50.6540451 98.1622925 -26.0019417
48.1394386 98.3644333 -27.8560047
-35.8613663 80.0972443 163.5839233
-37.8172340 79.8222809 166.5296783
-47.6444206 78.8878479 176.7614288
-49.6195755 78.7595291 178.2250366
-51.5969887 78.6440582 179.5445862
-53.5745354 78.5428772 180.7264252
-92.2825089 78.4114456 185.1704407
-94.4298477 78.4974670 184.4757996
-110.1274414 79.5045395 175.5531769
100.1918182 100.5423431 -28.4642754
97.3601608 100.3123474 -25.9722557
94.5818787 100.1294556 -23.9405289
91.8450012 99.9829865 -22.2711697
89.1434937 99.8614731 -20.9041862
86.4610519 99.7721329 -19.7625313
58.0886459 99.9949341 -19.6587372
55.5655518 100.1233215 -20.6941757
53.0462341 100.2710800 -21.9286842
-35.9003181 82.1903763 162.9008636
-37.8521156 81.8970795 165.9434509
-51.6275291 80.6634369 179.1898041
-53.6063728 80.5574493 180.3878326
-90.2129517 80.3501129 185.4183350
-92.3322449 80.4260559 184.8352966
-94.4801712 80.5160370 184.1342926
-105.5566101 81.1741638 178.5709839
-107.8614578 81.3611603 176.9205017
-110.2166214 81.5761185 175.0070038
102.7761536 103.0272293 -28.2441139
99.9101028 102.7651672 -25.4995880
97.1138077 102.5533142 -23.2637138
94.3507919 102.3860931 -21.4064808
91.6355133 102.2461243 -19.8697872
88.9476700 102.1366119 -18.5979176
86.2806549 102.0511627 -17.5517979
57.9688492 102.2966766 -17.5602303
55.4525986 102.4221802 -18.5484657
52.9207687 102.5682526 -19.7203426
-35.9527664 84.3036194 162.0527496
-37.8985519 83.9911880 165.2069702
-51.6673508 82.6936035 178.7389832
-53.6455383 82.5842896 179.9514008
-55.6274033 82.4874115 181.0426941
-57.6143303 82.4008942 182.0271301
-67.6112595 82.1333694 185.4106903
-69.6292572 82.1085281 185.8128357
-90.2670517 82.3710251 185.0115204
-92.3969269 82.4535217 184.4058990
-94.5430984 82.5457535 183.6934509
-105.6418610 83.2392349 177.9964142
-107.9638214 83.4386215 176.2921906
105.4055405 105.5625992 -28.5201721
102.5040131 105.2599640 -25.4588966
99.6691589 105.0185013 -22.9738235
96.8936310 104.8221436 -20.9153728
94.1493530 104.6609192 -19.1928864
91.4474335 104.5313644 -17.7625389
62.9220314 104.4150238 -14.2980433
60.3936539 104.5048828 -14.9094400
57.8659210 104.6112976 -15.6906986
55.3505135 104.7347565 -16.6443520
-37.9527130 86.1108551 164.2773132
-55.6763382 84.5219574 180.5263519
-57.6637230 84.4326477 181.5237427
-59.6536026 84.3554840 182.4130859
-61.6442947 84.2896729 183.1935272
-63.6500664 84.2349854 183.8678284
-65.6522064 84.1900864 184.4549255
-67.6657486 84.1546631 184.9492188
-69.6789017 84.1298065 185.3515015
-71.7017059 84.1129456 185.6702576
-73.7287674 84.1067200 185.9032898
-75.7723923 84.1109467 186.0396271
-77.8202209 84.1225891 186.0951385
-79.8797913 84.1446838 186.0613098
-81.9468231 84.1765366 185.9369354
-84.0221863 84.2192459 185.7263184
-86.1191254 84.2704163 185.4186707
-88.2206726 84.3341980 185.0062866
-90.3400040 84.4074707 184.4981689
-105.7553711 85.3233261 177.2770081
-108.0796967 85.5335846 175.5201721
105.1327896 107.8033142 -25.8690815
102.2676697 107.5217896 -23.0899906
99.4601746 107.2962189 -20.8119526
96.6972275 107.1082993 -18.8860741
93.9720306 106.9576950 -17.2703438
91.2826996 106.8309784 -15.9212236
62.8197556 106.7397461 -12.6752071
60.2974167 106.8334045 -13.2784395
57.7660027 106.9367142 -14.0370808
-38.0171165 88.2589722 163.1326447
-55.7287903 86.5714951 179.9085541
-57.7186241 86.4792938 180.9214172
-59.7096825 86.3965912 181.8264771
-61.7044449 86.3299026 182.6083679
-63.7051773 86.2721100 183.2982330
-65.7079620 86.2232361 183.8942566
-67.7222137 86.1873245 184.3981781
-69.7370834 86.1631470 184.8002319
-71.7655029 86.1453094 185.1210632
-73.7934952 86.1395569 185.3502502
-75.8356171 86.1422501 185.4908600
-77.8884048 86.1564102 185.5428619
-79.9487076 86.1798401 185.5074005
-82.0183945 86.2145081 185.3725586
-84.0953522 86.2579346 185.1541595
-86.1921539 86.3130951 184.8325958
-88.2968445 86.3794861 184.4084473
-90.4250641 86.4589996 183.8803558
-105.8807526 87.4272003 176.4203796
-108.2133179 87.6511688 174.5908203
107.8355255 110.4047089 -26.8328514
104.9099197 110.0716705 -23.6499519
102.0629196 109.8102417 -21.0662842
99.2719574 109.5910492 -18.9212170
96.5304413 109.4127579 -17.1028252
62.7253723 109.0754776 -11.2260561
60.2049675 109.1678543 -11.8205004
-38.1020660 90.4380951 161.7673645
-40.0377884 90.1046219 164.8904419
-41.9926071 89.8243484 167.5303192
-106.0281448 89.5544891 175.4061279
107.6119537 112.6824875 -24.6997890
104.7104263 112.3699875 -21.7452564
101.8958130 112.1158447 -19.3395081
99.1090012 111.9063721 -17.2741852
96.3787994 111.7327271 -15.5517769
62.6453400 111.4200287 -9.9401140
60.1300125 111.5139847 -10.5269985
-40.1219482 92.2939301 163.4385834
-42.0690536 91.9889526 166.2398682
-106.2022247 91.7071152 174.2113190
110.3746796 115.3657990 -26.3309212
107.4193954 114.9884262 -22.9124260
104.5539322 114.6885681 -20.1467133
101.7444916 114.4430695 -17.8321495
83.0038376 113.5924225 -9.0617847
80.4036484 113.5579681 -8.5407352
77.8314285 113.5411224 -8.1712942
75.2618637 113.5412903 -7.9470849
72.7100143 113.5568695 -7.8587217
70.1598511 113.5896301 -7.9069777
62.5726852 113.7774582 -8.8132467
60.0530930 113.8715744 -9.4007101
-42.1625061 94.1870728 164.7293243
-44.1175117 93.8994141 167.3058624
-46.0748558 93.6525650 169.5345306
-101.7673798 93.4352341 176.2532043
-104.0644913 93.6479111 174.6598206
-106.4064178 93.8957367 172.7910919
110.1907959 117.6806870 -24.6387997
107.2593765 117.3176880 -21.4051056
104.4057693 117.0266495 -18.7658386
101.6111984 116.7843094 -16.5313606
82.9155731 115.9469910 -8.0312681
80.3231888 115.9152069 -7.5245953
72.6329346 115.9163513 -6.8694305
70.0849533 115.9524536 -6.9213734
62.5053062 116.1443176 -7.8350201
59.9893265 116.2398148 -8.4046040
-42.2743759 96.4287491 162.9281464
-44.2182617 96.1117477 165.6940155
-46.1754379 95.8429337 168.0625916
-101.9561462 95.6143112 174.8587189
-104.2698364 95.8495026 173.1487122
110.0391312 120.0232391 -23.2433987
107.1255646 119.6700745 -20.1536999
88.0622253 118.4347916 -8.5676689
85.4471359 118.3633118 -7.7732162
82.8408661 118.3134232 -7.1331096
72.5625153 118.2893829 -6.0117636
70.0203552 118.3199615 -6.0575132
67.4911041 118.3728485 -6.2333689
64.9711609 118.4364166 -6.5290098
62.4500160 118.5194550 -6.9690199
59.9388390 118.6197205 -7.5366664
-44.3399048 98.3707962 163.7810974
-46.2914886 98.0776062 166.3226471
-48.2471809 97.8209991 168.5270996
-50.2144165 97.6043015 170.4446564
-97.6341324 97.4223480 176.1204224
-99.8939972 97.6159058 174.7820282
-102.1851120 97.8376846 173.2126312
112.9023285 122.8295441 -25.8011551
109.9126282 122.3903122 -22.0989265
107.0195007 122.0418015 -19.1180439
87.9929199 120.8112259 -7.7824535
85.3725967 120.7422409 -7.0021996
72.5133286 120.6686783 -5.2817745
69.9733353 120.7044983 -5.3257480
67.4400253 120.7561569 -5.5156007
64.9213104 120.8237152 -5.7964163
62.4040756 120.9079056 -6.2419853
59.8946609 121.0092239 -6.8035274
-44.4837914 100.6898346 161.4617920
-46.4218292 100.3572388 164.2698212
-48.3766708 100.0753021 166.6513672
-50.3399277 99.8323517 168.7202148
-97.8572159 99.6468506 174.4568176
-100.1305695 99.8561630 173.0121155
112.7973404 125.2166977 -24.8014393
87.9300385 123.2013397 -7.1345496
85.3211136 123.1311035 -6.3668365
59.8516045 123.4117279 -6.2039018
-46.5861588 102.7036591 161.7885284
-48.5246582 102.3863678 164.4282532
-50.4834900 102.1112061 166.6956635
-52.4468384 101.8837280 168.6199951
-54.4187889 101.6851654 170.3094788
-93.6321106 101.5382843 174.9793549
-95.8524094 101.7122574 173.8561401
-98.1077118 101.9113846 172.5309143
112.7084656 127.6288300 -24.0250359
87.8840637 125.6024933 -6.5991850
85.2668762 125.5330734 -5.8398075
82.6818161 125.4852295 -5.2499304
80.0941391 125.4519958 -4.7673407
-50.6493835 104.4549866 164.2781830
-52.6126022 104.1963959 166.3969269
-54.5766907 103.9740601 168.2302246
-93.8801880 103.8192596 172.9714355
-96.1274414 104.0128784 171.7324829
115.7350693 130.6390076 -27.9534607
112.6505814 130.0691833 -23.4956379
87.8421936 128.0196228 -6.2061133
85.2286148 127.9498749 -5.4548593
57.2833176 128.3850098 -6.0761275
-52.8031578 106.5831451 163.7227173
-54.7617416 106.3265610 165.7669983
-56.7329788 106.1174088 167.4958496
-58.7169609 105.9345245 169.0008392
-89.7374878 105.8162079 172.7107239
-91.9444275 105.9739838 171.7640228
-94.1758270 106.1618729 170.6062012
115.7034760 133.1199646 -27.6526680
112.6141357 132.5391083 -23.2011795
87.8237305 130.4529114 -5.9450450
85.2003555 130.3802643 -5.1861258
57.2562103 130.8340607 -5.8519678
-56.9516754 108.5264435 164.7221985
-58.9241676 108.3200226 166.3825531
-90.0439987 108.1888199 170.1898956
-92.2690125 108.3688126 169.1027527
115.6951599 135.6397247 -27.6405830
112.6080933 135.0407867 -23.1446495
87.8004608 132.8988037 -5.7919374
85.1871033 132.8288116 -5.0515995
57.2543907 133.2928925 -5.7139273
54.7504654 133.4481049 -6.5704803
52.2577171 133.6234131 -7.5728498
-59.1774559 110.7937927 163.2090454
-61.1636200 110.5911713 164.8198853
-63.1512375 110.4269257 166.1606140
-65.1646042 110.2972870 167.2687988
-67.1843262 110.1929245 168.1809540
-77.4734650 110.0367737 170.2313538
-79.5776291 110.0767899 170.1573029
-81.6947174 110.1358032 169.9324493
-83.8358917 110.2197189 169.5395508
-85.9968262 110.3320313 168.9511719
-88.1866531 110.4769974 168.1560669
-90.4039612 110.6486893 167.1343384
115.7353058 138.2061768 -27.9472904
112.6124420 137.5727844 -23.3114796
87.7994690 135.3649902 -5.7773123
85.1856689 135.2909851 -5.0251188
82.5930405 135.2380066 -4.4220834
80.0090790 135.2040405 -3.9466195
62.2618141 135.5167236 -4.4330559
59.7551155 135.6340942 -5.0043435
57.2442322 135.7748108 -5.7373338
54.7522011 135.9313049 -6.5822473
52.2556076 136.1134338 -7.6039171
49.7633400 136.3166656 -8.7716541
47.2709999 136.5449066 -10.1095276
34.8227158 138.1894379 -20.2703419
32.3211632 138.6696777 -23.3384380
-63.4537544 112.9658051 162.6332092
-65.4556885 112.8062210 163.9276886
-67.4686813 112.6828461 164.9658203
-77.7869263 112.5011826 167.1793213
-79.9031219 112.5460434 167.0665283
-82.0385284 112.6194916 166.7660828
-84.1960602 112.7207108 166.2692108
112.6671600 140.1483002 -23.7616386
109.6756439 139.6422882 -20.0563202
106.7865295 139.2436218 -17.0944633
82.5964432 137.7205811 -4.5290813
80.0185089 137.6863251 -4.0630441
77.4556885 137.6741638 -3.7371325
74.8902435 137.6851196 -3.5620444
72.3526764 137.7115326 -3.5016925
69.8174591 137.7547607 -3.5703969
67.2950287 137.8203888 -3.7612650
64.7805786 137.9029541 -4.0840435
62.2589188 138.0079651 -4.5470433
59.7593536 138.1283875 -5.1416817
47.2749557 139.0686035 -10.3056355
44.7798653 139.3342285 -11.8641319
42.2951012 139.6309662 -13.6344595
39.8038368 139.9661865 -15.6624165
37.3225784 140.3410492 -17.9620056
34.8230438 140.7759399 -20.6607513
32.3388443 141.2727966 -23.7861786
-67.8403549 115.3312302 160.7691956
-69.8676910 115.2131500 161.7839813
-71.9165649 115.1410446 162.4970093
-73.9800415 115.0926437 163.0059967
-76.0705414 115.0845871 163.2662964
-78.1801147 115.1065521 163.3122406
-80.3102875 115.1632996 163.1302185
109.7332153 142.2279053 -20.6233940
106.8297043 141.8071899 -17.5623837
82.6170502 140.2218018 -4.7677975
80.0343170 140.1889038 -4.3022013
77.4695282 140.1729736 -3.9610920
74.9041748 140.1827698 -3.7790928
72.3642273 140.2126617 -3.7272816
69.8309174 140.2570801 -3.7930818
67.3059082 140.3218689 -3.9869819
64.7830734 140.4107056 -4.3271813
62.2753448 140.5124817 -4.7818694
59.7712402 140.6422729 -5.3952579
47.2825089 141.6141968 -10.6446095
44.7889061 141.8906860 -12.2363853
42.3066254 142.1975708 -14.0407734
39.8126297 142.5480652 -16.1173248
37.3282890 142.9407196 -18.4890862
34.8385277 143.3937073 -21.2475929
109.8242340 144.8576965 -21.4581833
106.9044342 144.4076843 -18.2612495
37.3447647 145.5740051 -19.2159309
34.8477020 146.0533447 -22.0886421
109.9273224 147.5338287 -22.5801182
107.0013504 147.0520020 -19.2015705
37.3766060 148.2444000 -20.1549149
107.1258240 149.7449341 -20.4318027
104.2372055 149.3214874 -17.5087013
101.4345703 148.9859314 -15.1282368
98.6650314 148.7068176 -13.1141949
95.9381866 148.4742279 -11.4074879
42.3799896 150.0895996 -16.3722610
39.8846359 150.4990387 -18.6915455
37.4104729 150.9640503 -21.3693886
107.2833633 152.4975281 -22.0004654
104.3709793 152.0314178 -18.8496037
101.5384064 151.6607208 -16.3050289
98.7659073 151.3672028 -14.2107391
96.0342560 151.1193237 -12.4296942
42.4206581 152.7999573 -17.5883598
39.9316330 153.2354431 -20.0253315
104.5388565 154.8105469 -20.5498657
101.6868820 154.4014893 -17.8027191
98.8913116 154.0742645 -15.5539494
96.1387558 153.8063354 -13.6726379
93.4353714 153.5939026 -12.1120939
90.7556000 153.4187012 -10.8064995
47.4438972 154.8013916 -14.9641876
44.9576416 155.1560669 -16.8631096
42.4690781 155.5644989 -19.0832195
101.8653488 157.2062988 -19.6501331
99.0480728 156.8420715 -17.2099514
96.2831268 156.5483398 -15.2010012
93.5578766 156.3107910 -13.5298214
90.8712997 156.1214294 -12.1341162
47.5080910 157.5695343 -16.5061913
45.0233574 157.9461670 -18.5132523
42.5351791 158.3904724 -20.8963623
102.0862045 160.0921936 -21.9559822
99.2394714 159.6787415 -19.2295914
96.4473801 159.3466339 -17.0325813
93.7119522 159.0888367 -15.2327251
91.0077820 158.8757629 -13.7388573
88.3393326 158.7117310 -12.5192480
85.6869278 158.5873108 -11.5364180
52.5622940 159.7181854 -14.9048796
50.0751114 160.0323181 -16.4851055
47.5859604 160.3947144 -18.3504448
45.0942993 160.8109131 -20.5369263
99.4765472 162.6198120 -21.7798080
96.6590347 162.2391968 -19.3035927
93.8937302 161.9344177 -17.2985535
91.1761017 161.7020721 -15.6876631
88.4913864 161.5125122 -14.3559551
85.8306274 161.3779602 -13.2919655
52.6527710 162.5638733 -16.8518620
50.1598244 162.9086914 -18.5681725
47.6727180 163.2964935 -20.5799789
45.1868973 163.7642212 -23.0091457
96.9134674 165.2328186 -22.1335697
94.1251144 164.8861694 -19.8612919
91.3724670 164.6044769 -18.0296021
88.6827393 164.3963470 -16.5753994
86.0009995 164.2368622 -15.4022007
57.7643623 164.8897705 -16.3176498
55.2655296 165.1602020 -17.6104012
52.7605209 165.4875641 -19.1981201
50.2713928 165.8620300 -21.0751266
47.7907295 166.3060913 -23.3394699
91.6281738 167.6275024 -20.9445057
88.9084549 167.3726807 -19.2605247
86.2067413 167.1787109 -17.9342384
57.8992081 167.8564148 -18.8738861
55.3951454 168.1585541 -20.3177357
52.8970451 168.5253296 -22.0903721
89.1936188 170.4864197 -22.6490288
86.4649658 170.2628784 -21.1000938
83.7845612 170.0850067 -19.8940468
81.1235428 169.9716797 -19.0070381
78.5018845 169.9082336 -18.3996677
75.8912964 169.8899994 -18.0352783
73.3058167 169.9062347 -17.8942013
70.7317505 169.9770203 -18.0003948
68.1752472 170.0799561 -18.3163490
65.6344986 170.2241669 -18.8510361
63.1016541 170.4143524 -19.6436710
60.5837631 170.6505432 -20.6828098
58.0658646 170.9412842 -22.0180244
84.0884323 173.2929077 -23.7175884
81.3977127 173.1443329 -22.6313324
78.7626419 173.0651550 -21.9098091
76.1312714 173.0215912 -21.4410286
73.5392990 173.0433044 -21.2802429
70.9495392 173.1076355 -21.3779087
68.3950043 173.2190399 -21.7251053
65.8527679 173.3775024 -22.3333130
63.3128738 173.5980225 -23.2615280
60.7935028 173.8684235 -24.4729481
71.2481918 176.4445953 -25.7910728
-73.6853256 22.0530567 145.9882050
-74.7168884 22.0383606 146.3760834
-75.7404556 22.0348778 146.7506714
-76.7437210 22.0507698 147.0347595
-77.8805237 22.0343285 146.9821472
-68.1896057 23.0995216 147.1364746
-69.1913986 23.1144390 147.9506989
-70.2021484 23.1002388 148.6634674
-71.2180862 23.0845490 149.2427979
-72.2313385 23.0836468 149.7375946
-73.2755585 23.0715027 150.1378174
-76.4022369 23.0562477 150.8975525
-77.4689636 23.0428886 150.9793396
-78.5383759 23.0279808 150.9770355
-79.6124344 23.0422935 150.9105988
-80.7051392 23.0457344 150.7475739
-81.7894287 23.0554810 150.5313568
-63.9106712 24.1379814 146.9881744
-64.8779144 24.1386967 148.1215363
-65.8738785 24.1335335 149.1237793
-66.8604965 24.1207352 149.9990997
-67.8679657 24.1055794 150.7707062
-68.8703613 24.0804901 151.4020386
-69.8824539 24.0698032 151.9993744
-70.9085464 24.0526295 152.4847260
-71.9276276 24.0426178 152.9041595
-72.9673691 24.0350075 153.2563477
-76.0866623 24.0128708 153.8862000
-77.1524048 24.0102577 153.9858398
-78.2190704 24.0063248 154.0099487
-79.2827301 24.0098858 153.9852905
-80.3682709 24.0131836 153.8898315
-81.4465790 24.0104713 153.7245331
-82.5509644 24.0100727 153.4819641
-83.6499023 24.0279541 153.1751404
-84.7714233 24.0376167 152.7604523
-85.8835068 24.0334644 152.2955933
-61.6546097 25.1632652 148.2063599
-62.6281052 25.1692810 149.4240723
-63.6120987 25.1558228 150.5037537
-64.5994720 25.1280212 151.4227142
-84.4676819 25.0125046 155.5593109
-85.5647659 25.0200386 155.1816101
-86.6977310 25.0147762 154.7126617
-59.4561996 26.2038193 148.9259644
-60.4322701 26.1948853 150.2346649
-61.4114380 26.1750088 151.4053802
-62.3806648 26.1396790 152.3738403
-63.3745575 26.1107769 153.2676544
-64.3741150 26.0982590 154.1058807
-84.2149658 25.9843445 157.9237823
-85.3022156 25.9920044 157.6195679
-86.4158783 25.9948368 157.2217865
-87.5292969 26.0075264 156.7578430
-88.6576691 26.0269775 156.1974335
-89.8015366 26.0440006 155.5631714
-90.9427414 26.0532112 154.8624115
-58.2674408 27.2263489 150.6382599
-59.2414703 27.1950493 151.8858185
-60.2120323 27.1610756 152.9677429
-77.5410004 26.9650822 160.6796265
-78.5985413 26.9643211 160.6786652
-79.6666946 26.9573402 160.6428223
-80.7250977 26.9514771 160.5686035
-81.8173370 26.9533634 160.4174805
-82.8881378 26.9609718 160.2286682
-90.6610489 27.0355015 157.3269043
-55.1503372 28.2845459 149.1242676
-56.1202087 28.2631340 150.6828461
-57.0813789 28.2286530 152.0271149
-58.0622368 28.1909828 153.2363129
-59.0418358 28.1606140 154.3153381
-60.0262909 28.1359100 155.2896729
-77.3688354 27.9483261 162.4361267
-82.7006454 27.9465542 162.0708160
-90.4121246 28.0047455 159.4933777
-91.5640564 28.0166359 158.8506775
-92.7044678 28.0399990 158.1468964
-93.8722076 28.0532494 157.3571014
-95.0251846 28.0776901 156.4674377
-54.0163574 29.3079319 150.3805389
-54.9576416 29.2632484 151.8435364
-55.9349480 29.2288857 153.2041321
-77.2044525 28.9417324 164.0484161
-81.4551697 28.9275570 163.8835297
-82.5270538 28.9295197 163.7409210
-94.7481995 29.0658283 158.7251892
-95.9389038 29.0826988 157.8049927
-53.8227310 30.2620277 152.8493958
-54.7870178 30.2327366 154.1640320
-55.7712555 30.1970139 155.3597565
-77.0707169 29.9023247 165.5127563
-78.1181030 29.8976917 165.5402527
-79.1681824 29.9169159 165.5342865
-80.2264099 29.9040546 165.4750824
-81.2983551 29.9015770 165.3887177
-82.3565826 29.9109859 165.2730255
-94.5206375 30.0297623 160.7046967
-95.6904449 30.0546646 159.8909454
-96.8576202 30.0740738 159.0123291
-53.6768761 31.2360039 154.9973145
-96.6284485 31.0479965 160.9176331
-97.8005600 31.0667362 160.0306091
-99.0060425 31.0718269 159.0248413
-50.5858498 32.2975235 152.8812256
-51.5642052 32.2638397 154.3320465
-52.5497971 32.2502975 155.6552124
-53.5509720 32.2085037 156.8702698
-96.4163208 32.0211983 162.6486359
-97.5666275 32.0512238 161.8353577
-98.7591248 32.0690880 160.9184570
-50.4891586 33.3012543 154.8692322
-51.4580460 33.2576103 156.2041016
-98.5379486 33.0490875 162.6252289
-99.6996918 33.0735931 161.7286377
-49.3991127 34.3140335 155.3082886
-50.3732643 34.2717361 156.6671143
-51.3520927 34.2280731 157.9053955
-98.3477859 34.0172005 164.1705627
-99.4908524 34.0538254 163.3387756
-49.2996407 35.2867241 157.0389709
-98.1774597 34.9895134 165.5928650
-99.3182373 35.0217056 164.8091583
-100.5005951 35.0515327 163.9149323
-101.6667099 35.0916939 162.9591675
-46.2822113 36.4082069 154.2534790
-47.2371368 36.3507919 155.8047180
-48.2185020 36.2988052 157.2530823
-49.1938782 36.2521133 158.5536499
-98.0100784 35.9627533 166.9076996
-99.1528168 35.9927101 166.1673737
-100.3285980 36.0222893 165.3304901
-101.4804230 36.0612755 164.4331512
-102.6813354 36.0875320 163.4227905
-44.2670441 37.4945908 152.5611725
-45.2098427 37.4322739 154.3119507
-46.1735077 37.3723297 155.9206696
-47.1380310 37.3172150 157.3751831
-102.4992294 37.0681686 164.8320007
-103.6899414 37.1050682 163.8093262
-104.9213562 37.1245766 162.6833344
-44.1504173 38.4464493 154.3138733
-45.1156006 38.3973694 155.9506226
-46.0760193 38.3366508 157.4273376
-47.0509605 38.2882919 158.8074341
-102.3280945 38.0389633 166.1412354
-103.5051956 38.0802536 165.1695557
-44.0653229 39.4165993 155.8869476
-45.0198364 39.3604126 157.3905334
-102.1642227 39.0094070 167.3560791
-103.3307114 39.0505600 166.4351959
-104.5386810 39.0902634 165.4128418
-42.0449829 40.5190811 153.8817291
-43.0151215 40.4521599 155.6846771
-43.9865265 40.3894653 157.2989197
-44.9413872 40.3266907 158.7288361
-102.0263214 39.9788208 168.4685669
-103.1854401 40.0177460 167.5957794
-104.3809052 40.0631371 166.6259613
-105.5789948 40.1047440 165.5912476
-106.7824631 40.1491776 164.4622345
-41.9738998 41.4933014 155.3735962
-42.9334373 41.4178848 157.0514069
-106.6086807 41.1284409 165.6925507
-40.9429245 42.5368309 155.0069122
-41.8996506 42.4602966 156.7502899
-42.8646278 42.3847122 158.3364258
-106.4628525 42.0979080 166.8266449
-107.6725159 42.1445045 165.7027893
-40.8698349 43.4942207 156.3363342
-106.3175049 43.0688019 167.8912964
-107.5216599 43.1201859 166.8041382
-39.8480072 44.5487366 155.8607178
-40.8001328 44.4650116 157.5633850
-106.1846161 44.0373383 168.8817291
-107.3928680 44.0896568 167.8261108
-108.5953064 44.1413078 166.7282257
-38.8243256 45.5945358 155.2450562
-39.7846718 45.5093994 157.0527344
-40.7360535 45.4262009 158.6683655
-79.8652802 44.4770432 179.6116028
-80.8908081 44.4875069 179.5692444
-81.9448242 44.4913864 179.4918823
-82.9868469 44.4941406 179.3855591
-84.0462189 44.5057297 179.2610931
-85.1060867 44.5129089 179.1083679
-108.4522781 45.1171303 167.7229614
-109.7177887 45.1629791 166.5144806
-38.7607307 46.5641708 156.4233551
-39.7221642 46.4765358 158.1417389
-40.6900406 46.3996925 159.7162781
-79.8064423 45.4469948 180.2272034
-80.8331757 45.4477463 180.1851044
-81.8781357 45.4532852 180.1090698
-82.9263916 45.4611053 180.0032196
-83.9817047 45.4726715 179.8793640
-85.0392151 45.4800873 179.7275391
-108.3242416 46.0917435 168.6481018
-109.5627060 46.1459160 167.4859619
-38.6999474 47.5271721 157.4914856
-75.6231766 46.3967514 180.7339020
-76.6423569 46.4029961 180.7887268
-77.6660919 46.4144592 180.8139648
-78.6897583 46.4105949 180.8287354
-79.7446213 46.4092216 180.8080444
-83.9223022 46.4366379 180.4727783
-84.9741821 46.4478378 180.3213043
-108.1965256 47.0632286 169.5256958
-109.4431152 47.1187210 168.3853912
-36.7270470 48.6939964 154.7463684
-37.6740036 48.5892258 156.7044067
-38.6586418 48.4981308 158.5007935
-75.5569000 47.3580170 181.2954865
-78.6665497 47.3499565 181.3868866
-79.6876907 47.3783836 181.3573914
-83.8687668 47.3994827 181.0289917
-84.9134369 47.4152794 180.8823090
-108.1040344 48.0352402 170.3223419
-109.3184814 48.0958328 169.2387238
-36.6705818 49.6623611 155.8067017
-75.4987793 48.3225937 181.8191986
-79.6457977 48.3402634 181.8635254
-80.6665649 48.3446770 181.8384399
-82.7573776 48.3701973 181.6839447
-83.8077850 48.3679199 181.5497131
-84.8572083 48.3818245 181.4136200
-108.0060043 49.0101166 171.0784302
-109.2056885 49.0716095 170.0292358
-110.4084930 49.1324997 168.9131927
-111.6470184 49.1913757 167.6964111
-35.6547966 50.7335205 154.7813721
-36.6305275 50.6290627 156.7998199
-75.4698868 49.2944794 182.3044128
-78.5627441 49.3074646 182.3911133
-79.6024170 49.3043976 182.3436127
-80.6144867 49.3165550 182.3118286
-81.6614227 49.3258133 182.2536469
-82.7084503 49.3276863 182.1621246
-83.7534637 49.3389702 182.0527496
-84.8003235 49.3497772 181.9163208
-107.9053268 49.9807816 171.7883301
-109.1151428 50.0413742 170.7552338
-110.2952576 50.1098175 169.6826782
-111.5218964 50.1756058 168.4932251
-35.6139030 51.7067070 155.7481079
-36.5816269 51.5999870 157.6909637
-75.4309464 50.2639923 182.7445526
-76.4537659 50.2626724 182.8035583
-77.4829712 50.2633820 182.8400421
-78.5073395 50.2727814 182.8413391
-110.1975708 51.0839806 170.4059906
-111.4095154 51.1538544 169.2476196
-34.6137238 52.7907600 154.6004181
-35.5832329 52.6801834 156.6595459
-36.5435944 52.5713043 158.5248413
-75.3935928 51.2372169 183.1804047
-76.4092331 51.2334518 183.2355957
-77.4389038 51.2390823 183.2754669
-78.4673691 51.2341194 183.2768707
-110.1099319 52.0593491 171.0726624
-111.3187103 52.1307030 169.9376678
-112.5412369 52.2027435 168.7237854
-34.5877495 53.7674255 155.4919891
-59.2234344 52.3798332 179.7473755
-60.2174721 52.3578110 180.1662292
-61.2223053 52.3366127 180.5580902
-62.2149200 52.3181000 180.9199524
-67.2407761 52.2422028 182.3989563
-68.2493134 52.2343750 182.6273346
-69.2533569 52.2233620 182.8282623
-70.2768555 52.2164536 183.0103607
-79.4656677 52.2083511 183.6764526
-80.4960403 52.2166824 183.6373749
-81.5334778 52.2248383 183.5723419
-82.5708008 52.2298164 183.4868774
-112.4388351 53.1820145 169.4027710
-34.5593491 54.7418213 156.3190918
-59.1965866 53.3466988 180.1616516
-60.1866913 53.3256340 180.5738220
-61.1975632 53.3034744 180.9624786
-62.1867599 53.2834091 181.3181152
-67.2080841 53.2104607 182.7958069
-68.2161789 53.2023621 183.0219116
-69.2325974 53.1914215 183.2265320
-70.2490768 53.1839104 183.4117737
-79.4377365 53.1741104 184.0700226
-80.4641647 53.1789932 184.0319366
-81.4950180 53.1871109 183.9681244
-82.5337067 53.1955566 183.8846741
-112.3587952 54.1602554 170.0279846
-34.5176086 55.7172012 157.0494080
-59.1594543 54.3139954 180.5475616
-62.1557198 54.2512169 181.6967468
-63.1577988 54.2315140 182.0359497
-64.1607208 54.2168732 182.3569336
-65.1669922 54.2018471 182.6503906
-66.1768723 54.1904221 182.9176025
-67.1752777 54.1744156 183.1467133
-69.1898117 54.1618042 183.5944824
-70.2233887 54.1488037 183.7830200
-71.2195892 54.1453667 183.9398956
-72.2372971 54.1358299 184.0721436
-73.2532806 54.1343155 184.1826324
-74.2724915 54.1315994 184.2764893
-75.2887268 54.1320496 184.3546753
-76.3112335 54.1331367 184.4053802
-77.3378677 54.1345787 184.4333496
-78.3565521 54.1359558 184.4470520
-79.4057007 54.1400299 184.4427948
-82.4893036 54.1621475 184.2707825
-83.5403748 54.1739388 184.1644897
-84.5847626 54.1859131 184.0350647
-85.6293564 54.1975441 183.8825378
-86.6849518 54.2145844 183.7061462
-87.7306061 54.2309189 183.5137787
-88.8037720 54.2468147 183.2937317
-112.2766800 55.1407089 170.6121063
-113.5330582 55.2194290 169.3271027
-33.5108299 56.8224449 155.6685944
-34.4831581 56.6940842 157.7231750
-59.1314240 55.2815933 180.9091187
-66.1408386 55.1649361 183.2434235
-69.1749725 55.1231384 183.9508667
-70.1926880 55.1141243 184.1251678
-73.2237091 55.0997047 184.5406494
-76.2817078 55.0982208 184.7537537
-84.5404129 55.1560974 184.3902893
-85.5841904 55.1672974 184.2360229
-86.6446915 55.1815796 184.0626221
-87.6953506 55.1992607 183.8764648
-88.7623215 55.2174950 183.6613464
-112.2058868 56.1216431 171.1491852
-33.4782295 57.8007774 156.3271179
-34.4574509 57.6721001 158.3544617
-57.1221771 56.3050346 180.3530273
-58.1124001 56.2752876 180.8146973
-59.1174011 56.2527313 181.2528839
-60.1039047 56.2268066 181.6571350
-87.6556702 56.1686745 184.2240143
-88.7241364 56.1857376 184.0020599
-112.1434326 57.1022034 171.6397705
-113.3804169 57.1842880 170.4398193
-33.4577942 58.7826920 156.9403381
-34.4414635 58.6528664 158.9460754
-57.1005783 57.2735672 180.6692963
-71.1392365 57.0436401 184.9191895
-87.6254654 57.1372910 184.5418396
-88.6981049 57.1578484 184.3155823
-112.0773849 58.0836868 172.1017456
-113.3136902 58.1686096 170.9137115
-33.4341164 59.7661476 157.4903259
-34.4173546 59.6351051 159.4566650
-55.0872498 58.3041878 179.9849701
-56.0833359 58.2706223 180.4857788
-57.0798492 58.2431755 180.9674377
-87.6034927 58.1059036 184.8295746
-88.6622543 58.1289978 184.6101379
-89.7204437 58.1498566 184.3688812
-90.7805481 58.1725235 184.1058197
-112.0256958 59.0674591 172.5205231
-113.2453308 59.1542587 171.3545837
-32.4551315 60.8928528 155.9230347
-33.4110527 60.7503204 157.9879761
-34.3992996 60.6187897 159.9273224
-55.0668716 59.2746925 180.2687988
-88.6353607 59.0984039 184.8873291
-89.6927185 59.1195984 184.6425171
-90.7542953 59.1452713 184.3856201
-111.9825821 60.0525093 172.8966980
-113.1956635 60.1395149 171.7500000
-31.4623146 62.0436630 154.0481720
-32.4369545 61.8822556 156.3890686
-53.0707626 60.3156967 179.4339600
-54.0692177 60.2800140 179.9995880
-55.0568848 60.2460480 180.5314636
-89.6621094 60.0935135 184.9075775
-90.7256699 60.1171722 184.6441650
-111.9351730 61.0392418 173.2490234
-113.1512604 61.1280899 172.1059265
-114.3880768 61.2197227 170.8818359
-31.4610825 63.0362015 154.5297241
-32.4222031 62.8719139 156.8337097
-53.0569572 61.2896118 179.6785583
-54.0672989 61.2557564 180.2431488
-55.0424461 61.2198410 180.7627716
-89.6352081 61.0664139 185.1446533
-90.7071686 61.0908394 184.8733215
-111.8885803 62.0271301 173.5726624
-113.1062317 62.1172256 172.4327087
-31.4494915 64.0279846 154.9625244
-32.4110260 63.8634377 157.2277985
-51.0657578 62.3468590 178.6978455
-52.0642090 62.3040504 179.3197021
-53.0485649 62.2666168 179.8916168
-89.6163940 62.0406685 185.3507690
-90.6773376 62.0669060 185.0837402
-111.8506088 63.0165100 173.8544464
-113.0698166 63.1078377 172.7186584
-114.2954407 63.2048531 171.5079956
-31.4264145 65.0235443 155.3195190
-32.3995819 64.8574905 157.5677338
-51.0562859 63.3227463 178.9000702
-52.0515327 63.2809525 179.5128784
-90.6680984 63.0424728 185.2692413
-111.8272095 64.0082779 174.0929718
-113.0374146 64.1005402 172.9735413
-114.2606583 64.1984940 171.7761993
-31.4305344 66.0207291 155.6582947
-32.3938141 65.8535995 157.8743134
-49.0710220 64.3939514 177.7579193
-50.0580788 64.3459473 178.4386444
-51.0486755 64.3018036 179.0843201
-52.0524559 64.2592773 179.6960297
-52.9978447 64.2294388 180.1419678
-90.6484680 64.0195618 185.4371948
-91.6971436 64.0470123 185.1686554
-92.7703018 64.0760345 184.8655853
-114.2294083 65.1934814 172.0128174
-30.4536209 67.2122498 153.4455566
-31.4237099 67.0233765 155.9155884
-32.3803329 66.8542786 158.1076050
-49.0611191 65.3745117 177.9263916
-50.0511360 65.3249588 178.6098633
-51.0332222 65.2796478 179.2510071
-90.6443329 64.9976349 185.5856323
-91.6891937 65.0255585 185.3162231
-92.7617950 65.0559006 185.0130157
-114.2118378 66.1926651 172.1979523
-115.4520111 66.2994690 170.9260406
-30.4455414 68.2207413 153.6624298
-49.0615616 66.3559265 178.0712280
-91.6850891 66.0051727 185.4449463
-92.7487335 66.0360336 185.1432495
-114.1796188 67.1916351 172.3729553
74.5397644 84.8783569 -43.2950363
73.2216721 84.8583755 -43.1416931
71.8882599 84.8570251 -43.0929298
70.5896988 84.8890076 -43.1641159
69.2682800 84.9136200 -43.3544006
-30.4371700 69.2329178 153.8269806
-49.0527039 67.3409348 178.1721039
-52.0216217 67.2004242 180.0923309
-91.6728668 66.9861603 185.5559845
-92.7414322 67.0172195 185.2554474
-114.1725464 68.1944427 172.4934692
-115.3983994 68.3061066 171.2237549
-116.6897583 68.4317245 169.7882080
82.4139328 85.9828033 -42.3688431
81.0063171 85.9521332 -41.6220512
79.6632690 85.9077835 -40.9816513
78.2836609 85.8775253 -40.4071503
76.9560318 85.8361435 -40.0104523
75.6164551 85.8237152 -39.6569786
74.2810822 85.8108521 -39.4667320
70.3610229 85.8281021 -39.4450951
69.0426788 85.8498993 -39.6126328
67.7532120 85.8754883 -39.8520622
66.4490051 85.9170151 -40.2297897
65.1848907 85.9848328 -40.6526985
63.9013519 86.0413818 -41.2505150
62.6118164 86.1058807 -41.9450760
-30.4423332 70.2455826 153.9787903
-31.4157829 70.0477295 156.4139709
-32.3663101 69.8734055 158.5660400
-49.0508690 68.3262024 178.2645874
-50.0346603 68.2758179 178.9384003
-51.0199509 68.2288208 179.5731201
-91.6768799 67.9391937 185.6634674
-92.7379608 67.9997406 185.3525848
-116.6635437 69.4401703 169.8947601
86.2945023 87.1846008 -41.6046944
84.8843994 87.1154709 -40.4783096
83.4853058 87.0521545 -39.5212479
82.1212082 86.9917679 -38.7756042
80.7599258 86.9392700 -38.1356583
79.4239883 86.9038925 -37.5775108
78.0651016 86.8714600 -37.1382828
76.7390289 86.8458405 -36.8165474
75.4048843 86.8301392 -36.5831528
74.0815582 86.8240204 -36.4229050
70.1626816 86.8484497 -36.4247131
68.8617859 86.8720779 -36.5725784
67.5718002 86.9025955 -36.7863693
66.2672806 86.9354095 -37.1085892
64.9797287 86.9868851 -37.4937172
63.6978455 87.0336609 -38.0126038
62.4110374 87.0913696 -38.5858879
61.1464996 87.1506653 -39.2638626
59.8650665 87.2395020 -40.0818367
58.6171722 87.3461075 -41.0036469
57.3506203 87.4485168 -42.0855484
-31.4063759 71.0649719 156.4611359
-32.3625946 70.8871002 158.6223145
-49.0596123 69.3119049 178.3487396
-50.0462036 69.2613525 179.0161896
-51.0198784 69.2139206 179.6459351
-92.7274017 68.9847183 185.4159851
-116.6584625 70.4520111 169.9565582
88.8088531 88.3722305 -40.3628311
87.4013367 88.2757950 -39.1392746
86.0117645 88.1884995 -38.0867462
84.6359863 88.1145782 -37.1979904
57.1679916 88.4398041 -38.8176041
-31.4091301 72.0833359 156.4951172
-32.3685837 71.9020462 158.6621857
-51.0270844 70.1998749 179.7023926
-52.0211487 70.1538239 180.3128357
-91.6606064 69.9378967 185.7704620
-92.7259216 69.9713745 185.4562378
-116.6494217 71.4658432 169.9917297
91.4089584 89.5763779 -39.7369576
89.9682617 89.4657669 -38.3161392
88.5635300 89.3560257 -37.1463547
87.1671448 89.2734756 -36.1137428
85.7822723 89.2124252 -35.1967621
84.4189835 89.1531448 -34.4475250
57.0295067 89.4737320 -36.0988770
55.7695923 89.5687790 -37.0014420
54.5048790 89.6756058 -38.0695953
53.2606354 89.8002319 -39.2183418
-31.4046021 73.1078949 156.4643860
-32.3756981 72.9209442 158.6555786
-51.0257454 71.1886826 179.7324066
-52.0336685 71.1411591 180.3445435
-91.6558762 70.9247360 185.7896576
-92.7279205 70.9595032 185.4822693
-116.6704102 72.4858704 169.9574890
94.0211411 90.8324585 -39.4797134
92.5574951 90.6977310 -37.9471817
91.1489563 90.5805664 -36.6026077
89.7332077 90.4779205 -35.4217682
54.3750801 90.7270584 -35.4989586
53.1270981 90.8418579 -36.5333900
51.8713264 90.9573975 -37.7215157
50.5991135 91.0641022 -39.0745125
49.3597450 91.1830521 -40.5270805
-31.4097214 74.1371384 156.3781281
-32.3803101 73.9449539 158.5872345
-51.0240059 72.1802673 179.7312164
-52.0308342 72.1315155 180.3454285
-91.6569824 71.9140625 185.7946625
-92.7286072 71.9482727 185.4894562
-114.1788254 73.2455139 172.6365356
-115.4003448 73.3690720 171.3410797
-116.6803741 73.5084381 169.8997498
95.1944809 91.9696960 -38.0839729
93.7630615 91.8245239 -36.5508766
92.3206100 91.7171478 -35.1396484
90.9292679 91.6158905 -33.9768295
89.5328674 91.5306549 -32.9581299
54.2696419 91.8088226 -33.2273293
53.0146103 91.9053497 -34.1911278
51.7554512 92.0157623 -35.2814178
50.5060997 92.1409225 -36.4695435
49.2590942 92.2662582 -37.7751312
47.9698448 92.3698196 -39.2922173
-31.4269123 75.1692963 156.2501221
-32.3889465 74.9743805 158.4660645
-51.0363197 73.1727295 179.7147064
-52.0357552 73.1235657 180.3315277
-89.5423889 72.8408813 186.3187561
-90.6223984 72.8740692 186.0505981
-91.6636963 72.9043350 185.7794342
-92.7378006 72.9404144 185.4732208
-114.1941757 74.2642822 172.5651245
-115.4100647 74.3898392 171.2673187
-116.6925659 74.5331345 169.8128052
96.4096527 93.1280441 -36.8579445
94.9489670 92.9933167 -35.2684250
49.1479874 93.3361435 -35.3798103
47.8873520 93.4691010 -36.7441673
46.6471405 93.6011505 -38.2428970
-31.4379883 76.2081451 156.0719757
-32.4040794 76.0073166 158.3053894
-51.0415802 74.1681442 179.6782532
-52.0459557 74.1156921 180.3014679
-89.5621490 73.8332214 186.2825317
-90.6234741 73.8643494 186.0223999
-114.2117691 75.2864151 172.4593201
99.1138153 94.4389572 -37.6894531
97.6229095 94.3004150 -35.8505249
96.1827164 94.1564026 -34.2778168
94.7353897 94.0363846 -32.8762321
49.0453529 94.4088287 -33.2758102
47.8091507 94.5453262 -34.4909439
46.5625229 94.6930389 -35.8768997
-31.4361305 77.2564392 155.8021851
-32.4210320 77.0434875 158.1086121
-51.0509987 75.1630936 179.6209564
-52.0518150 75.1138458 180.2392273
-53.0344086 75.0650253 180.8216705
-54.0317879 75.0190201 181.3855896
-55.0146828 74.9764328 181.9179382
-89.5676880 74.8246231 186.2373352
-90.6347122 74.8573151 185.9739075
-114.2375717 76.3130112 172.3110352
-115.4833450 76.4478760 170.9943848
98.8557587 95.4845581 -35.0321007
97.4021149 95.3451767 -33.4250107
46.4715424 95.7720413 -33.7995415
-31.4516773 78.3066711 155.5174866
-32.4365845 78.0858459 157.8619080
-33.3943977 77.8999100 159.9033356
-34.3759613 77.7290802 161.7770996
-55.0217743 75.9748383 181.8247528
-56.0177765 75.9340363 182.3320923
-89.5782089 75.8196793 186.1621704
-90.6469345 75.8544312 185.8937225
-111.8251419 77.0975952 174.5170593
-113.0416107 77.2162628 173.3704529
-114.2644730 77.3426132 172.1345367
-115.5141983 77.4828796 170.8056946
101.5892029 96.8572998 -36.3025780
100.1162567 96.6860733 -34.4231339
98.6507263 96.5382233 -32.7774353
97.2045288 96.4108734 -31.3108234
46.3745422 96.8665848 -31.9400597
45.1148987 97.0013123 -33.2696190
43.8834610 97.1592789 -34.7049484
42.6277084 97.3347321 -36.3706055
-32.4338379 79.1410446 157.5264130
-33.4141998 78.9423981 159.6316376
-34.3899651 78.7671432 161.5198517
-55.0352097 76.9723816 181.7255096
-56.0309906 76.9304352 182.2327118
-89.5996475 76.8198547 186.0569458
-90.6592331 76.8523254 185.7938538
-111.8613663 78.1264114 174.3240356
-113.0692749 78.2462997 173.1744537
102.8771057 98.0881424 -35.9241524
101.3558502 97.9120102 -33.9135017
99.9042816 97.7505646 -32.2399826
46.3074112 97.9817429 -30.2209816
45.0375366 98.1051941 -31.4818459
-33.4270592 79.9923935 159.3205566
-34.4091644 79.8102570 161.2286682
-55.0513573 77.9712982 181.6086578
-56.0376663 77.9329071 182.1110840
-57.0327721 77.8935318 182.5923615
-58.0291672 77.8548660 183.0532227
-89.6182251 77.8203506 185.9413300
-90.6828766 77.8542557 185.6796265
-111.8948822 79.1567383 174.1087494
104.1409607 99.3268127 -35.6406517
102.6518860 99.1425171 -33.6207733
101.1597061 98.9741135 -31.8306923
99.7119675 98.8337402 -30.2868309
46.2343559 99.1016159 -28.6698151
44.9810562 99.2224884 -29.8297844
-33.4368782 81.0473785 158.9534149
-34.4259987 80.8580475 160.8925476
-55.0663261 78.9773483 181.4659424
-84.3954163 78.6882172 186.7804565
-87.5255814 78.7593307 186.2573700
-88.5870438 78.7897491 186.0448761
-89.6371307 78.8203278 185.8088684
-90.7005692 78.8556595 185.5424347
-111.9291992 80.1914749 173.8596191
105.4709549 100.5808640 -35.6165161
103.9219894 100.3890457 -33.4300194
102.4593353 100.2071533 -31.6157970
51.1886940 99.8170776 -23.6040764
49.9279137 99.9110336 -24.3972073
48.6813736 100.0153275 -25.2475510
47.4053955 100.1199799 -26.2243805
46.1768875 100.2291412 -27.2225609
-33.4523430 82.1104813 158.5242615
-34.4461021 81.9117737 160.5076447
-55.0818138 79.9807739 181.3041992
-56.0750046 79.9377060 181.8249512
-67.0517654 79.6272964 185.7730713
-71.0655441 79.5952148 186.5490875
-83.3708496 79.6634598 186.7370453
-84.4169006 79.6878052 186.6107483
-85.4624329 79.7088089 186.4633179
-86.5105667 79.7358398 186.2987366
-87.5474854 79.7618561 186.1090088
-88.6140747 79.7927017 185.8891754
-111.9937363 81.2359314 173.5427399
-113.2122955 81.3673706 172.3486481
105.2399979 101.6491089 -33.4501190
103.7461014 101.4587402 -31.5081406
102.2879333 101.2988892 -29.8317108
51.1314087 100.9632950 -22.3909588
49.8677254 101.0498886 -23.1644650
48.6112595 101.1355133 -23.9802361
-33.4664536 83.1817627 158.0530701
-34.4674797 82.9727707 160.0689087
-55.1005554 80.9896088 181.1146545
-56.0937233 80.9440384 181.6305237
-57.0845261 80.9072418 182.1162262
-58.0850143 80.8652878 182.5795441
-59.0787964 80.8270645 183.0134888
-66.0689240 80.6516724 185.3461914
-67.0756226 80.6311646 185.5960999
-68.0832596 80.6162262 185.8192749
-69.0835266 80.6063156 186.0115662
-70.1052933 80.5938416 186.1959839
-71.1035843 80.5886002 186.3620453
-72.1271973 80.5848389 186.4947510
-75.1711121 80.5823669 186.7726135
-82.3570862 80.6500244 186.6637268
-83.4009476 80.6686249 186.5664978
-87.5751648 80.7699051 185.9349518
-88.6380081 80.8000107 185.7085571
-112.0340042 82.2781601 173.2172699
106.5571747 102.9219360 -33.6134720
105.0494080 102.7245331 -31.5553341
