-49.0224533 94.8419952 188.5192566
-49.9909782 94.7811356 189.1129913
-50.9831772 94.7187119 189.7017517
-102.1643677 95.3445740 189.2120361
-103.2746735 95.4427338 188.5214996
-109.0141373 96.0363770 184.2453308
-110.2034760 96.1815491 183.1779785
-111.3899918 96.3358612 182.0378723
107.7497864 121.0980148 -26.5510693
106.2270508 120.8498001 -24.4446087
104.7594604 120.6354065 -22.6585960
103.3073425 120.4537048 -21.0771523
50.1129417 120.4433441 -16.2464905
48.8864250 120.5703049 -17.1643867
-30.5374508 98.3321152 166.9019012
-49.0337296 95.8303986 188.4308319
-50.0042953 95.7654877 189.0334625
-50.9899712 95.7031555 189.6313324
-101.0588913 96.2464142 189.7823181
-102.1755753 96.3413696 189.1128235
-103.2792053 96.4388046 188.4239807
-109.0358353 97.0492172 184.0978241
-110.2195663 97.1968307 183.0254211
-111.4204178 97.3566284 181.8650513
109.0626068 122.3586960 -26.7183933
107.5461349 122.1024933 -24.5307751
106.0440674 121.8743439 -22.6093674
52.5527916 121.3166733 -13.4600296
51.3166656 121.4295959 -14.2048655
50.0564651 121.5436478 -15.0456867
-30.5537930 99.3774261 166.5872040
-31.5463181 99.1152649 168.6921692
-32.4857407 98.8971100 170.5243683
-51.0024414 96.6887589 189.5448914
-101.0699234 97.2443085 189.6602936
-109.0673294 98.0668793 183.9128723
-110.2650223 98.2202606 182.8166199
108.8600082 123.3721237 -24.7542305
107.3656311 123.1283569 -22.7380295
105.8812256 122.9136963 -20.9754028
52.4919357 122.4311752 -12.4003210
-30.5609112 100.4358521 166.2017365
-31.5560703 100.1645813 168.3444824
-32.5059319 99.9349976 170.2280273
-51.0184326 97.6821442 189.4229584
-101.1004944 98.2516785 189.4993591
-109.1045456 99.0901031 183.6916199
-110.2996979 99.2458725 182.5843811
-111.4939728 99.4108810 181.4255219
108.6741867 124.4039536 -22.9723415
54.9358749 123.3505402 -10.0765400
53.6957245 123.4447708 -10.7104540
52.4368134 123.5447464 -11.3792381
-31.5879669 101.2121735 167.9905090
-32.5204430 100.9820023 169.8699341
-51.0282707 98.6780701 189.2744141
-101.1200256 99.2571106 189.3229523
-109.1465149 100.1187057 183.4367371
-110.3503494 100.2810059 182.3076019
110.0306091 125.6984253 -23.4199753
108.4971085 125.4484711 -21.3731499
54.9045410 124.4835358 -9.1206217
53.6433678 124.5515518 -9.7397232
-31.5994797 102.2787170 167.5315857
-32.5485306 102.0341263 169.4801025
-51.0439568 99.6760330 189.1074066
-52.0212746 99.6125031 189.6788940
-100.0661545 100.1789093 189.7442322
-101.1523819 100.2711716 189.1108551
-109.1874771 101.1494751 183.1557007
-110.3917770 101.3144379 182.0141754
111.3584900 127.0167236 -23.9839020
109.8559265 126.7467804 -21.8473740
108.3592682 126.5147705 -19.9664745
57.3270416 125.4247818 -7.2009349
56.0842934 125.5157013 -7.7013612
54.8381386 125.5994263 -8.2540026
-31.6113472 103.3554611 167.0189667
-32.5715523 103.0972748 169.0220337
-51.0642662 100.6755676 188.9237366
-52.0393486 100.6157227 189.4908142
-100.0977936 101.1926498 189.5130005
-101.1966095 101.2896576 188.8718872
-109.2470398 102.1931305 182.8210144
112.7596512 128.3503723 -24.7709789
111.1996155 128.0635834 -22.4342442
109.7148895 127.8110962 -20.4437962
108.2297821 127.5916061 -18.6693459
57.2852783 126.5669098 -6.3754516
56.0414238 126.6506882 -6.8817158
-31.6358318 104.4361496 166.4707031
-32.5978775 104.1654053 168.5280151
-51.0820656 101.6793747 188.7177582
-52.0688820 101.6174469 189.2880707
-53.0323524 101.5600891 189.8275604
-100.1346588 102.2102127 189.2588959
-101.2338791 102.3112183 188.6121063
-109.2961731 103.2335739 182.4669495
-110.5133438 103.4128876 181.2846375
112.5914001 129.4035950 -23.2174892
111.0397644 129.1288452 -21.0062351
59.7418747 127.5553818 -4.7111588
58.4856796 127.6198120 -5.1450000
57.2404976 127.7029800 -5.6079435
-32.6075859 105.2508240 167.9846039
-33.5844460 104.9933853 169.9396973
-34.5439606 104.7691269 171.6533203
-53.0612335 102.5641174 189.6040955
-99.0760193 103.1390228 189.5939178
-100.1828613 103.2367401 188.9708557
-101.2812805 103.3377762 188.3154907
-109.3609161 104.2888336 182.0629883
112.4361572 130.4703827 -21.8241329
110.9096527 130.2038422 -19.7415371
59.6992683 128.6921082 -3.9972506
58.4357071 128.7672424 -4.4314790
57.1929512 128.8407593 -4.8971548
-33.6000595 106.0896912 169.3824005
-34.5799904 105.8381042 171.1468811
-53.0862122 103.5738068 189.3547211
-99.1093979 104.1611786 189.2981720
-100.2232666 104.2642441 188.6614685
-101.3331375 104.3717728 187.9892273
-109.4226990 105.3444214 181.6239319
113.8532257 131.8346863 -22.7975636
112.2952118 131.5521851 -20.5482597
110.7871399 131.2946472 -18.5779362
59.6574478 129.8312378 -3.3353214
58.4019470 129.9103394 -3.7618301
-33.6544075 107.1600342 168.7382202
-34.6094360 106.9201508 170.5476532
-53.1109772 104.5879059 189.0767822
-54.0965424 104.5265732 189.6181946
-98.0604401 105.0980911 189.5646973
-99.1671448 105.1950684 188.9612732
-107.1149445 106.0704346 183.3712463
-108.3161469 106.2394409 182.2781372
-109.5122223 106.4183655 181.1157990
113.6911850 132.9188843 -21.5228977
112.1751785 132.6386261 -19.4014568
110.6750717 132.3959198 -17.5151634
59.6120491 130.9817047 -2.7115850
58.3626480 131.0544739 -3.1233299
-33.6874771 108.2686539 168.0047150
-34.6500092 108.0079041 169.9031219
-53.1292877 105.6145020 188.7688293
-54.1276360 105.5435944 189.3190918
-98.1149063 106.1326981 189.2061005
-99.2117538 106.2288437 188.6007843
-107.2053528 107.1398544 182.8640442
-108.3867493 107.3063354 181.7674866
115.1296310 134.3162842 -22.7196312
113.5662384 134.0104065 -20.3830147
59.5769272 132.1343536 -2.1180336
58.3347778 132.2106171 -2.5156758
-33.7260590 109.3885117 167.2103119
-34.6826630 109.1156693 169.1757507
-53.1681633 106.6297760 188.4551086
-54.1529045 106.5645218 188.9913940
-55.1254654 106.5157700 189.4837646
-97.0688934 107.0757599 189.3973999
-98.1732483 107.1745911 188.8131409
-99.2715302 107.2748871 188.1937866
-107.2697372 108.2079163 182.3389893
-108.4712143 108.3853302 181.2057343
114.9945908 135.4146118 -21.5972443
113.4599152 135.1159668 -19.3503704
59.5445137 133.2853851 -1.5610225
58.2876511 133.3554230 -1.9528282
-34.7275124 110.2253876 168.3967285
-53.2018509 107.6577682 188.0982819
-54.1852341 107.5974579 188.6334229
-55.1588516 107.5405426 189.1352844
-56.1501541 107.4829102 189.6361694
-96.0236053 108.0208969 189.5457001
-97.1306305 108.1206512 188.9818726
-98.2265320 108.2195358 188.3906555
-99.3322754 108.3245392 187.7558594
-107.3598557 109.2916870 181.7453918
114.8888245 136.5216675 -20.5889416
113.3461914 136.2277527 -18.3941555
62.0101776 134.3110199 -0.3128264
60.7531700 134.3725891 -0.6512187
59.5163727 134.4328613 -1.0036355
-34.7613068 111.3667526 167.4999084
-35.7259712 111.0894852 169.4542236
-36.6761742 110.8586731 171.1973114
-55.1912880 108.5693817 188.7695618
-56.1823425 108.5081100 189.2720642
-57.1577225 108.4625092 189.7314606
-95.0130234 108.9873199 189.6158295
-96.0895309 109.0743866 189.1007690
-97.1910172 109.1704636 188.5352783
-107.4540558 110.3821106 181.1034546
-108.6706848 110.5773315 179.9040222
114.7753983 137.6361542 -19.6399117
113.2591705 137.3506470 -17.5480671
61.9682541 135.4629211 0.1762037
60.7181511 135.5304260 -0.1479048
-34.7967453 112.5244064 166.5046234
-35.7751732 112.2238922 168.5576935
-36.7254486 111.9740601 170.3926392
-55.2234879 109.6055984 188.3746948
-56.2232857 109.5388336 188.8842468
-57.1932297 109.4932480 189.3313141
-58.1929703 109.4433746 189.7784271
-93.9786072 109.9485931 189.6507721
-95.0738068 110.0387039 189.1531219
-96.1489487 110.1249084 188.6357117
-97.2556992 110.2275543 188.0560913
-107.5420151 111.4801407 180.4178619
117.8588562 139.4613800 -23.8812599
116.2359695 139.0871735 -21.1350784
114.6777344 138.7607117 -18.7765427
113.1760406 138.4846802 -16.7705498
61.9473724 136.6319122 0.6288801
60.6904831 136.6973267 0.3072209
-35.8093376 113.3832855 167.5696411
-36.7844658 113.0988770 169.5224915
-57.2322006 110.5284271 188.9108276
-58.2255592 110.4837723 189.3539276
-59.2061958 110.4328918 189.7802277
-92.9754639 110.9252701 189.6258087
-94.0442810 111.0030518 189.1684418
-95.1486435 111.0930634 188.6616058
-105.2962570 112.2312012 181.9077148
-106.4643860 112.4037170 180.8311768
-107.6634216 112.5963211 179.6546326
117.7285156 140.5839539 -22.9371300
116.1487732 140.2138672 -20.3029308
114.6036682 139.8964844 -18.0376472
113.0989304 139.6251526 -16.0664902
61.9130478 137.7941895 1.0428873
60.6617851 137.8635864 0.7201848
59.4316063 137.9311218 0.3590822
-36.8413353 114.2480240 168.5347290
-57.2692184 111.5792160 188.4570160
-58.2730064 111.5196762 188.9145050
-59.2459908 111.4774475 189.3230286
-60.2484169 111.4347229 189.7169037
-91.9517975 111.8980865 189.5675659
-93.0363388 111.9794769 189.1247101
-94.1079865 112.0599823 188.6600342
-95.2233582 112.1649323 188.1254730
-105.4055099 113.3398743 181.1657410
-106.5863113 113.5243378 180.0455627
117.6277313 141.7108612 -22.0888672
116.0644989 141.3531952 -19.5621605
76.9417648 138.5436707 2.8549116
75.6731339 138.5549927 2.8839412
74.4015656 138.5682831 2.9070301
73.1524658 138.5816040 2.9150622
71.8861694 138.6053925 2.8907228
70.6353760 138.6301575 2.8248308
66.8825760 138.7541504 2.3980803
65.6314240 138.7949371 2.2183073
64.3863678 138.8444214 1.9946077
63.1296768 138.9070587 1.7278628
61.8888092 138.9678650 1.4333010
60.6448898 139.0377045 1.1006542
59.4065514 139.1072083 0.7320102
-36.8940048 115.4269257 167.4236450
-37.8362808 115.1545334 169.2917480
-38.7938118 114.9080048 171.0393219
-59.2930222 112.5218735 188.8470154
-60.2896843 112.4806061 189.2378082
-61.2746620 112.4468384 189.6069336
-90.9631424 112.8867264 189.4421997
-92.0156555 112.9609528 189.0357666
-93.1150055 113.0489960 188.5775452
-103.1646423 114.1139374 182.4443970
-104.3156433 114.2713623 181.4672699
-105.5075989 114.4543457 180.3712311
117.5468140 142.8504333 -21.3457127
115.9855118 142.5009766 -18.8913116
76.9139938 139.7072906 3.2016726
73.1277771 139.7525635 3.2911763
71.8535919 139.7760468 3.2646527
70.6160431 139.8043365 3.1967077
66.8445969 139.9219360 2.7701249
65.5882645 139.9677887 2.5811381
64.3551331 140.0177917 2.3625574
63.0956650 140.0743408 2.0902069
61.8726311 140.1420441 1.7971311
60.6172676 140.2090149 1.4568324
-36.9295807 116.6435013 166.1670227
-37.9020805 116.3262329 168.1789246
-38.8556252 116.0610962 170.0194550
-59.3362503 113.5848236 188.3365021
-60.3314362 113.5334473 188.7384338
-61.3154755 113.4945831 189.1079407
-62.3141251 113.4595184 189.4612885
-63.3097076 113.4244766 189.7957916
-88.8884583 113.8112488 189.6389618
-89.9546890 113.8804855 189.2776794
-91.0420074 113.9599991 188.8780823
-92.0941467 114.0352707 188.4639282
-93.1981659 114.1285553 187.9868927
-103.2730484 115.2308502 181.6524963
-104.4390717 115.4038391 180.6156158
-105.6530533 115.6011047 179.4534454
117.4760590 144.0063019 -20.7116814
115.9259491 143.6591492 -18.3029556
87.1165848 140.9789581 1.9340628
85.8020020 140.9490051 2.2617948
84.5379639 140.9229126 2.5492389
83.2499390 140.9022980 2.8069029
81.9744263 140.8890686 3.0196505
80.6897049 140.8800812 3.1963818
79.4219666 140.8704529 3.3636506
78.1477509 140.8722382 3.4923749
76.8826447 140.8858185 3.5290012
71.8253784 140.9473572 3.6054986
70.5780029 140.9767151 3.5296698
69.3244324 141.0118561 3.4045496
68.0764923 141.0533752 3.2698703
66.8198547 141.0931244 3.1081057
65.5763397 141.1383667 2.9269862
60.6047821 141.3863678 1.8061886
-37.9645996 117.5264435 166.9326477
-38.9261436 117.2330322 168.8865356
-39.8604774 116.9884720 170.5997620
-40.8238907 116.7644577 172.1771851
-63.3666840 114.4715958 189.2714081
-64.3488312 114.4474030 189.5623169
-86.8265991 114.7496872 189.7110443
-87.8986893 114.8161774 189.3955078
-88.9564972 114.8798141 189.0635529
-101.0807037 116.0380173 182.6882172
-102.2078400 116.1836929 181.8039856
-103.3971252 116.3604507 180.7857208
-104.5614319 116.5388870 179.7171021
117.4048386 145.1693115 -20.1421051
115.8675613 144.8245239 -17.7728157
87.0850143 142.1515503 2.2589393
85.7910004 142.1197357 2.5765479
84.5125504 142.0952454 2.8586826
83.2191849 142.0761108 3.1144991
81.9536362 142.0626678 3.3248882
80.6627884 142.0518188 3.5122015
79.3865814 142.0451202 3.6890798
78.1131668 142.0443420 3.8101809
76.8605652 142.0585327 3.8476927
71.8073578 142.1213379 3.9025068
70.5652847 142.1531525 3.8249373
69.2959366 142.1888733 3.7059915
68.0580597 142.2301025 3.5735016
66.8164597 142.2736053 3.4101143
65.5594940 142.3177795 3.2353616
60.5692291 142.5660095 2.1023912
59.3421707 142.6388245 1.7485271
-38.9770699 118.4494476 167.5939789
-39.9294662 118.1676865 169.4381256
-40.8841438 117.9296036 171.1058502
-63.4147644 115.5419006 188.7045593
-64.4029236 115.5122528 188.9978943
-65.4113312 115.4862137 189.2721100
-66.3981934 115.4576569 189.5250702
-67.4125900 115.4448013 189.7550201
-84.7944489 115.7169952 189.6341400
-85.8601990 115.7677917 189.3838501
-86.9101105 115.8275909 189.1061249
-87.9728699 115.8923721 188.7914276
-89.0289688 115.9543686 188.4524536
-101.1901398 117.1620560 181.8484802
-102.3318100 117.3202591 180.9123840
117.3584061 146.3449860 -19.6723137
115.8132858 145.9987488 -17.3098297
87.0547028 143.3279724 2.5586669
80.6405945 143.2288208 3.7979298
69.2711868 143.3702545 3.9757531
68.0229721 143.4118958 3.8379984
66.7752838 143.4547729 3.6721888
65.5413666 143.5019836 3.4910474
60.5481491 143.7509155 2.3734591
-40.0021324 119.3745422 168.1453857
-40.9627304 119.1051712 169.9324646
-67.4721680 116.5108719 189.1647949
-68.4582367 116.4969635 189.3629761
-69.4708710 116.4820251 189.5476379
-70.4772263 116.4776688 189.6987000
-71.4843292 116.4727097 189.8240967
-80.7027893 116.6121216 189.7626953
-81.7501984 116.6593857 189.6107178
-82.7760696 116.6973877 189.4351959
-83.8255310 116.7422638 189.2339172
-84.8688049 116.7901917 189.0129700
-99.0097046 117.9871674 182.6998596
-100.1502380 118.1362839 181.8580322
-101.3164444 118.3017426 180.9263763
118.9548340 147.9330597 -21.9945564
117.3074646 147.5267792 -19.2455635
115.7831726 147.1861267 -16.9412041
87.0412598 144.5076904 2.8180885
80.6096344 144.4107361 4.0529480
69.2562485 144.5538635 4.2293453
68.0112915 144.5949554 4.0920196
66.7647171 144.6400604 3.9267573
65.5221252 144.6891785 3.7290473
64.2820435 144.7444458 3.5008872
-40.0579453 120.6418152 166.6339722
-41.0414009 120.3215637 168.5950928
-67.5345840 117.5871582 188.5464020
-68.5293579 117.5690613 188.7466888
-69.5345917 117.5617752 188.9186707
-70.5496063 117.5453033 189.0756836
-71.5547028 117.5443878 189.1947632
-72.5733719 117.5489197 189.2864075
-73.5808258 117.5504456 189.3561859
-74.6050110 117.5608597 189.3982239
-75.6183548 117.5728989 189.4170227
-76.6591187 117.5903778 189.4103699
-77.6772766 117.6082077 189.3812256
-78.7081223 117.6280899 189.3232727
-79.7379227 117.6713562 189.2224426
-80.7770538 117.6980286 189.1097260
-81.8250427 117.7408905 188.9574280
-82.8452225 117.7792206 188.7851105
-83.9102936 117.8355331 188.5718842
-84.9507370 117.8784637 188.3494415
-99.1397171 119.1321716 181.7725677
-100.2950668 119.2895355 180.8827515
-101.4548187 119.4582977 179.9168854
118.9260864 149.1304474 -21.6472416
89.6049652 145.7707825 2.3095827
88.3039474 145.7298279 2.6933205
87.0216827 145.6934204 3.0448415
85.7120590 145.6624146 3.3650017
84.4448776 145.6395111 3.6310468
76.8041763 145.6064148 4.5781937
69.2411575 145.7406616 4.4552007
64.2636032 145.9366150 3.7022471
62.9970360 145.9975281 3.4415135
61.7901382 146.0579834 3.1714940
58.0528412 146.2861786 2.0996876
-41.1025658 121.5891190 167.0891876
-42.0646744 121.2994690 168.8773499
-43.0201263 121.0511780 170.5438843
-99.2740097 120.2879410 180.7714844
-100.4314499 120.4519653 179.8412476
118.8788681 150.3315277 -21.3276329
89.5754089 146.9589081 2.5210302
88.2896652 146.9174500 2.9029651
87.0024872 146.8818054 3.2487659
85.6983490 146.8510437 3.5637503
84.4053726 146.8259735 3.8483310
83.1280212 146.8070984 4.0982542
81.8492432 146.7860718 4.3233509
80.5764160 146.7830505 4.4906902
76.7934799 146.7981415 4.7923083
72.9995956 146.8415680 4.8507433
71.7404404 146.8661041 4.8170872
70.5005264 146.8952026 4.7543488
69.2304993 146.9333649 4.6391869
64.2477264 147.1284332 3.9043951
62.9748840 147.1901398 3.6375675
61.7515450 147.2559967 3.3477297
60.5037804 147.3274841 3.0231462
59.2783356 147.4032593 2.6668978
58.0339928 147.4856873 2.2733748
56.7867508 147.5731964 1.8503118
-42.1604538 122.5472107 167.3381500
-43.1151886 122.2729416 169.1400452
-99.4187088 121.4620972 179.6773682
-100.5875168 121.6366577 178.6872101
118.8578262 151.5463562 -21.1026058
117.2012634 151.1341553 -18.4029961
115.6676102 150.7884979 -16.1170082
89.5568237 148.1502991 2.6998339
88.2675934 148.1085510 3.0879142
84.3974304 148.0193939 4.0074296
83.1191177 148.0022125 4.2439184
81.8503647 147.9866791 4.4637232
80.5648422 147.9752197 4.6557288
79.2875519 147.9688721 4.8190403
78.0299530 147.9723816 4.9176216
71.7310486 148.0604553 4.9807620
64.2388382 148.3212891 4.0946074
62.9853439 148.3850708 3.8196201
56.7901802 148.7761993 1.9995983
55.5410271 148.8711700 1.5354923
-43.2106895 123.5423889 167.5211487
-44.1489487 123.2707901 169.2698364
-45.0962830 123.0401764 170.8180847
-97.2679901 122.3248749 180.3063354
-98.4117737 122.4857178 179.4321442
-99.5704498 122.6545563 178.4627686
117.1839066 152.3541412 -18.2419109
115.6540833 152.0083008 -15.9720078
89.5597534 149.3516235 2.8316078
83.0886078 149.1952515 4.4043450
79.2721863 149.1655579 4.9525290
78.0105286 149.1684570 5.0642042
64.2260056 149.5262299 4.2034192
62.9752083 149.5903625 3.9348843
56.7852440 149.9841614 2.1196299
55.5403671 150.0821533 1.6459022
54.3079987 150.1841736 1.1333547
-43.3104401 124.8631973 165.6672516
-44.2564735 124.5441895 167.6023254
-45.1931534 124.2902145 169.2750854
-97.4188385 123.5181580 179.1127319
-98.5689621 123.6862183 178.1748657
117.1668549 153.5840302 -18.1455917
115.6401901 153.2373352 -15.8846569
89.5404129 150.5540619 2.9414248
88.2341232 150.5118713 3.3131123
83.0895920 150.3919067 4.5401173
79.2648697 150.3689117 5.0563178
78.0135422 150.3719177 5.1624999
66.7099609 150.6219177 4.7373323
65.4570084 150.6777954 4.5225372
64.2093124 150.7393494 4.2802553
62.9732056 150.7971039 4.0219712
54.2984314 151.3973389 1.2271600
53.0703926 151.5068970 0.6824547
-45.2994919 125.5865326 167.5442657
-46.2671967 125.3203964 169.2017212
-47.2047462 125.1043701 170.6574249
-93.0528564 124.1438904 180.9576263
-94.1739120 124.2742538 180.2755890
-95.2983627 124.4148102 179.5271454
-96.4472656 124.5742950 178.6858826
-97.5951385 124.7414551 177.7767334
-98.7662735 124.9323120 176.7674103
117.1812134 154.8339386 -18.1666203
115.6274872 154.4725037 -15.8392677
89.5319290 151.7609558 3.0187683
88.2292328 151.7161560 3.4058137
83.0822144 151.6016998 4.6065397
81.8155823 151.5884094 4.8152132
80.5164185 151.5732727 4.9953260
79.2710495 151.5782928 5.1212997
77.9954681 151.5821075 5.2278705
76.7372131 151.5865021 5.3097820
75.4725952 151.6005859 5.3491440
74.2026672 151.6175232 5.3672795
72.9562683 151.6397552 5.3525205
71.6989136 151.6674500 5.3088593
70.4555054 151.6997986 5.2443328
65.4539871 151.8875122 4.5947466
64.2091827 151.9497986 4.3436036
62.9515152 152.0145874 4.0779266
54.2883530 152.6172333 1.2959743
53.0612335 152.7265472 0.7521363
51.8169861 152.8448944 0.1605561
50.5911903 152.9682617 -0.4603417
32.0921593 156.0439453 -17.1735077
30.8607502 156.3931580 -19.1525555
29.6063042 156.7915649 -21.4094009
-46.3669815 126.6562042 167.3641968
-47.3150635 126.3859100 168.9801025
-93.1992722 125.3395844 179.7448425
-94.3393860 125.4901810 178.9931030
-95.4703751 125.6376038 178.1863403
-96.6312256 125.8090591 177.2730255
-97.7813873 125.9943619 176.3035431
117.1691742 156.0839844 -18.2001801
115.6350098 155.7207489 -15.8703852
89.5342560 152.9739075 3.0657275
88.2376556 152.9283752 3.4649916
83.0736923 152.8145142 4.6445103
71.6865845 152.8802032 5.3483391
70.4629211 152.9083252 5.2826476
65.4408112 153.1038818 4.6339693
51.8058548 154.0753784 0.1686200
50.5854950 154.2003937 -0.4603190
49.3485184 154.3289337 -1.1198242
48.1212540 154.4693604 -1.8169219
38.2478714 155.9369049 -9.6204395
34.5437317 156.7066498 -13.8444443
33.3175316 157.0027771 -15.4977398
32.0937805 157.3229370 -17.2974854
30.8719616 157.6762390 -19.2789536
-47.4115677 127.7543030 167.0132599
-48.3965721 127.4527130 168.6628265
-49.3362579 127.2315445 170.1034698
-91.1398621 126.3075562 179.7413025
-92.2692337 126.4420700 179.0821533
-93.3697510 126.5689774 178.3906403
-94.5138397 126.7247772 177.5757446
118.8808975 157.8173676 -21.1974201
117.1847382 157.3516083 -18.3362923
115.6418991 156.9782715 -15.9672031
89.5180511 154.1861572 3.1017332
84.3662109 154.0475464 4.4239206
83.0666275 154.0277252 4.6569805
71.6868134 154.1030579 5.3559351
70.4384995 154.1342010 5.2829332
65.4384766 154.3247681 4.6411128
51.8123474 155.3060608 0.1602240
50.5764122 155.4367371 -0.4734942
49.3464050 155.5673218 -1.1390872
48.1238136 155.7095795 -1.8549800
46.8700943 155.8641815 -2.6367414
45.6595345 156.0173035 -3.4437523
44.4195633 156.1861420 -4.3256025
43.2014465 156.3645325 -5.2684126
39.4895096 156.9714050 -8.4833307
38.2423973 157.2024231 -9.7259331
34.5497665 157.9813843 -13.9695282
33.3276596 158.2812500 -15.6289692
32.0971527 158.6126099 -17.4688931
30.8561096 158.9773254 -19.4808445
-48.5293350 128.8168640 166.5767670
-49.4696960 128.5458984 168.2065887
-91.3116531 127.5368423 178.3652954
-92.4370575 127.6788788 177.6581268
-93.5464935 127.8216019 176.8926239
-94.7048187 127.9819107 175.9911957
117.2416382 158.6408234 -18.5633163
115.6697998 158.2532959 -16.1574192
89.5072784 155.4050140 3.1021683
84.3686066 155.2693481 4.4153914
83.0714645 155.2499542 4.6575561
71.6827545 155.3213501 5.3385978
70.4328308 155.3570709 5.2665200
65.4431534 155.5464630 4.6323428
44.4202499 157.4368896 -4.3936720
43.1777382 157.6214600 -5.3496590
41.9627266 157.8107605 -6.3504601
40.7140961 158.0207520 -7.4499712
39.4902191 158.2367249 -8.5959606
38.2571449 158.4662933 -9.8270760
34.5547256 159.2620087 -14.1350098
33.3307838 159.5722656 -15.8328762
-49.5940170 129.9814606 165.9353943
-50.5696335 129.6817017 167.5851440
-51.5205879 129.4519958 169.0294495
-52.4771805 129.2514343 170.3220825
-53.4342461 129.0717316 171.4976807
-89.2648163 128.5526428 178.1129456
-90.3779068 128.6731567 177.5029907
-91.5021210 128.8068848 176.8196259
-92.6305771 128.9564362 176.0486145
117.2704010 159.9314575 -18.8256340
115.6858368 159.5356293 -16.3926029
89.5213318 156.6364136 3.0491133
88.2261429 156.5933075 3.4347286
86.9482269 156.5554504 3.7816925
85.6413193 156.5211639 4.1056061
84.3707428 156.4938507 4.3789945
83.0805664 156.4730377 4.6272554
71.6866226 156.5491791 5.3052220
70.4436951 156.5842285 5.2371154
69.1820908 156.6131134 5.1375523
67.9289703 156.6681671 4.9820218
66.6843872 156.7206116 4.8059955
65.4389420 156.7751770 4.5986528
44.4200516 158.6958313 -4.5130081
43.1808510 158.8840790 -5.4758105
41.9579544 159.0781555 -6.4927363
40.7054787 159.2928467 -7.6025114
39.5034409 159.5026093 -8.7297754
38.2529297 159.7424622 -9.9896641
34.5582504 160.5578003 -14.3676195
33.3221130 160.8802032 -16.1188374
-51.6536903 130.8776855 166.8058624
-52.6175919 130.6109161 168.2536316
-53.5743256 130.4038391 169.5614166
-89.4454422 129.8185120 176.5312042
-90.5610733 129.9477081 175.8513794
117.3258972 161.2526855 -19.2480297
115.7255478 160.8348846 -16.7209911
34.5634041 161.8615723 -14.6550970
33.3375397 162.1881866 -16.4129143
-53.7348671 131.7889862 167.3063812
-54.6872520 131.5813904 168.6135712
-55.6552925 131.3987427 169.8037872
-56.6206932 131.2401581 170.8579559
-57.5965271 131.0872040 171.8429413
-85.2515106 130.6722260 176.9837646
-86.3297272 130.7670288 176.5268555
-87.4428406 130.8855591 175.9790497
-88.5448151 131.0027161 175.3858032
-89.6631775 131.1364288 174.6958008
115.7679825 162.1453247 -17.1029835
34.5686722 163.1782379 -15.0038509
-54.8600311 133.0695190 166.0870972
-55.8291168 132.8288422 167.4761047
-56.7902222 132.6275940 168.6516418
-57.7620125 132.4480133 169.7549286
-85.4457016 131.9850922 175.2075806
-86.5335083 132.0914764 174.6796570
-87.6536636 132.2194214 174.0627747
-88.7729263 132.3631439 173.3907318
115.8150787 163.4675903 -17.5585938
76.7377625 160.1679840 5.0247469
75.4728241 160.1784973 5.0676537
34.5823364 164.5032196 -15.4029627
33.3401718 164.8517914 -17.2339077
-56.9687729 134.1396484 165.9688110
-57.9524307 133.8871307 167.2448425
-58.9063072 133.7041626 168.3906555
-59.8889313 133.5501404 169.3858032
-60.8597488 133.4219971 170.2389374
-61.8458710 133.2987366 171.0578918
-62.8201942 133.1940308 171.7761230
-63.8135452 133.1063232 172.3968048
-79.1902466 132.8653259 175.2970581
-80.2518387 132.9199219 175.0960999
-81.3237610 132.9814453 174.8408966
-82.4011688 133.0613708 174.5178833
-83.4867935 133.1438293 174.1451569
-84.5616913 133.2320251 173.7041626
-85.6771927 133.3515472 173.1465607
-86.7816467 133.4819183 172.5425873
115.8896942 164.8158417 -18.1179619
76.7657471 161.4260559 4.8281326
75.4846344 161.4247742 4.9002542
34.5920830 165.8429260 -15.8777981
33.3581505 166.2043762 -17.7653542
-62.0397491 134.7447052 168.6462860
-63.0186539 134.6185608 169.4465027
-64.0089874 134.5118561 170.1551208
-79.3908234 134.2252808 173.2782288
-80.4691315 134.2821655 173.0375366
-81.5489044 134.3544006 172.7338867
-82.6310654 134.4480286 172.3659058
-83.7181396 134.5401917 171.9132690
-84.8148346 134.6478424 171.3757324
116.0025253 166.1992188 -18.8129311
114.3971558 165.7717590 -16.3600254
112.8938293 165.4214478 -14.2601128
34.6065521 167.1976929 -16.4291325
-64.2298431 135.9926758 167.4685211
-65.2273865 135.8815002 168.1958008
-66.2097473 135.7877960 168.8339081
-67.2125397 135.7037048 169.4121704
-68.2098007 135.6437378 169.8917236
-69.2280502 135.5798645 170.3212738
-70.2378006 135.5316010 170.6597290
-71.2672424 135.5028076 170.9325256
-72.2891693 135.4837341 171.1471863
-73.3286972 135.4813690 171.2884521
-74.3656158 135.4805145 171.3831787
-75.4017792 135.4909210 171.4095764
-76.4632721 135.5167084 171.3670044
-77.5011139 135.5443420 171.2792053
-78.5771027 135.5936890 171.1071167
-79.6359329 135.6475220 170.8843536
-80.7182312 135.7250061 170.5560608
114.4879684 167.1434326 -17.0005856
112.9468384 166.7659302 -14.8487701
34.6206818 168.5702209 -17.0557594
-67.4751587 137.2565308 166.3426361
-68.4674149 137.1803589 166.9327240
-69.4899902 137.1035461 167.4100647
-70.5003586 137.0399628 167.8003845
-71.5255890 136.9967957 168.1199036
-72.5491333 136.9755249 168.3636475
-73.5824738 136.9604034 168.5429993
-74.6282501 136.9730835 168.6083679
-75.6684113 136.9806366 168.6324463
-76.7348175 137.0241547 168.5477600
-77.7875671 137.0733948 168.4171753
-78.8733521 137.1616821 168.1887665
114.5828247 168.5351257 -17.8151684
113.0189896 168.1299133 -15.5461636
37.1069183 169.2603149 -14.1814737
35.8693771 169.5935974 -15.8946667
34.6305161 169.9640198 -17.7634335
-71.8560867 138.7597809 164.2914734
-72.8748779 138.7194366 164.6129913
-73.9019089 138.7035980 164.8305664
-74.8888702 138.6660004 165.0281830
113.0960083 169.5112305 -16.3273964
37.1293793 170.6367645 -14.8544388
35.9012909 170.9816437 -16.6192932
113.1867828 170.9168701 -17.2259636
111.6749039 170.5467682 -15.0369492
110.1497040 170.2071533 -13.0483847
37.1467781 172.0353394 -15.6318798
35.9169388 172.4008484 -17.4646702
113.3152390 172.3660736 -18.2830734
111.7719650 171.9576416 -15.9775257
110.2503433 171.6039276 -13.9024677
37.1733742 173.4507141 -16.4995708
111.8754807 173.3903809 -17.0227203
110.3513794 173.0189362 -14.8531218
39.6491699 174.1970978 -14.0174389
38.4226990 174.5321198 -15.6673574
37.2120972 174.8859100 -17.4466228
112.0374756 174.8823700 -18.2785072
110.4379578 174.4443054 -15.8957195
39.6935654 175.6143036 -14.9194479
38.4466934 175.9774933 -16.6686802
110.6026001 175.9418030 -17.1764679
109.0942764 175.5632477 -15.0551014
107.6175995 175.2397461 -13.2040024
42.1710892 176.4273376 -12.8405066
40.9211273 176.7469788 -14.3641768
39.7071762 177.0798645 -15.9741917
109.2362747 177.0505676 -16.2901917
107.7261353 176.6925964 -14.3354263
42.2138214 177.8651733 -13.8231611
40.9629135 178.2057648 -15.4319277
107.8644409 178.1841431 -15.6092653
106.4071350 177.8564758 -13.7920847
104.9499664 177.5800781 -12.1696262
44.6960373 178.7396851 -12.0990753
43.4595222 179.0356293 -13.4772863
42.2545433 179.3339996 -14.9446049
41.0145988 179.6862183 -16.6224194
108.0191040 179.7094116 -17.0489597
106.5395432 179.3405762 -15.1001625
105.0649567 179.0428925 -13.3622980
44.7368469 180.1994324 -13.1899443
43.5184708 180.5040283 -14.6224880
42.2995567 180.8344269 -16.2064972
41.0599556 181.2162323 -17.9881630
106.7099609 180.8944702 -16.6617737
105.2031860 180.5447388 -14.7400970
47.2253838 181.1266785 -11.7795849
45.9986496 181.3919678 -13.0296755
44.7765694 181.6987915 -14.4134674
106.9186401 182.5031586 -18.4163475
105.3511658 182.0847015 -16.2942257
47.2759819 182.6176758 -12.9908485
46.0660324 182.8853912 -14.2817554
105.5746078 183.7284241 -18.1095963
104.0649948 183.3468018 -16.1401634
102.5736008 183.0077515 -14.4007006
47.3414536 184.1285400 -14.3206568
46.1225929 184.4333954 -15.7399330
44.9131126 184.7636719 -17.2846413
102.7488708 184.6017609 -16.1362514
47.4089661 185.6785431 -15.8379459
46.1892815 186.0195618 -17.3808517
102.9937897 186.2918854 -18.1887016
101.5130768 185.9217377 -16.3526821
100.0592117 185.6168976 -14.7578220
52.3704948 186.1347656 -12.4010963
51.1566772 186.3830872 -13.4908962
49.9128456 186.6669464 -14.7346420
48.7088203 186.9479218 -16.0460110
47.4678421 187.2959290 -17.5734806
100.2681580 187.2602081 -16.7253494
52.4378357 187.7028046 -13.9481068
51.2294083 187.9600525 -15.1154785
100.5163574 189.0083160 -19.0087433
98.9935760 188.6227264 -17.1821709
97.5693588 188.3446198 -15.6882820
96.1609192 188.1160889 -14.3629560
94.7994080 187.9186249 -13.2226229
57.4545746 188.3837433 -11.6603651
56.2279320 188.5751953 -12.5039349
55.0007324 188.7960663 -13.4498625
53.7776794 189.0357208 -14.4993095
52.5336342 189.3002930 -15.6847343
51.3215103 189.5857544 -16.9747925
97.7996521 190.0739746 -17.9837914
96.3411102 189.7584991 -16.4232578
94.9619598 189.5316010 -15.1319542
57.5520592 189.9557953 -13.2775974
56.3194504 190.1705322 -14.2003155
55.0890274 190.3987427 -15.2246866
53.8659668 190.6724548 -16.3962421
52.6259842 190.9751892 -17.7116127
51.4161949 191.3156281 -19.1346512
96.5851135 191.5379486 -18.9422951
95.1773453 191.2432404 -17.4586315
93.7460327 190.9999542 -16.1114349
92.3661575 190.8155518 -15.0070477
90.9927444 190.6499634 -14.0251694
89.6433716 190.4943542 -13.1392317
62.6093102 190.8366547 -12.0435524
61.3579674 191.0043640 -12.7020264
60.1310196 191.1709747 -13.4085808
58.8869438 191.3787689 -14.2358866
57.6527672 191.5803070 -15.1244574
56.4218521 191.8217621 -16.1438637
95.4474640 193.1008606 -20.2235069
93.9923096 192.7887268 -18.6780300
92.5704880 192.5405426 -17.3684425
91.1680603 192.3208618 -16.2006092
89.8160172 192.1541748 -15.2127466
62.7249680 192.4672699 -13.8908501
61.4608803 192.6645050 -14.6390505
60.2448959 192.8311615 -15.3850975
58.9925919 193.0566406 -16.3013706
57.7738953 193.2850647 -17.3150826
91.4125519 194.1336670 -18.8896141
90.0223618 193.8979034 -17.7163353
88.6520767 193.7397766 -16.7437172
87.2870026 193.6030273 -15.9107609
85.9527588 193.4742126 -15.1788216
84.5991821 193.3795319 -14.5501413
67.8424149 193.5902863 -13.7979641
66.5857162 193.7143250 -14.2440414
65.3416290 193.8523560 -14.7607250
64.0771408 193.9926300 -15.3399954
62.8469772 194.1666107 -16.0339947
61.5978317 194.3584595 -16.8369522
57.9179535 195.0933838 -19.9506798
90.3180466 195.8482666 -20.8434792
88.9088974 195.5784607 -19.5863781
86.1782379 195.2944946 -17.7611198
84.7968826 195.1329041 -17.0294209
67.9886475 195.3068542 -16.0400009
66.7261505 195.4338226 -16.5239830
65.4871979 195.5821075 -17.0864067
64.2255020 195.7571106 -17.7737026
62.9973412 195.9550171 -18.5936623
61.7562981 196.1653595 -19.5211372
85.0488815 197.0419617 -20.0759773
83.7081070 196.8927307 -19.3345718
82.3549576 196.7825775 -18.7325153
81.0344925 196.7263641 -18.2709427
79.7044525 196.6651154 -17.8584404
78.4032135 196.6624451 -17.6158257
77.1088867 196.6418304 -17.4166336
75.7990723 196.6541290 -17.3284416
74.5268097 196.6870117 -17.3477173
73.2347717 196.7432098 -17.4647446
71.9691086 196.8087769 -17.6443043
70.6961212 196.8920135 -17.9111919
69.4262848 196.9933777 -18.2823048
68.1663437 197.1236877 -18.7620411
66.9103851 197.2599487 -19.3036308
82.6645966 198.8535309 -22.3652725
81.3063202 198.7250061 -21.7531471
79.9661789 198.6212769 -21.2783642
78.6566925 198.5894012 -20.9228878
77.3484955 198.5781555 -20.6831112
76.0296173 198.5628662 -20.5305309
74.7491379 198.6022034 -20.5504856
73.4544678 198.6555481 -20.6494560
72.1897812 198.7247925 -20.8488159
70.9216461 198.8273468 -21.1963120
69.6554108 198.9759064 -21.6451416
-63.4303627 -89.2860718 158.4325104
-63.9579544 -89.3182678 158.5466766
-63.3222046 -88.8240051 157.9943542
-63.8505325 -88.8188705 158.0700378
-63.7234268 -88.3579788 157.6416473
-72.9840393 41.3664360 151.9962921
-69.1641693 41.8430710 152.6565552
-69.6521988 41.8138161 153.0221558
-70.1524887 41.7957497 153.3818054
-70.6600494 41.7835808 153.7139587
-71.1648026 41.7820816 153.9608002
-71.6587448 41.8187180 154.1923065
-72.1879654 41.8626976 154.3710785
-72.7075653 41.8537903 154.5818634
-80.2286606 41.8467255 154.4998932
-80.7425003 41.7785263 154.3045197
-81.5641022 42.2477531 156.1672974
-64.3200378 42.8951225 153.0321350
-64.8003693 42.8906784 153.6495056
-67.7736053 42.7753754 156.4300995
-68.2547913 42.7691498 156.6480713
-78.1078339 42.6612167 158.8261414
-78.6435547 42.6888733 158.7659912
-81.3524933 42.7270699 158.1290741
-64.1244659 43.3514404 155.2556458
-82.2918243 43.1648064 159.4466705
-85.6684723 43.1771889 157.7088623
-63.9489784 43.7617073 157.0462036
-82.1329880 43.5969734 160.9612732
-82.6759949 43.6103783 160.7800598
-83.2228088 43.6269493 160.5634460
-83.7781677 43.6490173 160.3273315
-85.4593201 43.6689072 159.4810944
-86.0259628 43.6602783 159.1413269
-86.6200790 43.6653786 158.7383575
-87.1955490 43.7043190 158.3324738
-62.8301735 44.1859169 157.8308563
-86.4230042 44.1701241 160.3878021
-62.2576370 44.6646042 158.9212952
-62.7143097 44.6736870 159.3361206
-86.2645493 44.6157150 161.8500061
-60.1383667 45.2039070 158.3836060
-60.6014404 45.1953735 158.8893280
-61.0620613 45.1950073 159.3804474
-61.5849571 45.1657906 159.8518524
-60.0361710 45.6795807 159.7696228
-60.5245285 45.6575813 160.2346802
-61.0046959 45.6224022 160.6387329
-61.4995651 45.6104927 161.1093903
-90.5283508 45.5870552 161.6897125
-58.4685402 46.1854515 159.5805359
-54.4794540 46.8282585 155.5777588
-54.9473267 46.7928162 156.3841400
-55.3825378 46.7920456 157.2731781
-55.7967377 46.7861214 158.1074219
-56.8468552 46.6499557 159.1891022
-57.3702621 46.6508827 159.7654419
-57.8840446 46.6521225 160.3227844
-58.3718147 46.6352654 160.8141785
-53.4427910 47.3799629 155.5627747
-52.8725090 47.8678436 156.2563477
-53.3522758 47.8433762 157.1025238
-52.7756958 48.3187332 157.7357025
-53.2530098 48.2866096 158.5237122
-94.4714279 48.0182266 164.3058319
-53.1587563 48.7109909 159.8016815
-94.2859192 48.5072174 165.4829712
-94.8917313 48.5140266 164.9891968
-95.5223389 48.5121613 164.4337158
-95.3695221 48.9951439 165.5592804
-52.9923515 49.6079178 162.0779419
-95.2350540 49.4617538 166.6039886
-95.8195877 49.4738731 166.1485596
-96.4247665 49.4695091 165.6342926
-50.0003929 50.2560272 158.9865112
-96.2815857 49.9575958 166.6761017
-49.4701385 50.7505875 159.3853607
-49.9601135 50.7308693 160.1769409
-96.1528625 50.4320221 167.6575012
-96.7517700 50.4484596 167.1712189
-97.3518829 50.4609070 166.6504822
-97.9611435 50.4735603 166.1067657
-48.8766899 51.7117500 160.8887482
-48.3128738 52.1854630 161.1340790
-48.7801628 52.1481628 161.8235779
-99.3672028 51.9611168 167.4037628
-48.7439690 52.6073494 162.8683777
-99.2424240 52.4304161 168.3116760
-99.8665619 52.4460335 167.7381744
-100.4820480 52.4625893 167.1572571
-100.3355865 52.9506493 168.0820618
-100.9360352 52.9803276 167.5114288
-47.6265221 53.5807381 163.2524261
-100.2300415 53.4192810 168.9299927
-44.7108269 54.2988930 159.4410095
-44.1720467 54.7952156 159.5229950
-44.6621361 54.7654533 160.4534760
-44.6034126 55.2181664 161.3967438
-43.1299591 55.8209610 159.7000122
-43.6021080 55.7704048 160.6174011
-44.0871735 55.7239609 161.5193787
-44.5606003 55.6751366 162.3341980
-42.6109886 56.3361969 159.7324677
-102.0840302 55.8471603 170.7675629
-42.0796890 56.8484726 159.6951599
-42.5488358 56.7875328 160.6430511
-101.9931335 56.3025703 171.5041962
-102.5984573 56.3218918 170.9800568
-41.5517159 57.3583260 159.6510162
-40.5444794 57.9223709 158.5346222
-41.0297813 57.8625298 159.6135406
-41.5114174 57.8060989 160.6273193
-102.9987640 57.2801552 171.8552704
-105.2526245 58.3583717 170.8556824
-40.4054413 59.2697906 161.3230133
-105.1427917 58.8346100 171.5468140
-105.7753677 58.8594322 170.9196167
-39.8958778 59.7852859 161.2229309
-40.3830261 59.7314148 162.1677856
-39.3661919 60.2922020 161.0348511
-103.7781219 59.6883240 173.9379578
-38.8467255 60.8013039 160.8593750
-39.3399124 60.7530785 161.8440247
-103.6829605 60.1522408 174.5454559
-39.3010521 61.2119713 162.5964050
-106.0034637 60.7743263 172.8943024
-106.6505661 60.8017235 172.2648926
-38.7976456 61.7277908 162.4146118
-39.2528000 61.6642342 163.2725677
-105.9185104 61.2431717 173.5017853
-107.0007706 62.2456741 173.4408264
-37.2083092 63.7555428 162.2995911
-108.0809174 63.2531052 173.3224792
-36.2087250 64.3433456 160.9313049
-36.1874428 64.8096466 161.6172485
-107.9068527 64.1906281 174.4284210
-107.7591858 65.1361084 175.4231415
-35.1152191 66.3227158 161.4631805
-108.7967606 66.6360245 175.6144104
-35.0552444 67.7107010 163.3037720
-108.7304535 67.1106491 176.0597534
-109.3564835 67.1505508 175.4492798
-109.9690933 67.1922302 174.8502045
-35.0469856 68.1799011 163.8712769
-34.0486717 68.7913589 162.3724976
-34.5435867 68.7201462 163.4119263
-35.0233765 68.6484222 164.3900757
-109.8386383 68.1364594 175.7204895
-34.0602570 69.2609634 162.9679718
-69.9772263 67.2437363 189.7939148
-70.4690170 67.2416687 189.8645020
-70.9711151 67.2368317 189.9259644
-71.4840164 67.2314911 189.9807892
-81.6956940 67.2982407 189.9545288
-82.2086258 67.3023682 189.8804016
-82.7386856 67.3119278 189.8021545
-33.5070877 69.7975693 162.3423462
-34.0334282 69.7258606 163.4633026
-109.7157669 69.0822220 176.5361786
-110.3465805 69.1265564 175.9235992
-66.9252548 68.1934357 189.7716370
-67.4200439 68.1925735 189.8767090
-67.9184189 68.1926498 189.9774323
-84.7662201 68.2917252 189.9960480
-85.3078918 68.3026505 189.8864136
-85.8174667 68.3233109 189.7850189
-109.6525269 69.5587234 176.9256592
-109.6027374 70.0302353 177.2940521
-110.2363968 70.0760727 176.6781158
-110.8618164 70.1231384 176.0685120
-32.9508820 71.2742615 162.7993317
-64.8977280 69.1721115 189.8258514
-65.3795166 69.1620483 189.9445190
-87.3415146 69.3006134 189.9264679
-87.8859940 69.3123856 189.7876282
-32.9242516 71.7399826 163.2835083
-110.7441025 71.0708313 176.8157196
-62.8535614 70.1427078 189.7278900
-63.3485756 70.1327133 189.8779449
-89.3926010 70.3040619 189.8773804
-89.9262390 70.3230362 189.7125854
-32.8683090 72.6956787 164.3458557
-62.8377800 70.6106644 189.9541321
-89.8979187 70.7942810 189.9560242
-110.6290283 72.0269547 177.5023651
-111.2385788 72.0811157 176.8877258
-32.8440285 73.1335449 164.6293182
-61.8186607 71.1014328 189.8559570
-90.4327316 71.2710190 190.0106964
-90.9434662 71.2960510 189.8494568
-111.8140259 72.6138458 176.5621796
-112.4618073 72.6676865 175.8871155
-32.8756104 73.6071472 165.0869141
-111.7477493 73.0928574 176.9084167
-32.8655891 74.0841827 165.4585419
-59.8089027 72.0916367 189.6073761
-60.3143883 72.0794220 189.7870331
-60.8086128 72.0678406 189.9560852
-91.9729919 72.2750549 189.9451141
-30.9453678 74.9522324 161.4733429
-31.4226017 74.8417969 162.7782745
-31.8998032 74.7437210 163.8787231
-32.3646317 74.6514206 164.8578644
-32.8587837 74.5584259 165.8284302
-59.7959175 72.5550537 189.8065338
-111.6643524 74.0376511 177.5464020
-112.3045502 74.0918350 176.8940430
-30.9265099 75.4128647 161.8614044
-58.7869072 73.0567551 189.6318359
-59.2794914 73.0415497 189.8183594
-92.9976807 73.2660599 189.9821472
-111.5831146 74.5154037 177.8843231
-112.2536697 74.5742798 177.2032318
-30.4643974 75.9929962 161.0694580
-30.9250832 75.8823547 162.2894440
-58.7815781 73.5287552 189.8253632
-111.5739899 74.9948349 178.1449585
-29.9882030 76.5708847 160.2638245
-56.8016167 74.0648956 189.1959534
-57.2431107 73.9988937 189.3535919
-94.0047989 74.2578583 190.0001526
-56.7179985 75.0274200 189.4990082
-95.0607681 75.2514877 189.9423676
-111.4557953 76.4241791 178.9447174
-56.7345848 75.4987564 189.6897278
-111.4088898 76.9052505 179.1931610
-112.0270538 76.9750443 178.5155487
-30.8524475 78.2383804 164.0851135
-96.0825195 76.2520599 189.8495178
-112.6015320 77.5355759 178.1114044
-29.8764000 78.9162903 162.1551361
-30.3634930 78.8153152 163.2957458
-30.8556061 78.7133865 164.4276428
-29.8567429 79.3938065 162.4475250
-55.7486267 76.9325867 189.7910767
-96.5852203 77.2325363 189.9445343
-97.1425400 77.2622604 189.6810760
-113.8012009 78.6193542 177.1493530
-55.7304688 77.4040298 189.9423523
-97.1142197 77.7392883 189.8532410
-113.8207245 79.0904922 177.2956543
-51.7757225 78.0406952 188.0998993
-52.2714958 78.0196304 188.3805084
-52.7538033 77.9946213 188.6427917
-53.2657471 77.9763565 188.9133148
-54.7248688 77.9151230 189.6295319
-55.2239647 77.8961487 189.8640747
-97.1156464 78.2123566 190.0062256
-53.2432747 78.4460297 189.0574951
-113.7094650 80.0476990 177.9511414
-114.3468094 80.1146469 177.2841797
-29.8545895 81.3113327 163.5948486
-53.7262688 78.9002457 189.4482422
-98.1565247 79.2273865 189.8019409
-113.6938095 80.5308228 178.1443329
-28.8436050 82.0290527 161.3437958
-29.3824654 81.9058762 162.6921082
-29.8489304 81.7945709 163.8309174
-98.1307449 79.7069550 189.9539795
-113.6703339 81.0147324 178.3349152
-28.8434753 82.5108871 161.5968781
-28.8432312 82.9925079 161.8512421
-51.7393379 80.4177628 188.7845764
-52.2251091 80.3958130 189.0509033
-52.7171288 80.3714676 189.3175964
-28.8281879 83.4756165 162.0707550
-99.1800385 81.2102432 189.8010101
-112.3676758 82.3263474 180.1160736
78.4784698 104.0070419 -39.2932968
77.7868500 103.9841690 -39.0663567
77.1219330 103.9687500 -38.8639145
76.4666977 103.9559708 -38.6722336
75.7924347 103.9473114 -38.5470734
75.1238937 103.9423370 -38.4450340
74.4658508 103.9413223 -38.3801422
73.8094025 103.9478378 -38.3605461
73.1641922 103.9571304 -38.4252357
72.4887085 103.9735489 -38.4939957
71.8325500 103.9847870 -38.5849915
71.1982956 104.0074081 -38.7123718
70.5445480 104.0277405 -38.8859291
69.8969498 104.0537415 -39.0882912
69.2542572 104.0832443 -39.3206177
68.6131897 104.1223755 -39.5896416
-99.1791458 81.6880417 189.9178314
-112.3478699 82.8105087 180.2779541
82.3742599 104.5676804 -38.7450371
65.8994141 104.6542511 -38.3264809
-51.7296143 81.8526993 189.1114655
-52.2146263 81.8263168 189.3778687
-99.1875458 82.1667862 190.0249329
-113.5688019 83.4368973 179.1475525
84.2923508 105.0500336 -37.5209541
83.6164246 105.0683899 -36.8405304
82.9323883 105.0776520 -36.3148460
82.1950455 105.0016403 -36.2482605
65.7645721 105.1227417 -36.0828705
65.1287918 105.1252975 -36.4526215
64.5163651 105.1625366 -36.7848015
63.8786926 105.2006912 -37.2393723
-28.3232441 85.0718842 161.3152466
-28.8587627 84.9328766 162.7097168
-51.7248154 82.3314667 189.2185364
-113.5421295 83.9224167 179.2956543
86.1830292 105.6113663 -36.9147568
61.9382401 105.8194199 -36.5528717
-50.7334824 82.8605576 188.7608795
-99.7114334 83.1643066 189.9481201
-100.2475433 83.2025528 189.6554413
-113.5364990 84.4108047 179.4099884
87.3972397 106.1258545 -35.8272171
86.6909409 106.1058044 -35.2761497
85.9876709 106.0797882 -34.7215347
61.7967644 106.3137970 -34.5420876
-100.2399826 83.6836243 189.7552490
87.9057007 106.6250839 -34.3714981
87.2178421 106.6192856 -33.7363510
59.1732597 106.9847107 -34.8328857
-49.7546539 83.8705215 188.3626099
-100.2091064 84.1649933 189.8639069
-112.2696457 85.2430038 180.8950195
-112.8986740 85.3165054 180.2637482
92.0540390 107.4684067 -36.7950287
91.3351669 107.3946152 -35.9117203
90.6153259 107.3297577 -35.0916939
88.4812698 107.1581879 -32.9357872
87.7890091 107.1054077 -32.4661827
87.0886536 107.0593185 -31.9634857
59.0733681 107.4321442 -33.1409492
58.4580269 107.4732742 -33.6420403
57.8329926 107.5316772 -34.2033043
57.1806221 107.5843506 -34.9139328
-49.7420158 84.3486252 188.4445038
-100.2173157 84.6477051 189.9459381
-112.2856369 85.7347183 180.9683990
56.5258102 108.1661530 -33.8484039
-28.7968159 87.3824234 163.4144287
-100.2379150 85.1320953 190.0160217
-112.2644577 86.2228622 181.0745087
56.4354515 108.6634674 -32.2016029
55.1903915 108.8122482 -33.4159508
54.5477104 108.8229980 -34.1712608
-28.7844791 87.8737335 163.5352325
-112.2637405 86.7139816 181.1492157
-112.8864746 86.7895660 180.5140991
-113.4659958 86.8625870 179.9022675
-114.0768890 86.9401016 179.2544098
93.7102585 109.0270538 -33.1479836
-29.7566166 88.1245804 165.9259491
52.5400696 110.0221176 -33.1499405
51.9087296 110.0904922 -33.9426651
-29.7598305 88.6163712 166.0306702
-50.6993408 86.2152634 189.3365784
93.4342499 109.9184799 -29.8120098
-29.7489491 89.1137543 166.0838623
-50.6993103 86.6978302 189.3880005
-100.7333298 87.1112442 189.9768982
-101.2909851 87.1530075 189.6536865
-113.4464035 88.3426361 180.1009827
94.7207260 110.5179367 -29.7014771
93.9926987 110.4675140 -28.9991035
93.2892532 110.4132462 -28.3574276
-29.7481480 89.6111755 166.1392670
-50.7052155 87.1802673 189.4409027
-101.2876740 87.6395874 189.7058563
-113.4477615 88.8377991 180.1502380
-29.7566013 90.1080017 166.1991577
-101.2876968 88.1275635 189.7481842
-113.4547882 89.3348007 180.1829071
98.8471222 111.9426117 -31.7447014
98.0841217 111.8677750 -30.7739773
97.3299255 111.7954788 -29.8672657
-29.7420006 90.6113510 166.2002258
-101.2796173 88.6152725 189.7889862
-113.4490662 89.8310852 180.2199860
49.7676010 112.8398285 -29.2878017
-29.7522602 91.1095963 166.2423553
-101.2874603 89.1051331 189.8153839
-113.4424515 90.3279953 180.2506866
100.0280685 113.0955200 -30.5509510
49.7219887 113.3467255 -28.0996895
49.1063805 113.4319916 -28.8126888
48.4928551 113.5320511 -29.5595112
47.8749161 113.6396637 -30.3599949
47.2333870 113.7266006 -31.2266598
46.5835228 113.7836227 -32.1216125
-29.7716999 91.6069717 166.2903595
-50.6892586 89.1175079 189.5779877
-101.2479172 89.5905685 189.8650208
-113.4445190 90.8268738 180.2654114
45.9205322 114.3796387 -31.6754055
-29.2449532 92.2378006 165.1852570
-29.7619896 92.1133652 166.2693787
-50.7116852 89.5989532 189.6156616
-101.2575150 90.0810623 189.8805695
-113.4415894 91.3259048 180.2776337
102.0065994 114.3485718 -30.6473999
101.2480392 114.2558365 -29.6403809
45.8838120 114.8942795 -30.4256535
-29.7822361 92.6129150 166.2983856
-101.2736435 90.5737991 189.8870087
-113.4301529 91.8242874 180.2904205
102.6359177 114.9319916 -30.2976456
-29.7555828 93.1272812 166.2133484
-101.2730560 91.0652618 189.8984680
-113.4404602 92.3267822 180.2722931
103.2120743 115.5225525 -29.8616924
102.4556961 115.4304428 -28.8448849
44.5313530 116.0974579 -29.8352280
-29.7657528 93.6326904 166.1921539
-101.2740936 91.5558243 189.9041595
-113.4488754 92.8302765 180.2474976
-29.7435799 94.1498260 166.0931549
-48.7655373 91.6698074 188.4562531
-49.2551308 91.6384201 188.7664032
-49.7233849 91.6109695 189.0563202
-50.1995735 91.5825195 189.3464050
-101.2785721 92.0496979 189.9019012
-113.4592209 93.3358383 180.2114410
103.6995468 116.5945282 -28.2612476
-29.7768364 94.6506424 166.1013489
-101.2668381 92.5403366 189.9017487
-113.4752350 93.8427734 180.1580048
105.1547241 117.2915878 -29.1346989
-29.7750549 95.1640472 166.0235291
-101.2850342 93.0379715 189.8763885
-112.2511215 94.1768570 181.4051514
105.0160751 117.7805405 -27.9329262
-29.7866917 95.6749649 165.9586639
-53.4388504 93.0454636 189.6237488
-53.8144875 93.1090164 189.1348419
-54.2010117 93.1745529 188.6317902
-101.2926331 93.5324936 189.8523712
