59.8957024 173.5895081 12.9661865
58.6720047 173.6976929 12.5391178
-36.4972458 143.6473236 177.4278717
-37.4505997 143.2565918 179.3903503
-38.4001350 142.9179688 181.2174988
-43.1499557 141.7221527 187.9153137
-44.1072998 141.5399933 188.9689636
119.8088379 177.6210785 -7.5414200
85.9597931 173.8712158 15.0976276
84.6863556 173.8563843 15.3215466
80.9107666 173.8359833 15.7841015
79.6393280 173.8463135 15.8757439
78.3970795 173.8617249 15.9187307
77.1610489 173.8817749 15.9411297
75.9160385 173.9055481 15.9351864
74.6692810 173.9388123 15.8930635
73.4108276 173.9769135 15.8286343
72.1919403 174.0179596 15.7304182
70.9345169 174.0733185 15.5855112
69.7589340 174.1006470 15.5508394
66.0152740 174.3217468 14.7976885
64.7805634 174.4053650 14.5041399
61.1189995 174.6747284 13.4825916
59.8805847 174.7798462 13.0698652
58.6618423 174.8909454 12.6280756
57.4212494 175.0118103 12.1345730
56.2052155 175.1383209 11.6137619
54.9917374 175.2680206 11.0687084
-37.5085449 144.5530243 177.9515839
-38.4786339 144.1553497 179.9181366
-43.2062531 142.8847351 186.9753265
-44.1729012 142.6833496 188.0733948
-45.1262512 142.5104370 189.0939636
119.8081818 178.8475189 -7.5247331
85.9600677 175.0549622 15.2015209
84.6546860 175.0341949 15.4245272
83.4112549 175.0247040 15.6035271
82.1444397 175.0187988 15.7638569
80.9071426 175.0244141 15.8805342
79.6286545 175.0258942 15.9686222
75.8996887 175.0874481 16.0395355
74.6680984 175.1234436 15.9868994
73.4023285 175.1651306 15.9102392
72.1680450 175.2070770 15.8057480
64.7747498 175.5947113 14.5950460
53.7647209 176.6069031 10.5591965
-38.5281487 145.4689941 178.4145660
-39.4817886 145.0986481 180.2457581
-40.4266701 144.7996979 181.8896790
-45.1992798 143.6611023 188.1705017
-46.1354675 143.5059814 189.1429749
119.8022308 180.0820618 -7.5560493
85.9482880 176.2427063 15.2751541
84.6611633 176.2291107 15.4858208
83.4136353 176.2151794 15.6787453
82.1398239 176.2057800 15.8349113
80.9023972 176.2210999 15.9277277
79.6220551 176.2217255 16.0240364
75.8957214 176.2823792 16.0944214
74.6529160 176.3139191 16.0435638
73.3876190 176.3585510 15.9628067
72.1670380 176.3996887 15.8669348
64.7664490 176.7901764 14.6594048
53.7667885 177.8147430 10.5871487
37.9361191 180.6430969 -2.0994875
36.7228775 180.9727173 -3.6399269
35.5040054 181.3324432 -5.3364234
34.2876472 181.7270203 -7.2107749
-39.5262985 146.4279175 178.6812897
-40.5159950 146.0501709 180.5137329
-45.2664337 144.8378296 187.1607208
-46.2078247 144.6654358 188.1597900
-47.1768417 144.4942017 189.1590118
119.8260498 181.3373718 -7.6787577
78.3833923 177.4331055 16.1260300
77.1334152 177.4495087 16.1462631
75.9002686 177.4654999 16.1391850
70.9342957 177.6387939 15.8116484
69.7027969 177.7037659 15.6430225
68.4570007 177.7607117 15.4528837
67.2335815 177.8292389 15.2355146
65.9924164 177.9096375 14.9729118
64.7673187 177.9873657 14.6905298
53.7687225 179.0318909 10.5749416
52.5501862 179.1835938 9.9295416
51.3065224 179.3526611 9.2272625
50.1095581 179.5171051 8.5140133
48.8858871 179.6975403 7.7293010
44.0263176 180.5297546 4.0453205
42.7972488 180.7751770 2.9505944
41.5753784 181.0313721 1.7942142
40.3492584 181.3047180 0.5408288
39.1533775 181.5902100 -0.7771165
37.9389954 181.9010315 -2.2108240
34.3009758 183.0030060 -7.3814788
-40.5777054 147.3940430 178.9247742
-41.5298615 147.0486755 180.6252289
-42.4850311 146.7429810 182.1936188
-47.2569962 145.6633453 188.1230927
-48.2043800 145.5104370 189.0545959
119.8702240 182.6103821 -7.8834004
78.3637390 178.6221619 16.1383343
77.1231995 178.6490479 16.1617966
72.1786804 178.7901611 15.9435635
70.9223938 178.8412170 15.8156147
69.6987076 178.9058990 15.6448669
68.4656525 178.9664459 15.4520302
67.2234955 179.0404510 15.2224464
66.0080872 179.1111908 14.9749842
64.7742157 179.1965179 14.6834497
53.7623367 180.2514343 10.5458565
52.5361328 180.4093170 9.8932343
51.3163795 180.5713196 9.2037773
50.1132889 180.7410736 8.4764147
48.8787460 180.9316101 7.6670504
47.6716843 181.1256409 6.8181672
46.4480362 181.3313751 5.9169965
45.2244034 181.5468597 4.9678359
44.0232773 181.7718506 3.9602489
42.8089294 182.0164032 2.8690624
41.5966415 182.2747955 1.7041857
40.3582191 182.5593872 0.4227073
39.1681061 182.8472443 -0.8937230
37.9363136 183.1685791 -2.3668950
34.2942009 184.2960815 -7.6179876
33.0588989 184.7533112 -9.7273455
-42.5782394 148.0344543 180.6754761
-47.3340492 146.8658752 187.0067749
-48.2826920 146.6875610 187.9807892
-49.2519150 146.5303955 188.9079285
-96.3440475 147.4572449 189.0289612
119.9013977 183.8943634 -8.1536608
118.3040314 183.4225311 -5.6919088
116.7992630 183.0221558 -3.5567234
78.3764648 179.8405762 16.1215363
77.1368942 179.8527985 16.1474934
73.3948822 179.9547729 16.0239277
72.1783371 180.0022430 15.9346943
36.7308006 184.7969360 -4.1796279
35.5195045 185.1782074 -5.9515662
34.3148575 185.5938110 -7.8804235
-42.6729774 149.3907623 178.9256592
-43.6120529 149.0526123 180.5926666
-44.5553589 148.7699280 182.1044312
-49.3371735 147.7263336 187.7778320
-50.2864189 147.5806885 188.6396179
-51.2475548 147.4427185 189.4729156
-95.3922272 148.5125275 188.6335449
119.9553452 185.2052155 -8.5334682
118.3348770 184.7086792 -5.9864526
116.8379745 184.3019867 -3.8314440
78.3774109 181.0460358 16.0781994
77.1335297 181.0651855 16.0898666
75.8884583 181.0943604 16.0713615
74.6404419 181.1319580 16.0349846
73.3986511 181.1680298 15.9785786
72.1771164 181.2098999 15.8812866
36.7446404 186.0908356 -4.4550071
35.5107994 186.4955139 -6.3060198
34.3041382 186.9238892 -8.2802143
-43.7044106 150.4407959 178.7615967
-44.6583939 150.1025085 180.4239807
-49.4210243 148.9645081 186.5290527
-50.3777847 148.7991638 187.4409790
-51.3450203 148.6380920 188.3126831
-52.3013649 148.5099182 189.1119690
118.3827515 186.0101166 -6.3547258
116.8779755 185.5940704 -4.1688395
39.1821518 186.6900787 -1.5920662
37.9487839 187.0384521 -3.1499515
36.7629776 187.3953247 -4.7909269
35.5319214 187.8126526 -6.6885056
-44.7471924 151.5254517 178.4671326
-45.7197533 151.1722107 180.1109009
-46.6539993 150.9055176 181.5575256
-47.6063652 150.6511078 182.8955078
-48.5498619 150.4268036 184.0709534
-51.4337158 149.8762665 187.0503845
-52.3974838 149.7244873 187.8932343
-53.3660774 149.5772095 188.6992493
-54.3328247 149.4752655 189.4166565
-91.2058868 150.2310028 189.4275208
-92.3057327 150.4124146 188.6024475
118.4593048 187.3374634 -6.8220544
116.9080200 186.8910522 -4.5374837
39.1828384 188.0008698 -1.9497876
37.9602623 188.3565674 -3.5493333
-47.7263489 151.9950562 181.1338196
-48.6615067 151.7508545 182.4125366
-51.5317650 151.1440125 185.6628113
-52.4940681 150.9794617 186.5583496
-53.4703751 150.8318024 187.3831024
-54.4417915 150.6853790 188.1544800
-55.3942337 150.5796051 188.8289948
-56.3759918 150.4651794 189.5108643
-90.2525101 151.3223877 188.7458038
116.9680862 188.2165222 -5.0190091
39.2045135 189.3139648 -2.3450351
-47.8598251 153.4195709 179.0657959
-48.8072128 153.1112366 180.5478821
-55.5034790 151.8273163 187.4877167
-56.4862480 151.7104187 188.1713867
-57.4571686 151.6027832 188.8087158
-58.4393616 151.4990234 189.4246826
-87.1100311 152.1200104 189.3563538
-88.2232590 152.2790680 188.6734924
-89.3334961 152.4512177 187.9286652
-90.4583359 152.6517639 187.1065674
118.6227570 190.0500336 -8.0006742
117.0423737 189.5639496 -5.5991635
39.2127304 190.6485596 -2.8111010
37.9853096 191.0270386 -4.4960823
-48.9317169 154.6173859 178.2668304
-55.6239052 153.1279755 185.9897614
-56.6045876 152.9837036 186.7337952
-57.5760269 152.8738861 187.3849182
-58.5581284 152.7733459 187.9967041
-59.5118752 152.6736908 188.5580444
-60.5066605 152.5889130 189.0849915
-61.4973755 152.5320282 189.5417328
-84.0262680 153.0132141 189.4901733
-85.0964432 153.1266327 188.9843750
-86.2116241 153.2820587 188.3703766
-87.3012390 153.4368744 187.7234192
-88.4114227 153.6101990 186.9861603
117.1287613 190.9303131 -6.2682095
115.5593719 190.4786987 -3.9911458
114.0899200 190.1138611 -2.0657985
39.2138863 192.0021667 -3.3461318
-50.0403023 155.8527374 177.2802277
-50.9785690 155.5291595 178.7978058
-51.9355736 155.2371826 180.1778870
-52.8785782 155.0035858 181.3871460
-53.8391418 154.8008728 182.4825439
-54.8019867 154.6195679 183.4529877
-55.7486649 154.4630127 184.3019409
-56.7270737 154.3177643 185.0972443
-61.6240807 153.7877197 188.0969238
-62.6157074 153.7173157 188.5424957
-63.6094398 153.6632843 188.9421539
-64.5951843 153.6167297 189.2944641
-79.9322052 153.8966064 189.5447388
-80.9876785 153.9866333 189.2032776
-82.0598221 154.0839386 188.8115082
-83.1220856 154.1923523 188.3717499
-84.2071457 154.3291016 187.8516388
-85.2935715 154.4738159 187.2751465
-86.4033966 154.6383667 186.6129761
-87.5051041 154.8118744 185.8892365
-88.6349564 155.0391235 185.0276337
115.6356430 191.8443298 -4.6595435
114.1501160 191.4543762 -2.6520865
39.2542000 193.3533325 -3.9069676
-53.9973946 156.2601318 180.2539673
-54.9567986 156.0501556 181.3588867
-55.9007835 155.8681793 182.3283691
-56.8765640 155.6954651 183.2344360
-61.7611122 155.1119385 186.4944458
-62.7499542 155.0337982 186.9612732
-63.7473145 154.9658508 187.3795776
-64.7300797 154.9127350 187.7371216
-65.7335663 154.8634644 188.0653381
-66.7168732 154.8251038 188.3414459
-67.7384567 154.8050537 188.5662079
-68.7375031 154.7860260 188.7546692
-69.7496719 154.7827301 188.9050446
-70.7617722 154.7831421 189.0189972
-71.7847443 154.7953644 189.0735016
-72.8127518 154.8183899 189.0794983
-73.8273010 154.8422241 189.0538635
-74.8771210 154.8869476 188.9646759
-75.9017181 154.9187622 188.8560181
-76.9562073 154.9819641 188.6793823
-77.9881668 155.0410309 188.4832458
-79.0450592 155.1239014 188.2140198
-80.1072235 155.2050629 187.9048157
-81.1684875 155.3140869 187.5247345
-82.2510757 155.4370117 187.0784454
-83.3154602 155.5575714 186.5878754
-84.4206238 155.7093048 185.9891205
115.7235184 193.2306671 -5.4128613
114.2116852 192.8190613 -3.3198214
39.2585144 194.7438507 -4.5989556
-57.0440369 157.1574554 181.0148315
-57.9944534 156.9842224 181.9244690
-58.9783630 156.8313293 182.7479248
-59.9441071 156.7033081 183.4579773
-60.9326630 156.5842285 184.1069336
-61.9106979 156.4865112 184.6750793
-62.9005203 156.3975525 185.1876221
-78.1691589 156.4043274 186.7047729
-79.2381439 156.4991455 186.3916931
-80.3080292 156.6042175 186.0208435
-81.3811569 156.7132263 185.6079712
-82.4643326 156.8441467 185.0967712
-83.5397034 156.9913025 184.5157318
115.8477783 194.6587372 -6.3432517
114.3044128 194.2090912 -4.1177688
39.3004913 196.1406708 -5.3584719
-58.1945038 158.5137787 179.3751068
-59.1692467 158.3374023 180.3250427
-60.1305466 158.1888123 181.1401367
-61.1061478 158.0607605 181.8584137
-62.0842361 157.9336853 182.5305023
-63.0680809 157.8306732 183.1124573
-78.3872833 157.8349152 184.6340485
-79.4561539 157.9311676 184.2704620
115.9703827 196.1109161 -7.3308840
114.3984299 195.6187744 -5.0001144
112.8920975 195.2105408 -2.9486911
111.4472504 194.8703003 -1.1963565
41.7311020 196.7903748 -2.8652439
40.5143776 197.1712341 -4.5047541
39.3231354 197.5785675 -6.2528353
-62.2927132 159.4894714 179.9053802
-63.2738037 159.3665466 180.5833282
-64.2722855 159.2540131 181.1795807
-65.2573547 159.1697083 181.6571045
-66.2628632 159.0914764 182.1139526
-67.2545166 159.0485687 182.4663696
-68.2720413 159.0208740 182.7312927
-69.2758942 158.9908905 182.9494781
-70.2987518 158.9769592 183.1135101
-71.3145218 158.9704437 183.2288513
-72.3423691 158.9845276 183.2711945
-73.3873825 159.0092468 183.2574615
-74.4186630 159.0559387 183.1589966
-75.4707642 159.1152954 182.9943848
-76.5136108 159.1765442 182.7868042
-77.5753250 159.2642517 182.5023956
-78.6380005 159.3768158 182.1451874
-79.7121506 159.4934998 181.6652985
114.5359650 197.0779114 -6.0136271
112.9960022 196.6272430 -3.8521347
111.5594177 196.2740936 -2.0400479
41.7802849 198.1923828 -3.6667013
40.5466080 198.6075134 -5.4172606
-66.5118790 160.7307129 179.1922302
-67.5005569 160.6711273 179.6141052
-68.5226135 160.6182556 179.9281616
-69.5179138 160.5677032 180.1739807
-70.5317307 160.5466919 180.3740997
-71.5648117 160.5498657 180.4822998
-72.5920715 160.5703888 180.4974213
-73.6458740 160.5930634 180.4515686
-74.6835327 160.6425476 180.3355408
-75.7441483 160.7302246 180.1256104
113.1206970 198.0860443 -4.9125185
111.6459732 197.6884918 -2.9560497
46.6197052 198.2947388 1.0376010
45.4116058 198.5908051 -0.2017256
44.2006683 198.9151459 -1.5461205
42.9936905 199.2673950 -3.0073409
41.8042603 199.6385803 -4.6033573
40.5771332 200.0761108 -6.4196563
113.2538147 199.5799561 -6.1272888
111.7633286 199.1481476 -4.0402594
46.6595116 199.6972961 0.2511957
45.4500923 200.0057220 -1.0355426
113.4087982 201.1192017 -7.5008297
111.8913498 200.6353912 -5.2417707
110.4216995 200.2384491 -3.2934284
108.9387970 199.8854218 -1.5351049
46.6947556 201.1187592 -0.6276151
45.4920502 201.4432678 -1.9647288
110.5395813 201.7301788 -4.5245972
109.0523529 201.3528442 -2.6636679
46.7387657 202.5672455 -1.5996668
45.5337563 202.9111023 -3.0070653
44.3228340 203.2891235 -4.5367565
110.7252960 203.2993317 -5.9511399
109.1811981 202.8543091 -3.9393771
107.7366486 202.5069580 -2.2114635
106.3118286 202.2008820 -0.6718151
46.7839203 204.0411682 -2.6824954
45.5888672 204.4016876 -4.1636300
109.3557892 204.4225006 -5.4146028
107.8700180 204.0277100 -3.5440793
106.4248657 203.6765289 -1.8617353
46.8318787 205.5586853 -3.9171166
45.6473465 205.9325256 -5.4747458
108.0419464 205.6045532 -5.0538573
106.5616684 205.2065887 -3.2368288
51.7114830 205.7803955 0.0423668
50.5164566 206.0572052 -1.0835346
49.3075562 206.3720245 -2.3389795
48.1079636 206.7157898 -3.7153959
46.8879852 207.1063538 -5.2798414
106.7219009 206.7829285 -4.8056479
51.7802505 207.2710571 -1.1338716
50.5799713 207.5761566 -2.3396549
49.3617325 207.9213867 -3.6992159
106.9512711 208.4692993 -6.6507149
105.4794312 208.0411377 -4.8000374
104.0184708 207.6977234 -3.1354012
51.8359222 208.8226776 -2.4913025
50.6623611 209.1209412 -3.7397676
105.6721725 209.7155151 -6.7368851
104.1878891 209.3139496 -4.8915334
51.9197922 210.3939667 -3.9911737
50.7247314 210.7508850 -5.3939447
49.5163345 211.1632385 -6.9694905
104.4175644 211.0408630 -6.9427433
102.9506149 210.6561584 -5.1900444
101.5284195 210.3361664 -3.6729634
100.1224747 210.0421753 -2.2939565
98.7505112 209.8171997 -1.1225272
56.8457375 210.7947083 -0.9345573
55.6336517 211.0610504 -1.9508176
54.4245224 211.3530426 -3.0724590
53.2186661 211.6756287 -4.3334742
52.0040932 212.0382080 -5.7427044
101.7216721 212.0241089 -5.6375699
100.3049316 211.7000885 -4.1643844
98.9267578 211.4345093 -2.8567061
56.9240074 212.3948669 -2.4987793
55.7181625 212.6760864 -3.5957632
54.5236320 212.9878387 -4.8459063
53.3522110 213.3523407 -6.2942939
100.5261993 213.4417572 -6.3374419
99.1065674 213.1056976 -4.8501806
97.6883392 212.8502808 -3.5386348
96.3175201 212.6277924 -2.4194441
59.4623413 213.4826355 -2.1774828
58.2326050 213.7442017 -3.1673169
57.0241814 214.0335388 -4.2616620
99.3566895 214.9261780 -7.2252364
97.8930206 214.5815430 -5.6961665
96.4992218 214.3143768 -4.4377069
59.5696335 215.1505432 -4.0281391
58.3478737 215.4373779 -5.1190262
57.1412964 215.7653351 -6.3394489
96.7619324 216.1525574 -6.8751216
95.3337097 215.8303528 -5.5576572
93.9657593 215.5965881 -4.4234176
92.6009521 215.4169159 -3.4596989
91.2544403 215.2637939 -2.6451368
62.1091728 216.3563538 -4.1663947
60.8824387 216.6163940 -5.1269569
59.6797714 216.9097900 -6.1839170
58.4613800 217.2458801 -7.4041710
95.6250381 217.7753906 -8.3753157
94.2170105 217.4342041 -7.0256643
92.8020782 217.1838379 -5.8354092
91.4510345 217.0122070 -4.9020634
62.2523880 218.1301422 -6.4510069
93.1115494 219.1961975 -8.8544636
91.6870499 218.8955994 -7.6608148
90.3280029 218.6892700 -6.6551685
88.9980087 218.5216980 -5.7978125
87.6543732 218.3653870 -5.0554290
86.3134155 218.2604523 -4.4638824
85.0136108 218.1919098 -3.9916453
83.6940002 218.1270447 -3.5740571
72.2360840 218.4273071 -3.5654676
71.0079041 218.5382385 -3.9113612
69.7480164 218.6825714 -4.3735571
68.5116348 218.8531342 -4.9286747
67.2881317 219.0237122 -5.5434117
66.0628357 219.2418213 -6.3045187
64.8523102 219.4588165 -7.1346927
63.6215286 219.7595215 -8.1712570
62.4196053 220.0877991 -9.2933826
87.9209671 220.3079529 -7.9783220
86.5462494 220.1637878 -7.2401967
85.2449646 220.0608826 -6.6620755
83.9036102 219.9725342 -6.1824026
72.4180374 220.2521667 -6.0554519
71.1817627 220.3724518 -6.4434748
69.9357758 220.5535278 -6.9931827
68.7020721 220.7325134 -7.6251054
67.4794617 220.9333191 -8.3659105
66.2476807 221.1982269 -9.2380295
85.5571136 222.1728058 -10.0361099
84.1920776 222.0122986 -9.5039854
82.8797760 221.9136047 -8.9847631
81.5593109 221.8548584 -8.6355324
80.2603912 221.8460846 -8.4150152
78.9803543 221.8274078 -8.2478180
77.6968842 221.8533630 -8.2134171
76.4255371 221.9266205 -8.2896309
75.1476669 222.0001221 -8.4763393
73.9020233 222.1031189 -8.7971554
72.6398392 222.2349701 -9.1953678
-67.5418625 65.6109238 160.3101044
-68.0414276 65.5381393 160.6692352
-70.4398346 65.4385223 163.3485413
-76.8958206 65.4476700 162.1784515
-67.7918625 65.8914261 163.2604065
-70.3057098 65.7348328 164.4198761
-70.8111343 65.7558289 164.5468903
-76.6199265 65.8485641 164.6697083
-77.1509705 65.8311996 164.4700928
-78.8203583 65.8836060 163.9281769
-64.1202164 66.3555679 162.9086761
-67.5980148 66.2392654 165.3004150
-78.0209198 66.2480621 166.2259674
-63.9396629 66.7513351 164.9468079
-66.4297791 66.6170044 166.6711273
-66.9234924 66.6109543 166.8705902
-67.4297638 66.6047211 167.1033936
-77.2793732 66.5767670 168.1484222
-77.8137131 66.6038284 168.0186768
-81.6679916 66.6779099 166.4637451
-82.2369003 66.6790695 166.1297607
-62.1758690 67.5526352 167.2308197
-83.5371399 67.5339813 168.6799622
-84.1024170 67.5504761 168.3309174
-84.6657257 67.5721054 167.9512024
-85.2288132 67.5992584 167.5496826
-61.0804405 67.9549484 167.9810333
-85.6290894 68.0391235 168.7890930
-86.2131195 68.0569153 168.3445129
-56.5736809 68.6790466 164.7097626
-57.0626450 68.6511154 165.4089508
-57.5490417 68.6170425 166.0379486
-58.0249710 68.5822983 166.5949707
-58.4999695 68.5521469 167.1053467
-59.4266891 68.4513779 168.1119080
-59.9143562 68.4357529 168.5957184
-60.4302788 68.4117508 169.0423584
-60.9478493 68.3834686 169.3728943
-85.4333420 68.4630051 170.3269196
-85.2850342 68.8576279 171.7229767
-88.7238388 69.0435181 169.1832123
-89.3194427 69.0650177 168.6325226
-53.9558182 69.6993408 164.6248627
-54.4272003 69.6617584 165.3523407
-54.9235039 69.6245956 166.0855408
-85.1370773 69.2448502 173.0194550
-85.7009888 69.2680283 172.6939392
-86.2531891 69.3005905 172.3637543
-86.8199539 69.3372726 171.9864197
-87.3955841 69.3859863 171.5745697
-87.9604340 69.4318695 171.1700134
-88.5539474 69.4533157 170.6930084
-52.9266281 70.2092056 164.8394775
-52.3103485 70.6563797 165.5598755
-52.8051949 70.6159439 166.3648987
-51.7355080 71.0982971 166.3282776
-52.5198364 71.7685547 170.3303986
-91.2769318 71.7112656 174.2714233
-51.9794159 72.2041092 170.8785248
-52.4364395 72.1741562 171.4129181
-90.0060349 72.0161362 176.1730042
-90.5632706 72.0626602 175.7841644
-91.1401138 72.0979843 175.3632050
-91.7429047 72.1121140 174.9052582
-92.3340302 72.1202545 174.4346619
-51.3744507 72.7085037 171.4332123
-92.1764297 72.5629196 175.5286102
-49.9008904 73.2625351 170.6259003
-50.3767242 73.2012787 171.2370148
-50.8496017 73.1454086 171.8364868
-51.3282051 73.0948792 172.4101715
-92.0605469 72.9874344 176.5225220
-92.6334686 73.0135880 176.0944366
-93.2074509 73.0362167 175.6448364
-48.3925705 73.8067856 169.7005768
-94.2792511 73.5402527 175.6481781
-47.8367767 74.2639084 170.1063538
-48.3237877 74.2191238 170.8047943
-94.1352844 73.9877396 176.6374054
-94.7094040 74.0347748 176.1474915
-94.0029907 74.4186478 177.5821686
-46.7456398 75.1847382 170.8737488
-47.2148666 75.1352310 171.5033569
-93.8996201 74.8400955 178.4784393
-44.7732697 75.8641739 168.7769470
-46.1760406 75.6892242 171.1588898
-44.2419357 76.3455200 168.9879150
-44.7193909 76.2831421 169.8082275
-45.2107964 76.2213821 170.6410828
-45.6787949 76.1490631 171.3833008
-46.1514091 76.0848083 172.0937653
-97.0649109 76.3522797 178.2200623
-42.2237206 77.4898453 167.6612854
-96.9725952 76.7874756 179.0413818
-41.7057190 77.9310150 167.7332001
-42.1695862 77.8680420 168.6518250
-42.1172676 78.2779160 169.7281647
-42.0418968 78.6808929 170.6820679
-99.0100708 78.2573547 179.3804932
-41.9975433 79.1011887 171.6702271
-98.9100952 78.6958847 180.1368256
-99.5028992 78.7365799 179.6175232
-41.9582367 79.4997559 172.5263824
-65.9722290 78.0193024 189.5184326
-66.4789886 78.0018005 189.6168823
-66.9887009 77.9947433 189.7162628
-67.4980316 77.9860916 189.8025208
-67.9884796 77.9907303 189.8922729
-68.4786911 77.9882584 189.9684143
-79.2201614 78.0560760 189.9759064
-79.7288055 78.0723419 189.8956909
-80.2381744 78.0956802 189.8202972
-80.7732925 78.1099396 189.7224731
-81.3002701 78.1355820 189.6318817
-81.8220291 78.1447983 189.5119019
-40.0045280 80.2217789 170.0281219
-40.4990463 80.1710892 171.0361176
-40.9688568 80.0926285 171.8810577
-41.4376335 79.9923782 172.6049500
-41.9048462 79.9230499 173.3394165
-99.8706818 79.6673050 180.5875549
-100.4893036 79.7155151 180.0016174
-101.1140213 79.7606506 179.3945007
-61.9116898 78.9667816 189.4064941
-62.4218063 78.9585724 189.5788269
-62.9276237 78.9535217 189.7454376
-63.4129143 78.9416428 189.8858337
-63.8913040 78.9204102 190.0049896
-84.3525620 79.0919113 189.8665466
-84.8775406 79.1153259 189.7101288
-85.4093018 79.1444092 189.5524445
-85.9480209 79.1655960 189.3727570
-38.9641876 81.2189789 169.9480438
-61.8696709 79.4138336 189.8953705
-85.8976364 79.5951996 189.8868713
-102.0812759 80.7548981 179.7233734
-59.8431625 79.9098587 189.6498871
-60.3739929 79.9002457 189.8575287
-60.8553276 79.8591080 190.0030212
-87.4189377 80.1136780 189.8361664
-87.9610291 80.1442947 189.6262512
-37.9743843 82.2477722 169.8898773
-38.4473190 82.1499100 170.8694153
-38.9197083 82.0632935 171.7843628
-57.8149071 80.8640137 189.7688293
-58.3094101 80.8434525 189.9843903
-89.4577026 81.0949020 189.9772797
-90.0207825 81.1243210 189.7223358
-102.9928055 82.2018204 180.5724640
-36.4485168 83.3584518 168.5251617
-36.9318085 83.2640228 169.6122437
-35.9504051 83.8659134 168.4096222
-55.7908745 81.8221130 189.7310944
-56.2731323 81.7939911 189.9629517
-91.5119324 82.0899963 189.9656372
-92.0392609 82.1360931 189.7072296
-102.7477646 83.4613266 182.5717773
-103.3772888 83.5077820 181.9552612
-35.8690643 84.6932220 170.1312408
-53.7586555 82.8004837 189.5656738
-54.2482948 82.7749176 189.8320313
-93.5925293 83.1136475 189.7960205
-94.1246338 83.1613998 189.5015717
-102.6535645 83.9166794 183.2199707
-103.2642975 83.9672318 182.6386871
-35.8458290 85.1194229 170.9654083
-53.7258453 83.2354050 189.9795074
-94.0728531 83.5888062 189.9814606
-102.5956497 84.3396835 183.7836761
-52.7129097 83.7320480 189.8417511
-95.1377258 84.1085968 189.8001862
-34.7864227 86.1443253 170.4212189
-103.6324844 85.3233871 183.8366699
-50.7004013 84.7382889 189.4681396
-51.2007561 84.7023315 189.7847748
-96.6810303 85.1217270 189.7091827
-97.2338791 85.1758652 189.3511810
-103.5607300 85.7661133 184.3695068
-104.1416855 85.8165741 183.8429871
-34.7688408 86.9951630 171.9961243
-50.6687393 85.1805878 189.8708191
-97.2096024 85.6008759 189.7871246
-103.4742050 86.2100983 184.9152069
-34.7305756 87.4264755 172.6465454
-49.6837425 85.6846008 189.6397552
-50.1579704 85.6510239 189.9535980
-97.7089233 86.0909882 189.8805237
-98.2438049 86.1506729 189.5194702
-34.1962433 87.9445724 172.2857208
-34.6904106 87.8568420 173.2602234
-98.2041016 86.5789185 189.9514160
-104.5338440 87.2138290 184.8271332
-105.1422043 87.2765503 184.2458344
-48.6664162 86.6357498 189.7440186
-98.7029953 87.0754700 190.0087738
-99.2688980 87.1326828 189.6025238
-105.6416702 87.7944946 184.1871796
-33.1830788 88.9986496 171.6307678
-33.6805153 88.9078598 172.6377258
-105.5781631 88.2419357 184.6661224
-106.1803131 88.3058243 184.0709991
-33.1636276 89.4330750 172.2812042
-33.6534805 89.3372498 173.2575073
-47.6423302 87.5958176 189.7865601
-100.3070068 88.1160583 189.6354828
-106.7402039 88.8098450 183.9032288
-33.6389503 89.7671051 173.8965912
-33.5860901 90.1952362 174.4238129
-46.6303520 88.5575638 189.7909393
-101.3052902 89.1244965 189.6256104
-106.5875473 89.7053528 184.8951721
-107.2339706 89.7739105 184.2170258
-101.2791290 89.5581360 190.0107574
-106.4967041 90.1646652 185.3949280
-45.6116562 89.5400925 189.7501221
-101.8005753 90.0637970 189.9616089
-102.3769989 90.1309814 189.4946899
-32.5647011 91.7090302 174.2060089
-102.3355484 90.5695496 189.8924713
-107.6631470 91.1922684 184.9898529
-108.2465973 91.2630463 184.4027100
-44.6132050 90.5090179 189.6376648
-102.8611603 91.0739670 189.8155060
-103.4220581 91.1453781 189.3414764
-107.5590134 91.6507339 185.4731598
-44.5878220 90.9602051 189.9608002
-103.3724823 91.5865936 189.7388000
-107.4876022 92.0947113 185.9001465
-108.1066818 92.1670609 185.2706604
-30.6284752 93.4903183 171.7021484
-43.5932388 91.4919739 189.4660492
-44.0848236 91.4501266 189.8796539
-107.4247742 92.5468445 186.3054962
-30.5775452 93.9216995 172.1914978
-43.5769310 91.9419861 189.7875214
-104.3993683 93.0577393 189.8538513
-29.5965538 95.0503006 170.9996033
-107.2533951 93.8899460 187.4998016
-107.8907166 93.9623642 186.8693848
-108.5007248 94.0296555 186.2684479
-29.1038551 95.6188126 170.3688965
-29.6056519 95.4853134 171.6072998
-42.5653114 93.3829803 189.8670654
-105.4685440 94.1009979 189.5185699
-29.5824165 95.9268188 172.0857697
-105.4337158 94.5468292 189.8575134
-29.5501194 96.3670273 172.5307770
-41.5664787 94.3853683 189.5752869
-108.3232498 95.3862000 187.3791809
-29.0872078 96.9424591 171.9233856
-29.5455513 96.8038254 173.0576630
-41.5441742 94.8358307 189.8541718
-106.4779205 96.0620346 189.7319794
-108.2350616 96.2949371 188.0334015
-108.8537827 96.3715591 187.4222717
-28.5654869 97.9639206 171.6537018
-108.1894608 96.7515869 188.3541870
-28.0214653 98.5554123 170.7750702
-28.5188904 98.4010086 172.0723877
-40.5421638 96.2964096 189.7642822
-106.9914551 97.0449371 189.8000031
-107.5559616 97.1251755 189.2492676
-28.4985752 98.8406982 172.5227814
-107.5233688 97.5797043 189.5472107
-28.5095425 99.2844086 173.0007629
-39.5465355 97.3171310 189.3234406
-40.0293427 97.2600632 189.7994690
-107.4926300 98.0319901 189.8336182
-27.9564800 99.8742142 172.1323090
-28.4946442 99.7326279 173.3919067
-39.5453300 97.7715073 189.5773010
-39.5359306 98.2266388 189.8181458
-107.9879990 99.0265274 189.8379517
-108.5807571 99.1137619 189.2317963
-109.1845016 99.2022705 188.6129303
-108.5603333 99.5704956 189.4931488
-109.1739426 99.6617584 188.8594513
-109.7723770 99.7485733 188.2351074
-110.3817291 99.8374863 187.5937500
-28.4333076 101.0739822 174.4960785
-108.5221863 100.0284042 189.7609406
-28.4100876 101.5261917 174.8252563
-108.5015488 100.4859085 190.0019531
-110.2875977 100.7684860 188.0766754
80.3751450 127.9378510 -30.9871750
73.2686005 127.9943161 -30.7576942
71.2413483 128.1737671 -31.3616886
70.6474838 128.1426697 -31.7280273
-28.3942738 101.9779358 175.1510162
-38.5152245 100.1742172 189.7344055
-110.2437439 101.2231140 188.3687592
80.1879425 128.2924347 -28.2204342
73.0372086 128.3674927 -27.9563370
71.7498093 128.4632111 -28.3448124
71.1213608 128.4885864 -28.5922699
70.4794464 128.4854889 -28.8762627
69.8490753 128.4855804 -29.1713753
69.2224808 128.5202637 -29.5170403
68.5927963 128.5799866 -29.9491005
-38.4990273 100.6308975 189.9360046
-110.2180786 101.6780777 188.6391449
82.7259445 128.6410217 -26.8102188
82.0624390 128.6400146 -26.5323200
81.3538132 128.6261902 -26.2746468
-109.6314621 102.0438538 189.4964142
86.6231232 129.2186279 -26.9743366
85.9017105 129.1971436 -26.4470444
85.2280045 129.1823120 -26.0471325
83.2128067 129.0971985 -25.0450497
82.5337067 129.0600281 -24.7668171
81.8607712 129.0364075 -24.5110035
81.2058945 129.0146942 -24.2865639
67.6939697 129.3689423 -25.8179989
63.9572868 129.7427368 -28.5572395
63.3452835 129.8040314 -29.1794510
-109.5912857 102.5028915 189.7479248
62.6053963 130.2760925 -27.5676270
-37.5345573 102.1339035 189.5542450
-109.5787125 102.9615250 189.9699707
-110.1404724 103.0585556 189.3399963
-110.7372589 103.1619720 188.6684418
90.4424744 130.2987061 -25.9421978
89.7555466 130.2507935 -25.3804531
89.0446548 130.2092896 -24.8042145
62.4976006 130.6918945 -25.5707245
61.2623100 130.8656921 -26.7263756
-37.5148201 102.5942993 189.7276764
-110.1446381 103.5152435 189.5600433
-28.3481178 104.7302933 176.8254700
-37.5012856 103.0557938 189.9000549
92.9605789 131.3890991 -24.3150177
-28.3423576 105.1958008 177.0399323
-110.6713867 104.5603104 189.2646942
-111.2992249 104.6615448 188.5860443
95.6389313 132.1134338 -25.8341179
59.7523155 132.1492157 -22.7000389
-28.3340359 105.6643143 177.2366180
-110.6412659 105.0265350 189.4570618
-111.2661133 105.1279831 188.7818909
96.1659927 132.6190796 -24.6461468
95.4503174 132.5246887 -23.8451996
59.6604156 132.6180115 -21.2658539
59.0310135 132.6795044 -21.8004417
58.4151726 132.7532043 -22.3649712
57.7920990 132.8345947 -22.9864159
-28.3502598 106.1300812 177.4635925
-110.6130600 105.4931335 189.6473999
54.4097939 133.9452515 -25.9938030
-36.5089035 105.0473633 189.5026855
96.5265427 133.4996948 -21.8164177
54.6199913 134.3207855 -23.3652840
53.9991722 134.3970032 -24.1526661
-36.5051537 105.5130005 189.6523132
96.4079285 133.9025421 -20.3088684
-35.0542336 106.1881714 188.1734619
-36.4915886 105.9795227 189.7843475
-111.1805878 107.0120010 189.4190826
-111.7997208 107.1155167 188.7436676
96.9885712 134.4103699 -19.5302258
96.2772675 134.3468933 -18.8430500
-35.0398102 106.6569214 188.3011780
-36.4766273 106.4473114 189.9112091
-111.1677246 107.4850159 189.5607758
50.6971130 136.2311096 -23.9460964
-28.2998371 108.4763870 178.3329926
101.8104782 135.9634247 -22.4185104
101.0541916 135.8581085 -21.4132538
100.3037338 135.7522125 -20.4677849
99.5807343 135.6425476 -19.6482639
98.8610992 135.5450134 -18.8945160
50.6717415 136.6994934 -22.4915085
-28.2966232 108.9478455 178.4955292
-32.6407738 107.9968796 185.5438538
-33.1351242 107.9087677 186.2061005
-33.5946655 107.8293152 186.7959747
-34.0715942 107.7508087 187.3874664
-34.5557938 107.6738052 187.9717407
-35.0375023 107.5987015 188.5372925
-28.2955761 109.4198380 178.6493835
102.9599991 137.0700073 -21.2064991
-28.2660236 109.9009781 178.7340851
104.3571701 137.7287903 -21.7864742
-27.2717686 110.6655273 177.0833893
-35.5251656 108.9382553 189.4281006
-35.9923477 108.8655930 189.9691772
104.1588058 138.1754456 -20.2741051
-26.8188343 111.3291092 175.9096985
-27.3107567 111.1311874 177.0203094
-35.5073280 109.4117889 189.5119019
-35.5132561 109.8829346 189.6208496
105.4109344 139.2983398 -19.6003036
46.6556282 140.1889496 -20.3078442
-35.5055923 110.3575058 189.7021484
106.7885056 140.0138245 -20.3938217
-35.4999657 110.8334045 189.7727814
107.3918915 140.6003265 -20.1543255
106.6300278 140.4631042 -19.0616093
45.3593674 141.4107513 -19.8782063
-35.5004768 111.3098450 189.8399658
108.0090408 141.2016602 -19.9367828
45.3343086 141.9063110 -18.8676777
-35.5122986 111.7852859 189.9132080
109.4501801 141.9386444 -21.1014595
108.6156158 141.7927856 -19.7558956
107.8641815 141.6443329 -18.6551971
45.3118362 142.4057770 -17.8686466
-35.5046349 112.2646561 189.9591217
109.2920303 142.4143677 -19.6338634
-35.4893646 112.7463150 189.9929657
109.1572571 142.8194275 -18.4370422
109.0204163 143.2712402 -17.2027340
108.9004822 143.7286835 -16.0861511
48.7799911 144.2300110 -9.7404013
48.2185936 144.3050385 -10.2047110
47.7673416 144.4197693 -10.4319553
-26.4138889 116.8203201 175.3111877
110.1673508 144.9651642 -16.0348091
48.7751389 144.7494202 -9.0159388
-26.4170399 117.3174744 175.3029327
49.9470978 145.1022491 -7.3954492
49.3403854 145.1840820 -7.8667459
48.7568932 145.2738037 -8.3272057
-26.4106350 117.8224335 175.2472076
-26.4020023 118.3285904 175.1945648
112.9864273 147.0202789 -17.7859726
53.6201935 145.7243042 -3.6092470
53.0119629 145.7911682 -4.0364156
52.4025383 145.8501434 -4.4895201
51.7692108 145.8972931 -4.9342289
51.1515999 145.9983215 -5.3516498
50.5697327 146.1238556 -5.7168312
-26.8724976 118.6506195 176.3526306
-27.3485603 118.4875336 177.4237213
112.8225403 147.4990845 -16.6673870
114.1507645 148.7888794 -17.1488800
114.9207230 149.4502563 -17.6355076
114.0856018 149.2721252 -16.2698364
113.9466629 149.7455444 -15.2794743
53.4908028 148.4597778 -1.1072080
54.6850052 148.8309937 0.0466875
54.0899811 148.9061279 -0.2874542
-35.5305748 119.5525894 190.0038910
-35.5330391 120.0509949 189.9433899
115.2843781 151.5305939 -15.1412115
55.8658295 149.7791901 1.5796685
-27.8076420 122.3877792 177.8397369
-28.3289013 122.2395325 178.7996826
-35.5449219 120.5445709 189.8923950
115.9475861 152.2301483 -15.2949390
115.1702728 152.0231018 -14.2711124
-28.3393745 122.7550888 178.6625824
-35.5507851 121.0374222 189.8276367
58.2745934 150.6476135 3.5305567
57.6420555 150.6997375 3.2406576
57.0321198 150.7639465 2.9612579
-28.3432388 123.2783585 178.4927673
-35.5638962 121.5333099 189.7618561
116.5225067 153.4185181 -15.2215624
115.7497482 153.2328949 -13.9910173
114.9613113 153.0470123 -12.7766695
58.2816086 151.1387329 3.9074428
-28.3604183 123.7980804 178.3316040
-35.5591354 122.0398331 189.6623688
-28.3628044 124.3266068 178.1275787
-35.5661125 122.5423279 189.5693512
-27.8510952 125.0365829 176.8442230
-28.3572235 124.8577194 177.9217987
-35.5788956 123.0419769 189.4758911
117.9158173 155.3081207 -15.6239805
59.4454765 152.7621765 5.4847984
58.8266640 152.8063202 5.1166940
59.4354324 153.3326569 5.8273973
117.7273865 156.3117828 -14.1534576
59.3932762 153.8766632 6.1483383
117.6511612 156.8265991 -13.4978456
117.5611038 157.3460083 -12.8418770
-29.3814754 127.1696625 178.9175415
-36.5513306 125.4068527 190.0005188
118.3063965 158.0527954 -13.5101862
117.4701843 157.8658295 -12.2111540
-29.4098225 127.6992950 178.6869812
-36.5911064 125.9055481 189.8875580
60.5367432 155.9954987 7.8364301
-36.5659447 126.4348831 189.6840515
118.9601746 159.2918091 -13.5894012
-36.6072731 126.9302063 189.5652771
118.8694229 159.8147583 -12.9850979
60.4849358 157.1119232 8.4025888
-28.9351273 129.5335388 176.7243042
-29.4543476 129.3312378 177.8333588
-29.4609776 129.8840485 177.5180359
-29.4553299 130.4480286 177.1617279
120.3199615 161.8539124 -14.1843443
-29.4557056 131.0096588 176.8131409
-37.6050606 128.8301086 189.9954529
120.2459259 162.3885803 -13.6614275
61.6717606 159.2829132 9.8395662
-37.6373520 129.3421631 189.8157806
120.1369476 162.9241486 -13.0896435
61.6442375 159.8427124 10.0647583
-37.6440735 129.8690643 189.5946045
120.9864502 163.7041931 -14.1890526
120.1095276 163.4570770 -12.6607895
-29.9555740 132.5273438 176.7145538
-30.4693394 132.3196716 177.8249207
120.0714798 163.9901886 -12.1978226
-30.4800243 132.8865204 177.4467773
120.0170288 164.5241699 -11.7266083
61.6108131 161.5471497 10.7355986
-30.4715633 133.4702911 177.0166016
119.9833069 165.0654449 -11.3034363
61.5982094 162.1197205 10.9465227
-38.6247025 131.8043823 189.8062439
119.8940735 165.6057434 -10.8130875
61.5901222 162.6891174 11.1504898
-30.9851952 134.4352722 177.2466736
-31.5160503 134.2137909 178.3838348
-38.6767693 132.3103333 189.5993805
120.6902771 166.3614044 -11.6366301
119.8886948 166.1712646 -10.5473404
61.5773849 163.2638092 11.3467102
-31.4995747 134.8082428 177.9235229
-38.6920815 132.8478088 189.3264465
-39.1418610 132.7780151 189.8647919
83.9467697 163.1196747 13.2232075
83.3186493 163.1125488 13.3124866
82.6711578 163.1141052 13.3960705
82.0380478 163.1082153 13.4674730
81.3966370 163.1168060 13.5345993
80.7857666 163.1134033 13.5830574
62.7718201 163.7438354 11.8886223
62.1551132 163.7878876 11.7087078
-32.4986725 135.0152283 179.4859467
121.4316254 167.7530823 -12.6301956
83.9128036 163.6881866 13.4311342
80.7612152 163.6875305 13.7607450
62.7724953 164.3220673 12.0714703
-32.0299301 135.7736053 178.0480957
-32.5130882 135.5947266 179.0223083
-39.6582375 133.7585602 189.8830261
83.8858185 164.2650757 13.6309891
80.7546692 164.2555695 13.9314327
65.1964035 164.7389526 12.8244362
63.3718414 164.8584595 12.3784657
62.7473640 164.8966522 12.2182751
-32.0398178 136.3755951 177.5478363
-32.5341492 136.1746979 178.5589600
-39.6906319 134.2805786 189.6151428
83.8854904 164.8316040 13.7815275
83.2651062 164.8269348 13.8684940
82.6212158 164.8265533 13.9368868
82.0002670 164.8248749 13.9897699
81.3914413 164.8193512 14.0366287
80.7354813 164.8276978 14.1046543
65.2012405 165.3170929 12.9805298
64.5977173 165.3568115 12.8353348
63.9867249 165.3968353 12.6849422
63.3615341 165.4372101 12.5274897
62.7399750 165.4767303 12.3688049
-32.5616989 136.7629700 178.0637970
-39.7136154 134.8213654 189.3177338
-40.1860619 134.7406616 189.8716278
85.1449890 165.4193420 13.7179775
84.5013504 165.4146576 13.8162832
62.7324104 166.0562286 12.5172939
-32.5990410 137.3498535 177.5317535
85.1395798 165.9427185 13.8131304
62.7328186 166.6342773 12.6615582
62.1165581 166.6772614 12.4916010
-32.1249046 138.1862183 175.7755890
-32.6105156 137.9650421 176.9134521
-40.7020187 135.7274933 189.8115845
119.6678619 170.1214447 -8.5266390
86.4038239 166.5538788 13.7824144
85.9333038 166.7392883 13.2912636
83.2076492 166.5533295 14.3106098
61.4957809 167.3006592 12.4525118
-32.1470528 138.8131561 175.1309357
-32.6232910 138.5801544 176.3247833
-33.1015930 138.3742828 177.4524994
-33.6103973 138.1527863 178.5871582
-40.7285080 136.2751465 189.4883728
120.3712921 170.9297485 -9.4015408
119.5982971 170.6949768 -8.2822409
86.4063950 167.1684875 13.9225302
85.9495239 167.2860870 13.3252745
83.2180710 167.1277008 14.4481201
61.4848900 167.8823242 12.5816450
-33.6272316 138.7597046 178.0172577
-40.7556152 136.8181763 189.1603241
-41.2164078 136.7300873 189.6993561
89.5372391 167.8205109 13.3358908
86.3910980 167.7468567 14.0540867
85.9504929 167.8062592 13.4828444
83.1989212 167.7065887 14.5763397
82.5720291 167.7039032 14.6500149
79.4110260 167.7112122 14.9237900
61.4740524 168.4647217 12.7073107
-33.1389999 139.6098633 176.2598114
-33.6168518 139.4015808 177.3714142
-41.7175026 137.1923065 189.8990631
86.3586044 168.3225708 14.1846790
85.7270355 168.3717041 14.2936096
85.0497894 168.3557892 14.4126263
83.8147583 168.2897034 14.6180859
83.1945572 168.2850800 14.6979752
82.5514450 168.2837372 14.7739201
79.3795242 168.2939606 15.0400925
61.4789009 169.0470734 12.8273706
60.8574181 169.0951996 12.6338806
60.2223015 169.1462250 12.4274340
-41.7413940 137.7434540 189.5422668
121.9572296 173.1436310 -11.7064857
121.1107559 172.8923492 -10.2935076
89.4671707 169.0106812 13.5919285
82.5485687 168.8634644 14.8912420
79.3994598 168.8766022 15.1365881
68.8142776 169.1730804 14.6284351
68.1975937 169.2003174 14.5438366
67.5770569 169.2306213 14.4511871
66.9899979 169.2614136 14.3432131
60.2231865 169.7322083 12.5305996
-34.6312103 140.2193604 178.2681732
121.0920258 173.4761505 -10.1176653
91.4467468 169.6565704 13.1472940
90.7807770 169.6683350 13.3678608
90.1075211 169.6403961 13.5409107
89.5074463 169.5591736 13.7030067
82.5206070 169.4445343 15.0056725
81.8772430 169.4440308 15.0696144
81.2837524 169.4468536 15.1200323
79.3734818 169.4237976 15.2136259
71.2896500 169.6526642 15.0351353
70.6807556 169.6765137 14.9691372
70.0576324 169.7018738 14.8974915
69.4490356 169.7285461 14.8202734
68.8249130 169.7548218 14.7372932
60.2244186 170.3187714 12.6316881
59.6050949 170.3692780 12.4280825
-34.1491776 141.0777893 176.4805298
-34.6296577 140.8640900 177.5934143
-42.7464180 138.6792755 189.8949280
121.0843582 174.0652008 -9.9713068
85.0358658 170.0401001 14.7847843
84.3955460 170.0320435 14.8920774
83.7810059 170.0278015 14.9755306
83.1607513 170.0262756 15.0457554
68.7971725 170.3436737 14.8238430
-35.1326790 141.2857208 178.0259399
-35.6293449 141.0831909 179.0190277
-42.7792015 139.2288361 189.5165710
121.0769119 174.6576996 -9.8424215
83.1448517 170.6078491 15.1504326
77.5023880 170.6367645 15.5616264
76.8658676 170.6468353 15.5730143
76.2387314 170.6610870 15.5750914
75.6346588 170.6750641 15.5547838
68.8265305 170.9269867 14.9125099
59.0081024 171.5959473 12.4046946
-35.6672745 141.6974030 178.3931885
-42.8002701 139.7888031 189.1141052
-43.2648506 139.7142181 189.6327820
121.0598373 175.2510986 -9.7183590
83.1264725 171.1907043 15.2489033
77.5087585 171.2276154 15.6473408
76.8540497 171.2313232 15.6586533
76.2174072 171.2449493 15.6595163
75.6129532 171.2601013 15.6356297
66.9945145 171.6060181 14.6871748
66.3237076 171.6533203 14.5435009
65.6975021 171.6893158 14.4078255
58.9766655 172.1907806 12.4731970
-35.1830940 142.5670166 176.5942841
-35.6998901 142.3269043 177.7345276
-43.7771034 140.1837616 189.7614288
121.0612183 175.8541565 -9.6427631
85.0221710 171.7971649 15.0460529
84.3960495 171.7890625 15.1515875
83.7589111 171.7774658 15.2616310
83.1214066 171.7743988 15.3456821
75.6200180 171.8480072 15.7068691
65.7218628 172.2751617 14.4994373
58.9668045 172.7838440 12.5437155
58.3879433 172.8352203 12.3513994
57.9564400 172.7673035 12.5348148
-35.7073898 142.9925079 176.9920349
-43.8164978 140.7322235 189.3589325
-44.2865944 140.6669159 189.8515930
121.0547409 176.4573517 -9.5718031
80.6173935 172.3684082 15.6294012
75.6219635 172.4423828 15.7701082
68.8360367 172.6235199 15.1921043
65.7062531 172.8660126 14.5714512
57.7587547 173.5284882 12.2043686
57.1231880 173.6126862 11.9434967
-44.8132553 141.1328278 189.9566193
121.0384140 177.0600128 -9.5001774
80.6203918 172.9575806 15.7086124
75.6000900 173.0293579 15.8312559
65.7081528 173.4550934 14.6376219
57.7348976 174.0833282 12.2136669
57.1099434 174.1477203 11.9532442
56.5197334 174.2059937 11.6957941
55.9169655 174.2696533 11.4277430
-44.8403816 141.7029877 189.5104218
-45.3012314 141.6405182 189.9810181
121.0402451 177.6712494 -9.4712324
81.8511963 173.5422668 15.6719494
-36.7675476 144.5405579 176.7944031
-45.8028069 142.1270142 190.0267792
121.0191574 178.2776489 -9.4213591
83.7396393 174.1375885 15.5074272
83.1048203 174.1359711 15.5889235
82.4585724 174.1292419 15.6608238
81.8499451 174.1342468 15.7250633
-45.8607330 142.6738586 189.6179199
121.0415039 178.9015656 -9.4550514
71.2401886 174.9477692 15.6845703
65.6904373 175.2335510 14.7970276
-37.7779083 145.4588013 177.2871399
121.0430603 179.5212402 -9.4709063
71.2278442 175.5439148 15.7270727
65.7023392 175.8252563 14.8426104
36.4097061 180.1159821 -3.9697351
35.7952576 180.2938843 -4.8113289
35.1765938 180.4807587 -5.6957059
34.5823975 180.6655884 -6.5890651
33.9913979 180.8618927 -7.5307007
33.4020157 181.0691071 -8.5350914
32.7750664 181.3058624 -9.6677685
-46.8668861 143.6788330 189.6358795
121.0395508 180.1422119 -9.4934959
71.2364731 176.1375122 15.7769890
52.8562088 177.6417694 10.1379423
52.2203484 177.7421722 9.8061018
51.6138306 177.8438416 9.4503946
33.3981590 181.7194519 -8.6787300
-38.7986870 146.3836212 177.7005920
121.0540390 180.7727661 -9.5588398
71.2349319 176.7268219 15.8160667
68.1391983 176.8827515 15.3845797
67.5363770 176.9095612 15.2848845
66.9452515 176.9413300 15.1738329
66.3067245 176.9925079 15.0356903
65.6802444 177.0317230 14.8900642
52.8523216 178.2333832 10.1175919
52.2387047 178.3107452 9.7813826
51.6236153 178.3918304 9.4328671
51.0031586 178.4775696 9.0741568
50.4198761 178.5536346 8.7240229
49.8245888 178.6358795 8.3587694
49.1764488 178.7374725 7.9542866
43.7372894 179.6501465 3.8492150
43.0969620 179.7849121 3.2825608
42.5206070 179.8954315 2.7581794
41.9151382 180.0196381 2.1953745
39.4334030 180.5830994 -0.3744424
38.8514481 180.7233582 -1.0360374
33.4076996 182.3574982 -8.7671251
-47.8848190 144.6875153 189.5796051
-97.5145569 145.5877228 189.9688263
-98.0878754 145.6972656 189.4560852
121.0912170 181.4146729 -9.6762886
74.9771652 177.1716309 16.1067123
72.4057846 177.2305298 15.9314747
71.8620987 177.3022003 15.8853722
44.9335060 180.0954285 4.8146772
33.3887520 183.0065002 -8.8577242
-39.8028946 147.3657227 177.8778534
-48.8977356 145.1191406 189.9848022
-96.9981995 146.0763702 189.8875732
-97.5937042 146.1974945 189.3486633
121.0866699 182.0397491 -9.7172537
71.8594360 177.9033356 15.9020042
46.8003616 180.3791962 6.1782150
46.1646271 180.4928741 5.7069416
45.5378838 180.5884705 5.2491212
44.9389763 180.6680756 4.7923489
33.3881912 183.6497650 -8.9524641
32.7546196 183.8857727 -10.0446367
-48.9420395 145.6839905 189.4815369
-49.4169731 145.6132813 189.9267426
-96.4963760 146.5779724 189.7753754
-97.0806274 146.6905518 189.2552643
-41.8217926 147.9729767 179.8303070
-49.9405365 146.1373291 189.8279572
73.0879898 179.0648651 16.0076389
-41.8544884 148.6549377 178.9469757
-49.9825287 146.7247162 189.2799683
-50.4476585 146.6704254 189.6811371
-94.9740829 147.5149384 189.9256287
-95.5510101 147.6121216 189.4267883
-41.8928146 149.3681641 177.9902802
-94.4719849 148.0283203 189.7573395
-96.2022247 148.3597870 188.2307129
76.1977692 180.1842651 16.1292858
75.5924606 180.2033691 16.1111393
74.9584198 180.2153625 16.0892563
74.3236237 180.2280426 16.0632210
-51.9932289 147.6481171 189.7933044
-93.4359894 148.4645233 189.9951782
-93.9780960 148.5455322 189.5613098
-94.5474167 148.6498566 189.0731201
-42.4871788 150.5927887 176.9052887
-42.9939117 150.3452606 177.9476776
-52.9951782 148.1184540 189.9889374
-92.9517059 148.9825897 189.7393799
-93.5077133 149.0696106 189.2932587
33.3748398 187.6111908 -9.9912271
-43.0148582 151.1137543 176.8334503
-53.0387497 148.7173309 189.3941040
-53.5282402 148.6609039 189.7814331
-91.9071350 149.4234619 189.8979797
-92.4696808 149.5119934 189.4723969
-93.0311356 149.6014404 189.0245209
120.4494324 186.3469238 -9.5965605
119.5892715 186.0571136 -8.1662350
34.6187019 187.8044434 -8.0794373
34.0037880 188.0440826 -9.1412182
33.3604851 188.2996063 -10.2661419
34.6278801 188.4757080 -8.3190355
-55.0769958 149.6998901 189.6099091
-55.5586662 149.6460571 189.9447784
-90.4112930 150.4172211 189.6634064
119.6931152 187.3981018 -8.6445580
37.0718765 188.2927399 -4.6802092
36.4714584 188.4899445 -5.5853591
35.2498932 188.9158783 -7.5800285
34.6571198 189.1319733 -8.6116800
-46.4475327 152.0379944 179.7924347
-46.9351082 151.9061737 180.5563202
-89.3675613 150.8703308 189.7209778
-91.0500488 151.1364594 188.5268250
-91.6054382 151.2325897 188.1195831
-92.1631012 151.3457336 187.6842957
-92.7360382 151.4619446 187.2133484
-93.3387451 151.6037750 186.6699982
119.7318192 188.0739746 -8.9222040
35.3092499 189.6486206 -8.1351023
34.7158661 189.8524475 -9.1505108
-46.2881889 152.5494385 179.2899780
-47.0354881 152.6028595 179.5400085
-57.1160126 150.7144012 189.6384735
-57.6132584 150.6585999 189.9641571
-87.7967606 151.2788696 190.0155945
-88.3640518 151.3609161 189.6618958
-88.9237213 151.4396820 189.3029480
-89.4566040 151.5073547 188.9564667
-91.1459122 151.8027954 187.7293854
118.1147842 188.2146759 -6.5682926
38.2684326 189.2621918 -3.4719036
-46.6365013 153.5265656 177.5701752
-47.1040840 153.3167267 178.4274139
-91.2653885 152.4772186 186.8849487
118.1957855 188.9145050 -6.9417372
38.2813034 189.9268188 -3.7012210
37.7352066 190.0976257 -4.5282669
37.1565933 190.3561401 -5.6572423
-47.1625862 154.1029358 177.1813812
-59.1897430 151.7548676 189.4862671
-59.6753197 151.7175446 189.7467499
-60.1664848 151.6962280 189.9866791
-85.2500534 152.2134705 189.9993591
-85.8035583 152.2723083 189.7205811
-86.3517380 152.3397827 189.4227753
37.1371536 191.0070190 -5.8248954
-48.1799774 154.5059967 177.6438141
-89.1957169 153.4032288 186.8495026
-48.2572861 155.3002014 176.3534546
-62.2722054 152.7847900 189.5357513
-62.7650261 152.7544250 189.7471771
-63.2646294 152.7523804 189.9231415
-82.1962585 153.1444397 189.9004974
-82.7249603 153.2002258 189.6815491
-83.2627945 153.2545624 189.4525604
-65.3109894 153.2851563 189.8992767
118.3433228 191.6587524 -8.2785320
38.2941513 192.6283112 -4.7236085
-65.3806381 153.9113617 189.1567078
-65.8730621 153.8919983 189.3104706
-66.3558273 153.8689880 189.4541779
-66.8570099 153.8526917 189.5818787
-67.3744354 153.8412018 189.6952820
-67.8842087 153.8347473 189.7909851
-68.3830719 153.8286896 189.8764648
-68.8810043 153.8271484 189.9520111
