85.5689011 176.5943298 19.5587215
84.2918854 176.5894165 19.7350426
83.0497437 176.5856628 19.8834763
81.7961426 176.5948944 19.9807873
80.5615616 176.6053314 20.0397797
79.2975845 176.6260071 20.0804062
65.7659302 177.2295837 18.4071960
64.5398560 177.3084717 18.0947781
-26.8526535 145.3482361 187.6325378
120.3884811 181.3900909 -1.8696908
118.8817673 180.9788666 0.3192674
85.5199203 177.6933899 20.0843506
84.2517090 177.6823273 20.2492008
80.5111237 177.6968536 20.5383358
79.2576218 177.7204895 20.5685616
65.7400055 178.3314209 18.9079208
64.5124512 178.4166260 18.5808296
-26.8646908 146.4136963 187.1813965
-27.7871952 146.0398102 189.1587372
121.8849182 182.9099731 -3.5151219
120.2832336 182.4353638 -0.9814531
118.7888565 182.0363159 1.1298333
85.4791031 178.7868652 20.5670700
84.2079163 178.7779694 20.7235565
80.4850616 178.8018188 20.9894104
79.2182465 178.8276367 21.0251255
77.9907379 178.8492737 21.0243874
76.7484741 178.8855591 20.9987869
75.5247574 178.9157410 20.9407082
74.2948761 178.9617310 20.8490429
73.0479584 179.0132751 20.7305470
71.8264847 179.0653992 20.5736637
65.7021027 179.4354553 19.3738499
64.4901199 179.5270081 19.0450726
-26.8829975 147.4947815 186.6713715
-27.8178864 147.1045227 188.6898651
121.7707214 183.9598236 -2.6394401
120.1981964 183.4949951 -0.1977477
118.7119751 183.1076202 1.8451458
85.4276352 179.8939972 21.0289612
84.1709137 179.8864746 21.1834011
82.9434891 179.8862915 21.2956505
81.6775970 179.9000549 21.3752861
80.4530563 179.9088440 21.4256878
79.1946411 179.9320526 21.4567661
77.9592133 179.9570313 21.4538574
76.7215042 179.9852295 21.4302502
75.4867401 180.0252991 21.3807449
74.2645416 180.0643311 21.2861633
73.0129013 180.1210938 21.1755142
71.8018112 180.1778564 21.0226650
65.6741486 180.5457001 19.8245392
64.4550400 180.6382751 19.4853134
-27.8499336 148.1789093 188.1762695
121.6787186 185.0213013 -1.8477193
90.4322205 181.0872040 20.5107937
89.1792679 181.0527954 20.7926731
87.9209442 181.0280151 21.0382805
86.6487274 181.0126801 21.2622490
77.9258881 181.0694122 21.8617325
76.6829376 181.1000061 21.8536015
72.9916687 181.2277832 21.5936527
71.7779846 181.2846680 21.4432449
65.6534576 181.6614075 20.2350903
64.4315186 181.7576752 19.8910999
-27.8736420 149.2723694 187.6036224
123.2364960 186.6127930 -3.8349519
121.5876465 186.0962830 -1.1304457
90.4081192 182.1955566 20.9102974
89.1349792 182.1649780 21.2045135
87.8865509 182.1402588 21.4413757
86.6186829 182.1238861 21.6525784
77.8900070 182.1800079 22.2625561
76.6567459 182.2101593 22.2527313
72.9547806 182.3457336 21.9694481
71.7343369 182.3993530 21.8294754
65.6164932 182.7827148 20.6046219
64.3935547 182.8767090 20.2631950
-28.8428192 149.9730530 189.0198822
121.5220947 187.1856995 -0.5046105
92.9154282 183.3954773 20.6314545
91.6487045 183.3512573 20.9689121
90.3535156 183.3106079 21.3066406
86.5924377 183.2385712 22.0230064
85.3300323 183.2277527 22.2129669
84.0566330 183.2222443 22.3655071
82.8441467 183.2227783 22.4912434
81.5739059 183.2351074 22.5626411
75.3865814 183.3713379 22.5361462
74.1546478 183.4140930 22.4402733
70.4785233 183.5893860 21.9926853
69.2687225 183.6609039 21.7723751
65.5991898 183.9079895 20.9656410
-28.8800507 151.0799561 188.3660889
121.4504166 188.2861176 0.0693225
92.8787231 184.5153351 20.9815731
91.6270905 184.4702148 21.3234329
86.5516968 184.3574829 22.3876381
81.5618515 184.3565979 22.8947220
75.3777161 184.4951630 22.8714828
74.1459427 184.5438385 22.7681656
70.4401398 184.7182312 22.3054008
69.2424316 184.7877502 22.1014061
65.5713272 185.0362854 21.2928963
-28.9056377 152.2113647 187.6262665
122.9870911 189.8904266 -1.9308372
121.3977966 189.4012146 0.5583650
92.8369598 185.6399689 21.3146820
91.5833893 185.5931244 21.6628227
90.2989502 185.5517426 21.9857998
86.5218658 185.4821625 22.7085094
81.5286865 185.4860992 23.2023487
80.2976379 185.4980469 23.2673683
79.0374680 185.5215454 23.2819328
77.8060913 185.5503693 23.2699661
76.5762482 185.5832367 23.2443008
75.3469467 185.6244049 23.1766720
74.1051331 185.6716156 23.0680428
69.2199707 185.9166718 22.4142056
67.9874115 185.9972534 22.1615105
66.7815933 186.0814514 21.8915634
65.5413208 186.1727905 21.5766106
64.3421555 186.2662048 21.2607708
-29.8738632 152.9423523 188.8560944
122.9266434 191.0135193 -1.4634268
121.3461838 190.5275879 0.9890749
92.8218918 186.7669067 21.6179695
91.5622787 186.7211609 21.9622536
90.2763977 186.6851654 22.2665005
89.0150375 186.6563263 22.5299683
87.7681732 186.6322937 22.7699013
86.4964371 186.6156006 22.9800453
82.7603912 186.6109924 23.3875256
81.4999619 186.6144409 23.4956207
80.2763519 186.6317902 23.5247478
69.2009048 187.0560150 22.6776295
67.9624023 187.1362915 22.4292088
66.7526245 187.2210693 22.1537247
65.5353546 187.3140106 21.8416519
64.3106003 187.4101563 21.5139771
-29.9176807 154.0899506 188.0310211
122.8981094 192.1552429 -1.0937768
121.2963715 191.6637573 1.3692890
87.7426529 187.7713318 23.0138302
86.4914017 187.7570190 23.2136440
71.6243591 188.0534515 23.3473053
67.9467773 188.2771759 22.6825371
66.7235870 188.3648071 22.3982983
65.5095444 188.4593811 22.0810432
64.2938385 188.5565796 21.7511215
-30.9051056 154.8412628 189.1831360
121.2633820 192.8113861 1.6876042
87.7186203 188.9132385 23.2442207
86.4622421 188.8971252 23.4482536
82.7050934 188.8841248 23.8949127
81.4543076 188.8910675 23.9911537
74.0522766 189.0923920 23.8149281
72.8356476 189.1437683 23.7011414
66.7200089 189.5099945 22.6300411
65.5005798 189.6063538 22.3079910
64.2878571 189.7053528 21.9734879
-30.9531898 156.0121307 188.2396240
121.2264709 193.9689789 1.9570549
87.6988831 190.0549316 23.4715652
86.4331818 190.0355225 23.6866264
83.9216156 190.0328522 24.0124283
82.6852341 190.0233612 24.1238403
81.4481964 190.0399323 24.1856594
77.7279282 190.1114502 24.2323685
72.8041458 190.2930908 23.9039555
71.5976944 190.3511963 23.7566185
66.7093048 190.6617279 22.8309097
63.0655556 190.9646912 21.8080177
-31.9214401 156.8051300 189.2026062
122.7726669 195.6464844 -0.3221449
121.2134705 195.1452026 2.1330507
87.6717758 191.2004242 23.6743069
86.4238968 191.1852722 23.8710861
69.1238556 191.6573486 23.4989853
67.9086151 191.7328796 23.2675934
66.7002029 191.8187866 22.9974022
63.0632286 192.1271057 21.9597263
61.8160324 192.2486572 21.5358353
60.6190758 192.3661652 21.1191940
-31.9823761 157.9949951 188.1765747
122.7551727 196.8367615 -0.1948790
121.1838684 196.3275299 2.2792170
87.6526947 192.3553162 23.8249378
86.4410095 192.3375854 23.9787083
78.9344025 192.4143372 24.6151600
77.7099686 192.4219360 24.5654392
76.4670486 192.4580536 24.5244331
69.1198502 192.8204651 23.6358757
60.6156082 193.5378723 21.2374802
59.3921432 193.6698303 20.7644768
-32.9629250 158.8001709 189.0563812
121.1824875 197.5286560 2.3432148
87.6526413 193.5191040 23.9388885
80.1879196 193.5303040 24.6864204
78.9269485 193.5500336 24.7031822
77.6918869 193.5823059 24.6908493
76.4599304 193.6195068 24.6513844
71.5548019 193.8388062 24.1678963
70.3274002 193.9074249 23.9740200
69.1175690 193.9871216 23.7506866
60.6183434 194.7118988 21.3410320
59.3923721 194.8469543 20.8538132
58.1878090 194.9907837 20.3374214
121.1764297 198.7338562 2.3748128
87.6359863 194.6881866 24.0326481
86.3989029 194.6872406 24.2045040
81.3812332 194.6695862 24.7425117
80.1727448 194.6963348 24.7786293
78.9086609 194.7173615 24.8026505
77.6827087 194.7483978 24.7922211
76.4489136 194.7828979 24.7510586
75.2177582 194.8317871 24.6777725
73.9989777 194.8858643 24.5647812
72.7627487 194.9449463 24.4341450
71.5484848 195.0083160 24.2707405
58.1860046 196.1751709 20.4054222
56.9674034 196.3247375 19.8567677
-34.0077057 160.8695374 188.5909119
121.1918411 199.9653625 2.3002799
87.6287155 195.8634644 24.0965919
86.3908310 195.8474731 24.2998066
83.8691406 195.8547363 24.6046066
82.6441803 195.8429718 24.7176628
81.3899612 195.8535156 24.7970924
80.1576385 195.8683319 24.8508739
78.9019394 195.8928680 24.8762646
77.6768341 195.9283447 24.8588276
76.4447250 195.9645996 24.8114948
75.2247086 196.0105896 24.7284164
73.9924622 196.0635223 24.6218834
72.7590027 196.1176300 24.4953461
71.5477295 196.1814728 24.3271370
58.1822205 197.3634033 20.4530296
56.9697037 197.5139465 19.8968735
55.7490120 197.6815186 19.2855072
54.5466690 197.8531647 18.6434879
53.3294449 198.0339355 17.9701462
42.4827843 200.2051697 9.3962040
41.2928810 200.5222168 8.0983152
40.0744171 200.8708191 6.6671324
38.8937607 201.2339325 5.1598458
37.6767311 201.6421661 3.4733346
36.4985161 202.0694122 1.6785712
35.2732735 202.5602264 -0.3627144
-35.0041046 161.7225647 189.2448425
121.2039566 201.2098846 2.1608517
87.6209412 197.0400238 24.1469574
86.3767395 197.0225830 24.3643761
85.1232224 197.0090027 24.5337868
83.8654099 197.0161743 24.6591454
82.6382828 197.0180664 24.7590389
81.3945770 197.0375366 24.8356762
76.4441376 197.1433716 24.8392868
53.3538399 199.2331390 17.9645805
52.1423378 199.4296570 17.2277775
50.9129372 199.6393585 16.4345016
49.7252769 199.8478851 15.6223450
48.5052719 200.0818481 14.7287121
47.3097496 200.3173523 13.8101654
44.8902931 200.8492432 11.7023563
43.7014618 201.1334076 10.5456963
42.4937019 201.4416656 9.3047829
38.9005356 202.4888306 5.0231905
37.6786270 202.9076843 3.2993832
36.5071030 203.3445282 1.4755410
35.2712402 203.8554840 -0.6126159
-35.0786667 163.0009155 187.8673096
121.2392960 202.4750671 1.9500586
87.6198120 198.2234344 24.1711159
86.3787918 198.2096710 24.3792419
85.1316528 198.1996613 24.5459042
83.8665161 198.1941528 24.6827316
82.6267776 198.2009888 24.7800865
81.3848572 198.2164001 24.8576069
76.4364471 198.3437195 24.8401279
53.3370056 200.4547272 17.9043579
52.1446228 200.6455231 17.1757278
50.9126816 200.8589935 16.3759232
49.7291412 201.0698700 15.5578594
48.5093460 201.3061829 14.6529503
47.3178368 201.5462036 13.7108755
46.1091423 201.8086700 12.6820946
44.9015884 202.0853577 11.5854588
43.7027206 202.3765259 10.4282064
42.4978867 202.6873169 9.1800184
38.9016418 203.7594604 4.8245020
37.7065544 204.1808624 3.0772040
-36.0920029 163.8828583 188.3668365
121.2840500 203.7500305 1.6933933
119.6869736 203.2389832 4.0561590
118.2133179 202.8254852 6.0424595
82.6349182 199.3993835 24.7677841
81.3784943 199.4080353 24.8525867
80.1492310 199.4205627 24.9190292
78.9017334 199.4767914 24.9310455
77.6641693 199.4856567 24.8940868
76.4599762 199.5286102 24.8332558
38.9078140 205.0407410 4.5777192
37.7258377 205.4670868 2.8138700
-37.0844269 164.8055725 188.7213135
121.3477936 205.0514221 1.3313445
119.7426834 204.5288391 3.7274485
118.2558823 204.0977173 5.7714462
82.6398315 200.5917358 24.7321072
81.3757477 200.5981598 24.8137150
80.1558304 200.6217041 24.8575058
78.9028473 200.6469574 24.8703384
77.6792526 200.6796417 24.8504333
76.4508438 200.7274475 24.7990780
38.9213905 206.3332367 4.2846842
37.7093201 206.7849884 2.4493532
36.5515213 207.2620239 0.4482011
-38.1034126 165.7291412 189.0319824
119.7826462 205.8192749 3.3754363
118.2927094 205.3769226 5.4646597
38.9233932 207.6512909 3.8859334
-38.1938095 167.1047668 187.3034821
119.8259583 207.1275635 2.9628901
118.3277512 206.6672974 5.1074128
38.9560204 208.9686432 3.4615672
-39.2120476 168.0835266 187.3902130
119.9280014 208.4771729 2.4060662
118.3774414 207.9771576 4.6534142
41.3580704 209.4670105 6.3510098
40.1268311 209.8907013 4.6837468
38.9536095 210.3218536 2.9472501
-40.2505875 169.0882568 187.3759003
120.0009918 209.8354797 1.8110204
118.4420013 209.3204498 4.0983295
41.3694611 210.8030853 5.8684568
40.1509438 211.2343750 4.1674533
38.9770279 211.6842346 2.3824692
-42.2001762 169.7242737 189.0126343
118.5158844 210.6786804 3.4675856
41.3891907 212.1514740 5.3221912
40.1838379 212.5926056 3.5856295
-43.2402878 170.8014221 188.6919861
118.6277771 212.0806274 2.7155652
41.4006538 213.5348663 4.6759572
40.1850014 213.9949036 2.8727365
-44.3087006 171.9006195 188.2465057
118.7394943 213.4879913 1.8892735
117.1586838 212.9614716 4.1922808
115.6851349 212.5193024 6.1946077
46.2189102 213.3967743 9.8472071
45.0103264 213.7365723 8.5566320
43.8168030 214.0963287 7.1709061
42.6094589 214.4967346 5.6303172
41.4265709 214.9233704 3.9752979
117.2897873 214.3955688 3.3303370
115.7837677 213.9173126 5.4120054
46.2349510 214.7525024 9.2606306
45.0251579 215.1085815 7.9235439
43.8411331 215.4820404 6.4923248
42.6538010 215.8871155 4.8977051
-47.3719482 173.8790894 188.4509430
115.8910828 215.3371277 4.5416965
114.3638687 214.8845215 6.5378032
112.9353180 214.5246124 8.2174711
46.2581558 216.1268005 8.6104193
45.0702286 216.4820862 7.2508430
-49.3921280 174.8119507 188.8844757
116.0141754 216.7929840 3.5613084
114.4744186 216.3127289 5.6314526
113.0268097 215.9184875 7.4207888
46.2882385 217.5258636 7.8777781
45.0932922 217.9023285 6.4500093
114.5860291 217.7679138 4.6165447
113.1153336 217.3460236 6.5175409
46.3234596 218.9385376 7.0618343
45.1335144 219.3367615 5.5741401
-53.4732285 176.9134216 188.8580933
114.7615204 219.2841339 3.4204545
113.2261505 218.7998047 5.4876804
46.3719254 220.3809204 6.1565838
45.1647911 220.8101196 4.5727863
113.3771973 220.3105011 4.3123136
111.8952942 219.8757935 6.1824903
110.4735870 219.5102539 7.8280611
48.7841148 221.0914917 7.9779944
47.6145172 221.4494324 6.6384997
46.4165497 221.8578033 5.1194797
45.2105103 222.3118591 3.4581151
-59.6277580 179.0298309 188.9173584
112.0395584 221.3879547 4.9722357
110.5902405 220.9782410 6.7422981
48.8339806 222.5606384 6.9874210
47.6591148 222.9425812 5.5546560
46.4543839 223.3815918 3.9340029
-64.7642822 180.1572571 188.7794189
112.2233429 222.9724731 3.5889673
110.7240219 222.4950867 5.5015702
51.2574310 223.3308411 8.5132017
50.1006584 223.6470184 7.3153257
48.8894310 224.0492249 5.8802762
110.8822708 224.0659180 4.0662584
51.3141670 224.8203735 7.4178743
50.1438370 225.1765137 6.1095362
48.9364471 225.5980530 4.6071730
111.1042786 225.7342377 2.3574469
109.5985565 225.2356567 4.3931947
108.1150894 224.8248749 6.1262474
51.3805847 226.3564148 6.1728415
50.2107849 226.7358093 4.7762222
108.2939758 226.4398041 4.5554295
51.4562454 227.9212494 4.7876287
50.2958908 228.3310547 3.2830069
108.5123291 228.1415710 2.7441936
107.0371704 227.6833649 4.5688734
105.5916901 227.2961426 6.1918921
56.3105125 228.0742493 8.4256496
55.1070557 228.4014740 7.3013940
53.9198151 228.7390594 6.0882983
52.7298508 229.1245728 4.7203388
51.5323029 229.5540466 3.1968102
105.7699585 228.9473572 4.4348397
56.3776321 229.6590729 7.0171819
55.1995926 229.9851532 5.8518262
53.9979439 230.3721619 4.5191803
52.8054199 230.7885742 3.0505769
106.0101776 230.7192078 2.3547628
104.5775986 230.2872009 4.1015329
103.1388702 229.9326172 5.6178451
101.7532425 229.6492310 6.9186168
100.3740082 229.3866577 8.0872726
58.8756485 230.6249390 7.7045989
57.6646919 230.9390717 6.6248250
56.4636612 231.2844696 5.4360909
104.8310547 232.1135101 1.8706641
103.3278198 231.6449280 3.6266122
101.9259491 231.3103027 5.1010885
100.5299225 231.0121155 6.4097137
58.9745331 232.2464600 6.1161909
57.7621040 232.5977783 4.9174881
56.5744476 232.9635010 3.6400199
102.1746521 233.1305847 2.9150653
100.7365341 232.7398682 4.3920174
99.3512039 232.4434052 5.6752143
97.9883423 232.2026978 6.7866659
61.4556961 233.3308105 6.4083524
60.2502060 233.6444702 5.3708396
59.0659561 233.9718628 4.2438951
57.8662033 234.3534088 2.9443557
99.5651245 234.2255554 3.4743140
98.1827850 233.9290314 4.7509251
61.5728416 235.0391693 4.5117273
98.4570007 235.8384094 2.2880604
97.0322113 235.5287018 3.5696018
95.6561203 235.2559814 4.6521554
94.3049240 235.0423126 5.6034789
92.9762573 234.8469543 6.4554029
91.6338501 234.6920776 7.1804338
90.3268738 234.5818481 7.7703576
89.0148239 234.4588165 8.3161850
87.7244720 234.3991852 8.7295942
86.4386368 234.3449554 9.0773659
85.1453400 234.3076935 9.3607578
83.8821106 234.2758026 9.5910578
82.6047821 234.2732239 9.7468672
76.3348389 234.4866638 9.6137047
75.1050491 234.5658569 9.4181423
73.8437805 234.6868896 9.1262922
72.6307297 234.8131409 8.7924938
71.3873291 234.9584351 8.3917704
70.1775513 235.0964813 7.9583650
68.9448090 235.2883148 7.3938937
67.7265320 235.4855804 6.7727685
66.5204163 235.7013702 6.0849319
65.3221893 235.9438629 5.2996974
64.1102753 236.2207184 4.3879075
62.8972359 236.5260468 3.3566020
61.7171021 236.8663025 2.2127452
84.0300903 236.0035706 7.7833824
82.7457428 235.9769287 7.9633260
76.4714966 236.1902161 7.8324013
75.2387085 236.2750244 7.6164198
73.9866638 236.3952026 7.2983694
72.7656784 236.5223694 6.9262805
71.5216522 236.6615295 6.5072532
70.3094254 236.8283539 6.0072951
69.0800705 237.0315857 5.3866491
67.8717728 237.2595520 4.6878405
66.6771164 237.4809875 3.9345891
65.4617920 237.7799225 2.9852457
64.2720718 238.0794067 1.9588521
63.0642509 238.4520569 0.7322534
-74.9241409 85.3260040 172.0447388
-75.4746017 85.3213577 171.8687286
-76.0314026 85.3332291 171.6804962
-76.5881653 85.3601151 171.4621124
-75.8061218 85.6905975 173.7248535
-78.5599747 85.8562851 172.6514893
-79.0776520 85.8124847 172.3381348
-62.3453140 86.1000595 172.7442322
-62.8234291 86.0891800 173.1123352
-63.3238640 86.0643845 173.4380951
-63.8251114 86.0372849 173.7401886
-64.3279648 86.0138397 174.0235443
-64.8267365 85.9940796 174.2718353
-65.3158188 85.9792633 174.4840088
-65.8136902 85.9748383 174.6877899
-75.6181793 86.0068893 175.4793243
-77.7820435 86.1414185 174.7915955
-78.3208466 86.1465149 174.5411835
-78.8458862 86.1480408 174.3278503
-79.3961868 86.1508560 174.0580444
-79.9356308 86.1753082 173.7817688
-80.5177841 86.2111893 173.3106842
-79.7688065 86.5326385 175.5209198
-58.1660919 87.0680542 172.7619476
-58.6104317 87.0104141 173.3113098
-58.9854012 87.0171280 174.0641022
-59.3829460 86.9887085 174.6780396
-60.0390167 86.8931046 174.7197418
-60.5933037 86.8751373 174.9707031
-79.6024551 86.8638382 177.0973206
-80.1666031 86.8756409 176.8233185
-80.7068405 86.9078369 176.5549622
-80.5420151 87.2743912 178.0442810
-57.4570808 87.8286514 175.4766083
-80.3966904 87.6128006 179.3903503
-80.9249496 87.6420059 179.1723175
-81.4766388 87.6769333 178.8974609
-82.0430069 87.7158966 178.5814514
-82.6070175 87.7484131 178.2550812
-83.1648102 87.7676392 177.9240265
-83.7078400 87.7954330 177.5993347
-84.2791519 87.8203583 177.2086029
-52.5731850 88.7351837 170.9976196
-84.6939011 88.2175598 178.2518616
-51.5132599 89.2228851 171.1819916
-51.9917755 89.1544647 171.9833527
-52.4626694 89.0843124 172.7389374
-84.5317612 88.6097717 179.5956879
-85.0839081 88.6391449 179.2392731
-85.6499863 88.6709976 178.8505249
-86.2349243 88.7016220 178.4211578
-51.4034004 89.5641174 172.9121704
-86.6668472 89.1172409 179.3007965
-86.5100250 89.5103226 180.5480042
-87.0838165 89.5496368 180.1355438
-87.6555099 89.5967331 179.7106171
-88.1916733 89.6454773 179.3032684
-88.7977676 89.6852875 178.7872772
-52.1334686 90.0742950 177.0158234
-51.6051407 90.4791412 177.7229156
-52.0623131 90.4460907 178.2438049
-50.4803505 90.9951401 177.7368317
-50.9800949 90.9316406 178.3167725
-50.4656944 91.3478851 178.8358459
-50.9461174 91.2922211 179.3786621
-89.3588257 91.2895813 182.6024933
-89.9312668 91.3393631 182.1581573
-90.5263290 91.3870926 181.6583862
-91.1346054 91.4343719 181.1340790
-48.0046539 92.0523605 176.9106445
-70.1628799 90.8158035 189.2779236
-70.6623230 90.8138046 189.3048553
-71.1711884 90.8051987 189.3121185
-71.6911621 90.8101883 189.3299713
-72.2092972 90.8217010 189.3424530
-72.7101135 90.8238144 189.3161774
-73.2142029 90.8320160 189.2841949
-73.7299957 90.8447876 189.2489624
-91.5694733 91.8847427 181.7352905
-92.1562881 91.9337997 181.2143097
-47.9373093 92.4149475 178.0667267
-70.1013412 91.1900787 189.9925079
-73.6573029 91.2343445 190.0092773
-91.4350052 92.2819595 182.8077698
-62.0069046 91.7260284 189.1466064
-62.5084114 91.7077942 189.3130951
-63.0109673 91.6880341 189.4642792
-63.5043449 91.6768875 189.6146698
-63.9913940 91.6730576 189.7673798
-64.4963989 91.6462784 189.8726501
-65.0068588 91.6238556 189.9785004
-78.7929001 91.7703552 190.0036316
-79.3180847 91.7921143 189.8639984
-79.8349152 91.8202896 189.7336273
-80.3611603 91.8555527 189.6024933
-80.8999557 91.8708649 189.4144745
-44.4685173 93.6658401 175.2418365
-44.9483490 93.5912933 176.0668030
-45.4198265 93.5078812 176.8280334
-45.8968849 93.4302292 177.5791779
-46.3675041 93.3542404 178.2664642
-46.8417625 93.2820969 178.9098663
-61.9485435 92.1152344 189.8652039
-43.9301872 94.1256943 175.6191101
-58.9316025 92.6352844 189.3961639
-59.4118614 92.6089630 189.6015930
-59.9186554 92.5858154 189.8148804
-60.4150887 92.5617371 190.0132904
-83.4055557 92.7960815 189.9997253
-83.9434433 92.8326187 189.7778778
-84.4713593 92.8685074 189.5568848
-85.0038757 92.9083328 189.3287811
-93.3573837 93.6622925 183.8668060
-93.9664688 93.7202454 183.3117371
-43.8808136 94.5020142 176.7987671
-93.2410965 94.0589447 184.8000488
-55.8880768 93.5971527 189.3054657
-56.3737984 93.5599899 189.5594482
-56.8547287 93.5291977 189.8166656
-87.0064468 93.8387756 189.7918854
-87.5538940 93.8947525 189.4988098
-88.1159363 93.9460373 189.1780396
-41.8584099 95.6073608 175.7085724
-42.3426132 95.5002289 176.5647583
-42.8183289 95.4090729 177.3878021
-55.8345604 93.9938354 189.9816132
-88.0389481 94.3218307 189.9312134
-40.8834343 96.1646118 174.9723358
-53.8438644 94.5259476 189.5221252
-54.3263741 94.4866486 189.8105164
-89.5833893 94.8589859 189.7257538
-90.1435013 94.9181061 189.3659821
-92.9394760 95.2166214 187.4016266
-39.8779793 96.7509003 174.1091003
-40.3658867 96.6449661 175.1688995
-40.8420715 96.5430298 176.1595001
-92.8361435 95.6038589 188.2011414
-93.3969269 95.6709366 187.7685242
-93.9626389 95.7381668 187.3084412
-94.5429611 95.8118744 186.8184662
-95.1321335 95.8712234 186.3026581
-95.7140274 95.9230042 185.8049622
-51.7917252 95.4698486 189.5203247
-52.2734985 95.4275436 189.8529053
-91.6240540 95.8548355 189.7899780
-92.1790848 95.9226303 189.3967133
-38.8507004 97.7002945 174.4543152
-49.7618027 96.4477768 189.3730011
-50.2359505 96.4003296 189.7250061
-93.1628113 96.8282394 190.0045929
-93.7101212 96.9064178 189.5828247
-94.2542877 96.9846725 189.1592407
-95.9721451 97.1869507 187.7355347
-38.7400436 98.4215012 176.6621094
-49.7230225 96.8474884 189.9967499
-94.1829910 97.3680267 189.8759003
-95.8733978 97.5845108 188.4953918
-96.4371109 97.6563950 188.0115967
-97.0380402 97.7210388 187.4560699
-97.6348114 97.7893753 186.9009247
-47.7372780 97.4462357 189.0664215
-48.2129860 97.3942566 189.4606476
-48.7072754 97.3452988 189.8625183
-95.2353516 97.9015350 189.6851654
-38.6333160 99.1656189 178.6495819
-47.6949158 97.8487625 189.6773834
-98.0237656 98.6751480 187.8730927
-38.5828819 99.5477295 179.5269623
-46.7073631 98.3545151 189.4616089
-47.1762314 98.3014526 189.8694305
-96.7725525 98.9109116 189.6568451
-97.3481750 98.9947891 189.1435089
-38.5367317 99.9337006 180.3639984
-97.2793884 99.3796005 189.8340454
-35.6890678 101.0002365 175.6469727
-45.6498032 99.2743225 189.7589569
-98.3151779 99.9340363 189.5255585
-98.9114075 100.0228271 188.9561768
-35.6610527 101.3890305 176.6147308
-43.6802788 100.3194962 189.1097717
-44.1530151 100.2555847 189.5754089
-35.5681114 102.1257782 178.4566803
-43.6260757 100.7201157 189.6510315
-42.6591225 101.2645416 189.2783661
-43.1194839 101.1951599 189.7440491
-34.0664902 103.2714005 177.1223145
-34.5412178 103.1391525 178.1811676
-42.6167259 101.6682281 189.8168182
-34.5014648 103.5174942 179.0102234
-41.6167984 102.2017899 189.3278351
-42.1180038 102.1441498 189.8789368
-41.5902023 102.6196823 189.8864288
-34.4180222 104.2940903 180.5054932
-40.6207199 103.1692276 189.4036713
-41.0830574 103.0984573 189.9074249
-33.9287262 104.8090439 180.3560944
-34.3998604 104.7010193 181.2388611
-40.5901756 103.5788803 189.9299011
-32.4306183 105.5870361 178.1475372
-39.6077118 104.1340485 189.3704681
-40.0838127 104.0597534 189.9138336
-32.4272156 105.9644852 178.8895569
-39.5645561 104.5398331 189.8565216
-38.5964661 105.1113586 189.2661896
-39.0561218 105.0331345 189.8082275
-32.3617401 106.7726517 180.3214569
-38.5649757 105.5241928 189.7577209
-32.3221664 107.1610336 180.9405060
-37.5862389 106.0945358 189.0810394
-38.0606766 106.0092239 189.6590576
-37.5668907 106.5083923 189.5741882
-30.3405819 109.3076782 179.5571442
-36.5238419 107.9250717 189.7639160
-29.8328571 109.8538971 179.0928802
-30.3269176 109.7197266 180.1867371
-35.5450783 108.9346008 189.4644470
-29.3352795 110.8152695 179.2897186
-35.5039673 109.3508759 189.8661194
-34.5398941 109.9549942 189.0319214
-35.0166931 109.8629150 189.6749573
-34.5120087 110.3777847 189.4419403
-28.2799702 112.3270416 178.8322601
-34.4860115 110.8013763 189.8501892
-28.2532177 112.7317886 179.4205475
-28.2542248 113.1714325 180.1136475
-33.5060043 111.8338242 189.3679810
-27.7263107 113.7166748 179.4219666
-28.2344189 113.5628052 180.5406494
-33.4804077 112.2533951 189.7597656
-27.2327251 114.2894211 178.8287964
-27.7318363 114.1375351 179.9606476
-28.2302017 113.9862747 181.0629730
-28.2230091 114.4035873 181.5830078
-32.4843140 113.7372284 189.5558777
-32.4566307 114.1639099 189.9068298
-28.1663628 115.6564865 182.9933167
-28.1413002 116.0797348 183.4176941
-28.1263962 116.5019379 183.8438416
-31.4742775 115.6677704 189.5614014
83.6874771 147.6961212 -23.5513687
82.9943008 147.6447754 -23.1717567
82.3533020 147.6190338 -22.7337685
81.6807556 147.5777740 -22.6178036
81.0236053 147.5622711 -22.4532433
80.3690567 147.5490112 -22.3165512
79.7052994 147.5527802 -22.2525597
79.0447845 147.5543365 -22.2121067
78.4049072 147.5574036 -22.1845493
77.7595215 147.5766602 -22.1724625
77.1040878 147.6261902 -22.1660404
75.1964340 147.7450256 -22.5273304
74.5658722 147.7473907 -22.7263412
73.9264526 147.7732391 -22.9977818
73.2901001 147.8296967 -23.3091087
-31.4525051 116.0987396 189.8922119
83.4597626 147.9682770 -20.7390919
71.2439957 148.1975403 -21.5545654
85.9459076 148.3064575 -19.6074238
85.2922516 148.2814789 -19.2538700
84.6193619 148.2631226 -18.9575367
83.9580994 148.2681885 -18.6847439
83.3031082 148.2581329 -18.4589920
71.0989227 148.5420074 -19.2303314
70.4608383 148.5625000 -19.5727520
69.8334427 148.6055756 -19.9413166
69.2241211 148.6665497 -20.3337803
68.6008682 148.7444305 -20.7772751
-26.6916637 118.2367859 182.0482178
-27.1535721 118.0911942 183.0309143
-27.6120300 117.9451599 183.9936981
-28.0961342 117.7983475 184.9705811
87.8182297 148.7667389 -18.5575447
87.1652374 148.7452850 -18.1010876
86.4658661 148.6942291 -17.7792187
85.8136215 148.6704254 -17.5113964
67.2580414 149.2344513 -19.4802303
-30.4614639 117.6194305 189.3973541
89.7104187 149.2701111 -17.9265118
87.6483231 149.1334839 -16.5713005
86.9789047 149.0898743 -16.2175350
86.3213196 149.0487366 -15.9223957
85.6595230 149.0118408 -15.6604767
67.1312027 149.6026459 -17.5908737
-30.4538345 118.0527496 189.7189331
63.3178978 150.4048157 -18.7872753
-26.1510201 119.6944962 182.0686798
-30.4218216 118.4918213 189.9889221
93.5215607 150.3628082 -17.2819233
63.2247581 150.7837372 -16.9703045
62.6341438 150.8292084 -17.4251900
-26.1497173 120.1305618 182.4332428
62.0388680 151.3250732 -15.9901276
-29.4675198 119.6029816 189.0769501
-29.9278259 119.4848328 189.8260193
96.7196884 151.4911346 -17.0347195
95.9898148 151.4125366 -16.2415104
61.8330727 151.6950836 -14.8125172
-29.4547958 120.0426483 189.3559418
-29.4398861 120.4825287 189.6273193
60.4442253 152.6853943 -13.0744009
59.8898926 152.7720947 -13.4543991
59.3883209 152.8761597 -13.7321501
-29.4175701 120.9239883 189.8770294
59.1611137 153.2556305 -12.8095427
58.2789917 153.4154205 -13.0504971
57.4436607 153.6009979 -14.2915878
-25.1122074 122.6649780 181.7983551
96.7623520 153.0467072 -11.1355801
59.0697365 153.7113953 -11.6193705
58.4317513 153.8092346 -12.1819553
57.8162041 153.9150238 -12.8019629
57.2494583 154.0583191 -13.4077549
-25.1232815 123.1051712 182.1316223
97.3711090 153.5807800 -10.3612852
96.6785431 153.4882202 -9.8152475
-25.1329594 123.5473022 182.4491577
-28.4678040 122.5028152 189.0796661
-28.9224110 122.3771439 189.8570709
102.2305374 154.6687469 -14.0564308
101.5163193 154.5505066 -13.2215595
100.7802200 154.4438477 -12.3831453
100.0857086 154.3445587 -11.6931515
99.3344193 154.2548218 -10.9414635
98.6329269 154.1471405 -10.3207073
97.9574585 154.0546875 -9.7459536
97.2645798 153.9714355 -9.1723642
96.5738144 153.8874207 -8.6344490
54.1284142 155.4920959 -14.4487686
-24.6307945 124.1695633 181.5759277
-25.1338387 123.9925919 182.7371979
-28.4546432 122.9497375 189.3077698
103.5712967 155.3179779 -14.4293995
52.7885933 156.1588898 -14.5622015
-28.4534397 123.3975754 189.5507507
104.8895874 155.9816742 -14.8366098
104.1286545 155.8509827 -13.8003855
103.3782806 155.7211914 -12.8257627
52.7407990 156.5979614 -13.2952223
-28.4448681 123.8445892 189.7677612
-28.4244022 124.2958603 189.9576263
106.0435791 157.0536804 -13.7224436
107.4067764 157.7252045 -14.3476038
50.1454353 158.4411774 -12.9104786
-25.0888538 126.2342148 183.9632111
107.2460327 158.1333008 -12.8682690
50.1182709 158.9123993 -11.7834854
-25.0801849 126.6868973 184.1733551
50.0762634 159.3653412 -10.7180958
-25.0718155 127.1442261 184.3560791
-27.4516468 126.3796387 189.0495911
-27.9066753 126.2431793 189.8771210
108.4592056 159.2342834 -12.2055721
50.0191002 159.8044586 -9.7158470
49.4289742 159.9460297 -10.4295206
48.8311157 160.0866699 -11.2332926
48.2317238 160.2386627 -12.0688286
-25.0682335 127.6049347 184.5208130
-27.4468174 126.8352051 189.2276306
-27.4343033 127.2926331 189.3841400
-27.4313641 127.7504425 189.5450592
47.6351814 161.6966705 -9.4652157
-27.4120979 128.2140961 189.6639404
109.4424973 161.1899567 -9.2882719
47.5836258 162.1785889 -8.5777464
-27.4189167 128.6727905 189.8229828
110.8290863 161.9281006 -10.1947594
47.4940376 162.6473083 -7.8283486
-27.3981438 129.1404266 189.9216614
111.4747314 162.5242310 -10.1449251
110.6877594 162.3683624 -9.0561562
47.3548164 163.1227112 -7.1970925
47.3150177 163.6134338 -6.4212117
111.9860916 163.5605621 -9.0299749
47.3134499 164.1013336 -5.6046472
49.7418404 164.0786133 -2.1677048
49.1871872 164.2008820 -2.6919324
48.5287285 164.3165894 -3.4392574
-24.5577431 131.9688416 184.6808014
-25.0403366 131.7953796 185.6992645
113.2580414 164.7808533 -9.0853062
-25.0417843 132.2644806 185.8051300
50.8499794 164.8733978 0.1367081
-25.0410156 132.7369995 185.8912506
114.6068344 166.0159149 -9.3485718
50.8327560 165.3858643 0.7447821
-25.0337982 133.2150726 185.9476318
53.1998711 165.4882965 3.1491220
52.5886192 165.5588684 2.6962132
-25.0380249 133.6918030 186.0097809
114.3521271 166.9159241 -7.3332562
53.2800293 165.9930115 3.8245935
-25.0378227 134.1730194 186.0466919
55.6019363 166.2083740 5.8410692
54.9718781 166.2730865 5.4331069
54.3503227 166.3410645 5.0297446
53.7458382 166.4196167 4.6521239
53.2009659 166.5026398 4.2955775
-25.0220337 134.6635284 186.0374298
115.6739197 168.1879883 -7.7401981
-25.0288067 135.1468658 186.0598907
115.5447006 168.6511230 -6.8232546
-25.0512867 135.6260376 186.0983276
116.2508621 169.3091431 -7.1775417
115.4320908 169.1169281 -5.9469728
-25.0571709 136.1163635 186.0782623
56.6915092 168.1337128 8.4122286
56.0837059 168.2023010 8.0823059
-24.1041832 137.0066528 183.8454285
56.6898079 168.6732178 8.8827620
-24.0850830 137.5120087 183.7678375
118.2945251 171.3183594 -8.3048429
57.8588524 169.0448456 9.9113140
57.2536278 169.1200256 9.6140203
-24.0818043 138.0094604 183.7320862
-24.5874157 137.7917175 184.9171753
-25.0618324 137.5964355 186.0010223
118.1799545 171.7861023 -7.4320025
57.8964310 169.6035461 10.3881187
-25.0543633 138.0931854 185.9579315
118.9181519 172.4584808 -7.9449830
118.0885239 172.2509003 -6.6242890
59.0496101 169.9867859 11.3101997
58.4935532 170.0675812 11.0788403
-25.0487137 138.5945435 185.8898010
117.9730682 172.7191315 -5.8004889
58.9990349 170.5052490 11.6684494
-25.0480537 139.1002350 185.8036194
119.5165176 173.6331177 -7.6419597
60.2230492 170.9272461 12.5878963
59.5912514 170.9830780 12.3130426
-25.0612049 139.6025238 185.7211914
120.2815018 174.3425903 -8.2761097
119.4104996 174.1095123 -6.8547535
60.1904221 171.4671173 12.9522457
-24.5949650 140.3053741 184.5643768
-25.0726566 140.1060791 185.6324615
119.3119125 174.5848999 -6.0967798
120.0913315 175.2893066 -6.7726407
119.2328186 175.0674744 -5.4035001
61.3622017 172.9658051 14.4827681
61.3322525 173.5104065 14.8021898
120.6154556 176.9712982 -5.9736967
120.5084839 177.4630432 -5.2914400
-27.4445210 142.2457886 189.9575195
62.4727669 175.0212555 16.1610241
-27.4751568 142.7463837 189.8477936
120.3959045 178.4633636 -4.1402769
-27.4898376 143.2596588 189.7002411
120.2857208 178.9653473 -3.5254104
63.7186928 175.9792633 17.1801167
-26.0977287 144.3356628 186.5489655
-27.4900608 143.7825623 189.5149078
121.0065231 179.6883087 -4.1887341
120.1772995 179.4702759 -2.9297063
63.6913147 176.5333557 17.4673405
-26.1020832 144.8645477 186.3487854
-27.4983425 144.3032532 189.3364105
63.7317009 177.1077118 17.8137836
-26.1033630 145.4012146 186.1195526
-27.5149746 144.8222504 189.1642914
-25.5892200 146.1701813 184.7415466
-26.0859432 145.9491425 185.8511353
-27.5424900 145.3376770 189.0020294
-27.9861488 145.1658936 189.9520569
121.6372375 181.4812012 -4.0172081
83.3330460 177.3979645 20.2359276
82.7097778 177.3978271 20.3014603
82.0779572 177.4016113 20.3508797
81.4535370 177.4073334 20.3870411
122.4046478 182.2474213 -4.8937531
121.5408478 181.9980316 -3.4940660
63.5772743 179.3167267 18.6615334
83.2839203 179.0533447 20.9417248
63.5811195 179.8764648 18.8934250
123.0780334 184.0928802 -4.9976354
-27.1380024 148.2054443 186.7968292
-28.5237789 147.6359558 189.7754822
123.0337677 184.6184692 -4.5557165
-27.1248741 148.7695313 186.4627228
-28.5621128 148.1604462 189.5585938
122.9775848 185.1427765 -4.1111436
75.7717056 180.8488770 21.7228622
75.1603775 180.8649292 21.6799088
74.5438614 180.8871613 21.6327209
73.9226151 180.9085846 21.5842304
-28.5761414 148.7008667 189.2803955
-28.5960636 149.2394867 189.0048065
-29.0232658 149.0787811 189.9100952
-27.6106472 150.2336731 186.5401764
-28.1112385 150.0037842 187.6282501
-28.1408043 150.5476227 187.3508148
122.7545624 187.2823792 -2.5750775
87.5343628 182.9707489 21.7788296
73.2348633 183.1734161 22.2692413
64.6785889 183.6920013 20.6285877
-28.1413746 151.1185455 186.9909363
-29.5430031 150.5323029 189.9541321
122.7348099 187.8303680 -2.2808034
87.5144653 183.5303192 21.9625740
64.7004013 184.2584839 20.8235607
-29.5762959 151.0756989 189.6418304
122.6657028 188.3735046 -1.9374406
90.6525879 184.1583099 21.4997940
87.5125504 184.0868988 22.1439533
85.6095657 184.0716553 22.4381657
85.0189056 184.0147247 22.4907513
83.1272659 183.9879150 22.7314014
82.4861221 184.0666199 22.7913685
64.6716385 184.8209076 20.9847374
-29.5674839 151.6518402 189.2283173
123.4561768 189.1837769 -2.9864316
122.6308899 188.9281006 -1.6668808
90.6630707 184.7154083 21.6667614
85.6708298 184.5964050 22.5828571
73.2026672 184.8665619 22.7506161
72.6065369 184.8931427 22.6913662
72.0058823 184.9225769 22.6133480
71.3802795 184.9515533 22.5261841
64.6473846 185.3888855 21.1308231
64.0624695 185.4333801 20.9789124
-29.6122551 152.1887207 188.9346313
-30.0502453 152.0168152 189.8595886
85.6554031 185.1943359 22.7549114
73.1880112 185.4297180 22.9075928
72.5946503 185.4562836 22.8440018
72.0060959 185.4882355 22.7687759
71.3707962 185.5173187 22.6883640
70.7444000 185.5452271 22.6051884
70.1376038 185.5781860 22.5139313
-29.1662273 152.9593964 187.5646820
89.3679428 185.8088684 22.2602863
88.7308578 185.7985229 22.3905563
88.0984955 185.7861023 22.5151482
87.4478226 185.7750549 22.6344910
82.4777832 185.7631836 23.1957283
-29.1725292 153.5444336 187.1419067
85.6321945 186.3308258 23.0503464
79.3544388 186.3589020 23.4445190
78.7380981 186.3534698 23.4220772
75.0354691 186.4757233 23.3943768
74.4650879 186.4593048 23.3415985
-30.6098156 153.5066223 189.7620087
75.0206375 187.0263977 23.5949039
63.4867325 187.7624664 21.3645725
-30.6340523 154.0773468 189.3389587
70.1006927 187.8536835 23.0435925
69.5022583 187.8911896 22.9298420
68.8994904 187.9303741 22.8170910
63.4765244 188.3360138 21.4782162
-29.2045574 155.3294067 185.7208557
-29.7016983 155.0825958 186.8203278
-30.1797752 154.8578186 187.8683319
68.8699570 188.4998932 22.9422626
63.3902473 188.9172058 21.5577450
62.8304749 188.9691772 21.3929214
-30.2018013 155.4470673 187.4047089
123.2751312 193.1393738 -1.4559704
122.4681320 192.8867645 -0.1980996
80.5240097 188.6143799 23.9743385
79.9687042 188.6288147 24.0012760
71.9134293 188.8996582 23.5471668
68.8659668 189.0696411 23.0685577
68.2423935 189.1124725 22.9352989
67.6224747 189.1558228 22.7958717
-29.7233810 156.2903442 185.8208466
-30.2214012 156.0446625 186.9217834
-31.6088314 155.4447632 189.9016266
122.4503860 193.4622955 -0.0436614
83.6115036 189.2102509 23.8492966
80.5375900 189.1896210 24.0815620
77.4436111 189.3266754 24.0731792
76.8150787 189.2816772 24.0370903
76.1993179 189.3000641 24.0146427
75.5829391 189.3195953 23.9872360
74.9797363 189.3422394 23.9458523
71.9142838 189.4721375 23.6586075
67.6189194 189.7293549 22.9089622
-31.6515789 156.0142822 189.4631958
122.4269791 194.0445404 0.0801350
85.4991837 189.7457733 23.7807503
84.8706970 189.7848663 23.8666515
80.5226212 189.7644043 24.1782646
76.8154984 189.8536530 24.1434479
76.2036133 189.8716278 24.1213970
75.5841217 189.8920288 24.0939960
74.9776306 189.9144440 24.0510311
74.3503723 189.9402771 23.9992962
73.7439575 189.9647827 23.9460812
67.6158447 190.3042145 23.0073090
62.1508064 190.7595673 21.4653988
-30.2313118 157.2852783 185.8281555
-30.7474613 157.0222321 186.9680634
-31.2361031 156.7902985 188.0295715
124.0384216 195.1857300 -2.5155368
123.1923676 194.8932495 -1.1007358
122.4007111 194.6293182 0.1923106
85.5036240 190.3087311 23.8796825
84.8848572 190.3092651 23.9564743
76.8079681 190.4273682 24.2454967
73.7341766 190.5375671 24.0471516
68.2296371 190.8392181 23.2245674
67.6157608 190.8810425 23.0931358
62.1268196 191.3449402 21.5365601
61.5344162 191.4003448 21.3349819
60.9421806 191.4573059 21.1328201
-31.2540264 157.3963623 187.4931030
124.0226974 195.7766266 -2.4265699
85.4979401 190.8890381 23.9615860
84.8493042 190.8831177 24.0468063
84.2235260 190.8810272 24.1217594
83.6181030 190.8893585 24.1709309
83.0296936 190.8906860 24.2247772
73.7162018 191.1132202 24.1507263
73.0998459 191.1394806 24.0920811
72.4976654 191.1654358 24.0184174
71.9039154 191.1998749 23.9219646
71.2864075 191.2365112 23.8247776
70.6723633 191.2677307 23.7339363
70.0531845 191.3076172 23.6229496
-30.7714996 158.2641144 185.8385925
-31.2622776 158.0161896 186.9192505
-32.6459618 157.4100952 189.8791351
124.0041199 196.3682556 -2.3404927
85.5131454 191.4240875 24.0113029
83.5846252 191.4234924 24.2145576
82.9841766 191.4644165 24.2852955
76.8129196 191.5730286 24.4240074
73.6940460 191.6982727 24.2801876
70.0199966 191.8926544 23.7057381
59.6987228 192.7552490 20.8117352
-31.2566166 158.6566010 186.2978210
-32.6965179 157.9827881 189.4134521
123.9996719 196.9674530 -2.2869878
83.5344849 192.0442505 24.2763386
75.5432587 192.1955872 24.4540424
74.9349060 192.2253265 24.4226036
70.0358505 192.4702606 23.7778187
58.4980392 193.4789581 20.3706055
-32.2482910 158.8032684 187.8480377
124.0229416 197.5804443 -2.2910249
80.4861221 192.6441193 24.5991306
79.8752975 192.6596069 24.6225319
75.5400467 192.7779083 24.5195827
70.0286026 193.0547028 23.8346310
58.4785881 194.0722504 20.4055786
57.8894463 194.1407928 20.1484890
124.0368271 198.1930695 -2.2952363
123.1647949 197.8775024 -0.8002856
122.3973389 197.6150818 0.4711317
75.5426178 193.3596954 24.5846214
72.5553207 193.4498138 24.4228821
57.2714272 194.8091888 19.9118176
-32.2902679 160.0681305 186.6184235
-32.7777634 159.8254089 187.6902924
-33.2373161 159.6161804 188.6796570
-33.6984520 159.4149628 189.6651611
122.4126129 198.2195587 0.4963959
82.3464432 193.7916870 24.6264191
81.7155151 193.7906036 24.6729126
81.0902176 193.8024445 24.6941948
75.5168457 193.9371338 24.6408443
72.4566803 194.0905304 24.3447647
57.2761917 195.3977051 19.9495773
56.6672707 195.4719086 19.6755409
-33.2771149 160.2359467 188.0794983
-33.7518234 160.0164948 189.1029663
-34.1795998 159.8500366 189.9888153
122.4217911 198.8271484 0.5068610
82.3367157 194.3733673 24.6663895
56.0475388 196.1461029 19.4176617
-32.8025093 161.1338501 186.3190308
-33.3159294 160.8592834 187.4667664
122.4023972 199.4274750 0.5377296
85.5209579 194.9719391 24.3549137
82.9495392 194.9597626 24.6392841
82.3304901 194.9551544 24.7024021
56.0511551 196.7388611 19.4354038
55.4526291 196.8221130 19.1291409
54.8544731 196.9079895 18.8100586
54.2513885 196.9914398 18.4816418
53.6302605 197.0854492 18.1402836
39.1709099 200.2129669 5.6168890
38.5899544 200.3938141 4.8511305
37.9549446 200.6060181 3.9799421
37.3546791 200.8108826 3.1202404
36.7894478 201.0095215 2.2730126
36.1823883 201.2362518 1.3180890
35.5658798 201.4804535 0.3000779
34.9398651 201.7341461 -0.7618379
-33.3239555 161.5154572 186.7643585
-34.7100983 160.8837891 189.7184448
122.4114990 200.0466309 0.4977209
85.4618912 195.5425720 24.4236488
84.8490143 195.5927429 24.5082645
43.3873367 199.6619110 10.3592701
-33.8166733 161.9324036 187.1125946
-34.2865562 161.7100983 188.1185608
122.4481812 200.6839294 0.3870230
85.4604340 196.1287994 24.4640942
84.8174667 196.1279755 24.5366383
52.4280739 198.4753265 17.4393311
51.8218842 198.5752258 17.0608482
51.2172279 198.6751099 16.6742401
45.1539307 199.8821106 12.0849543
44.5990524 199.9856720 11.5320520
44.0115547 200.1259613 10.9408760
43.3840027 200.2844086 10.3051529
122.4431229 201.3064728 0.3182192
80.4524536 196.7405243 24.8796577
77.3782654 196.8207092 24.8864155
-34.3320656 163.0399475 186.6569977
-35.7538261 162.3746490 189.6778107
122.4517288 201.9395447 0.2171862
80.4562225 197.3330841 24.9009762
77.3803024 197.4099426 24.9007988
-35.8040314 163.0016937 189.0004730
-36.2388802 162.8345642 189.8880157
122.4798279 202.5809021 0.0820565
80.4629440 197.9246216 24.9154415
77.3483124 198.0185242 24.9062614
36.8183212 204.1882324 1.7587492
-35.3729820 163.8838654 187.2415924
122.5025558 203.2200012 -0.0521677
80.4663773 198.5246887 24.9226818
77.9846573 198.5892334 24.9569054
77.3565750 198.6155090 24.8994961
-34.8966293 164.8546143 185.2843170
-35.4017715 164.5682983 186.4404144
-36.7871819 163.9247742 189.3763885
-36.3777313 164.7760315 187.7050934
-37.7969437 164.8393097 189.7404022
35.6697502 207.3396912 -1.0932885
-37.3778877 165.6999207 188.0224609
35.6544991 208.0076447 -1.3406711
-38.7882881 165.8039856 189.9336853
121.8232040 206.1885986 0.3611991
120.9793549 205.8890686 1.6724740
38.0403214 207.6451874 2.6411335
37.4284592 207.9055481 1.5949283
-37.4508514 167.1198578 186.2116089
-38.8460922 166.4577942 189.1322327
121.0042114 206.5417328 1.4850174
38.0635452 208.3082581 2.4035265
-38.9068336 167.1262207 188.3052673
-39.3531189 166.9466858 189.2018127
121.0577240 207.2160187 1.2251796
38.0637054 208.9828949 2.1504519
-38.4777489 168.0827332 186.3580780
-39.8843231 167.4206085 189.2904510
121.1123810 207.8983612 0.9370584
38.0430527 209.6687164 1.8990426
-39.9478569 168.1036377 188.3934784
-40.4013023 167.9256439 189.2807922
121.1310730 208.5681458 0.6828978
-39.5247650 169.0597992 186.4176941
-40.9065971 168.4396973 189.2162628
-40.9780197 169.1199799 188.3135071
-41.4160500 168.9569397 189.1174469
-41.8753662 168.7776031 189.9685669
38.0461006 211.7265320 1.0631003
-41.0152435 169.8676758 187.2723694
-41.4808578 169.6544800 188.1849060
38.0269432 212.4390411 0.6947308
-41.5200691 170.4094696 187.1387329
119.6994629 210.7391052 1.8863127
39.2802467 212.5998535 2.3702722
119.7339554 211.4343872 1.5412449
39.2900810 213.2967377 2.0299542
38.6705475 213.5560455 1.0391457
-43.9625587 170.8960724 189.4217224
119.7863541 212.1464233 1.1400167
39.2821999 214.0107117 1.6415427
38.6626930 214.2869873 0.6359298
-43.5817108 171.8100281 187.5433502
-44.9616013 171.2835388 189.9872742
-45.0393829 172.0032043 188.9294128
-45.4896736 171.8504791 189.6945496
40.5079651 214.9167328 2.8093491
39.8771324 215.1940765 1.8244181
-44.1538658 173.2209625 185.9620667
-44.6418076 172.9620209 186.9400177
-45.1029015 172.7583618 187.7995605
-45.5677605 172.5641327 188.6487579
40.5226593 215.6381226 2.4270296
-46.5525017 172.9964447 189.0457916
-47.0149651 172.8519440 189.7858887
118.4718933 214.4671021 1.7625718
41.7625084 215.8560638 3.8423998
-46.6344299 173.7536621 187.8720551
-46.7039757 174.5841370 186.5613708
-48.1092529 174.0113678 188.9806671
-48.5536041 173.8884125 189.6231842
117.8203201 215.6316071 2.0351892
116.9689713 215.3169250 3.2632775
44.1804886 216.4152527 6.3564391
43.5467873 216.6484375 5.5258870
-47.7155685 175.0192413 186.8886566
-48.1848679 174.8116913 187.7029572
-48.6511803 174.6427155 188.4442596
117.0795364 216.0838776 2.7102296
44.1964531 217.1179962 5.9761739
-48.7398643 175.4566956 187.1663818
-50.1235924 174.9879303 189.3214417
117.1649246 216.8365173 2.1626163
44.1948853 217.8462219 5.5415416
-49.7549629 175.9413605 187.3170776
44.2084579 218.5670013 5.0956492
43.6024780 218.7970581 4.2877989
-52.1609230 176.0115356 189.4024506
-52.6143074 175.9058075 189.9798584
116.5460739 218.0763702 2.1308570
115.7377701 217.7837677 3.2787466
44.2197075 219.2959900 4.6219573
-52.2727089 176.8108368 188.0028076
-52.7284813 176.6758118 188.6864471
115.8028564 218.5292053 2.7137065
44.2509804 220.0231628 4.1548700
115.9450073 219.3489838 1.9698325
115.3139648 220.6112518 1.8494692
114.4763718 220.2935638 3.0669961
44.2959328 222.2932281 2.4612253
-58.3734856 178.8057251 188.6766052
-58.8491516 178.6994324 189.1524811
114.6115875 221.1148529 2.3469756
-58.9479561 179.5916138 187.5037689
-60.3992119 179.3361206 188.7078247
113.1626968 221.3783722 3.8156462
-60.0890999 180.3083649 186.4640656
-63.4737434 179.8239288 189.0719910
-63.9558220 179.7803345 189.3390656
-65.4456635 179.6673584 189.9390717
113.2541733 222.1698303 3.1352625
45.5532532 224.1419220 2.3037531
-64.1059265 180.6686249 187.4974518
-65.5828934 180.5615997 188.2533264
-66.0801086 180.5533600 188.4089203
-66.5762177 180.4980316 188.5631409
-67.0708313 180.4743958 188.6843872
-67.5712433 180.4835815 188.8287811
47.9949570 223.9664917 5.0715861
47.3942833 224.1913147 4.2655787
46.7904739 224.4280396 3.4154835
46.1688805 224.6873779 2.5108781
-66.2681808 181.4274292 186.3834839
-66.7447739 181.3811493 186.5552826
-67.2434769 181.4005890 186.6944275
48.0179253 224.7415009 4.4495635
111.9897461 224.0586853 2.9941640
112.1859741 225.7310486 1.1871505
49.2928238 226.6615143 3.9818132
49.3406715 227.4574890 3.2424443
48.7234917 227.7119904 2.3551579
109.4025421 226.3901825 3.6373868
49.3676987 228.2831268 2.4079838
49.4000511 229.1437378 1.5043437
48.7838478 229.4364624 0.5274023
109.6190872 228.1047211 1.6953455
50.6438065 229.4652710 2.4410651
50.0563965 229.7160950 1.5654004
49.4262123 230.0243378 0.5588519
107.6101074 229.1236115 2.6962571
106.8510284 228.8740387 3.5963104
51.8678322 230.7264862 2.2661357
106.9649124 229.7500458 2.5633278
107.1080627 230.6684875 1.3793535
55.5546532 231.1288605 4.9432635
54.9465523 231.3222046 4.2846961
107.2466583 231.6249695 0.0837908
55.5924454 231.9894257 4.0460906
55.6961594 233.7404175 2.0273831
104.6778564 233.4488068 0.3809367
103.9243317 233.1822357 1.4141577
103.1716309 232.9451141 2.3542790
56.9420242 234.2023773 2.4369719
56.3528061 234.4240417 1.7033917
55.7570992 234.6695099 0.9238852
102.0258942 234.4822693 1.4230909
101.2872086 234.2515259 2.2537732
100.5499649 234.0362244 3.0191338
60.6345177 234.8465729 4.2185631
100.6684036 234.9562225 1.7657318
60.7254372 235.6975555 3.1968906
60.0957985 235.9348297 2.4958560
101.6380920 236.3022766 -0.8103825
100.8923721 236.0585632 0.2076522
100.1358566 235.8016663 1.1698045
99.4404678 235.6072235 1.9375720
60.7830772 236.6659698 1.9271930
60.8496704 237.6681213 0.5851975
96.2072678 236.8024902 2.4983540
95.5032883 236.6424103 3.1081765
94.8179245 236.5096741 3.6547375
94.1558914 236.4062958 4.1336331
93.4950638 236.3103027 4.5815883
92.8212738 236.2074432 5.0188131
92.1493607 236.1271057 5.4071555
91.4549561 236.0364532 5.7960014
90.7899246 235.9469452 6.1541882
90.1582031 235.8914948 6.4465809
89.4993134 235.8404999 6.7255611
