151.3289642 17.2896862 336.6557312
141.7411499 11.7377205 336.2531128
142.6866302 11.6756086 336.1440125
143.5997162 11.6852388 336.0375366
144.4329681 11.8024035 335.9756470
150.6242218 15.2859716 335.7341003
151.1534576 15.9412317 335.7509766
151.6283417 16.7493420 335.8027954
152.0466003 17.6366463 335.8802795
152.4256592 18.5764027 335.9407959
152.7205811 19.6801891 336.0386963
94.7557449 7.8082366 340.0541382
96.9200058 8.9906416 339.9788208
97.4795990 9.5912619 340.0186462
97.9996643 10.3062878 340.0610046
142.0212097 11.2320337 335.4013062
142.9434509 11.2125359 335.3029785
143.8287659 11.2734995 335.2216187
144.6879120 11.3903475 335.1319275
150.8381653 14.8888273 334.9040833
151.3745575 15.5571289 334.9350891
151.8712006 16.3151588 334.9790955
152.3272552 17.1190681 335.0191956
152.7345886 18.0289001 335.0874023
153.0601959 19.0633602 335.1781006
94.6302567 6.4645534 339.1630554
95.4580994 6.6746111 339.0747681
96.2037048 7.0027890 339.0495300
96.9254990 7.4086242 339.0220947
97.5868454 7.8963037 339.0084534
98.1682358 8.4652443 339.0190430
98.7088776 9.1001892 339.0173035
99.2074051 9.8703022 339.0589294
99.6475449 10.7230196 339.1612244
141.2830811 10.9135571 334.6843262
142.2422638 10.8296442 334.5749207
143.1624146 10.8384218 334.4757385
148.5551605 12.5143967 334.1028137
149.2139587 12.9597178 334.0810242
152.0798645 15.9459572 334.1443787
152.5454254 16.7179279 334.1946411
152.9628448 17.6128426 334.2620544
153.3120422 18.6185112 334.3474121
153.6330261 19.6954384 334.4603882
94.3372955 5.4194918 338.2534180
95.1683121 5.6131110 338.2001953
95.9616776 5.8796868 338.1504517
96.6989975 6.2201285 338.1154785
97.4094391 6.6259837 338.0859680
98.0935745 7.0917306 338.0603943
98.6887817 7.6368580 338.0806580
99.2367020 8.2619467 338.1056213
99.7731781 8.9675350 338.1143188
100.2314148 9.7685003 338.1638794
100.6270065 10.6951170 338.2491760
140.4953918 10.7107210 333.9974365
141.4874268 10.5463629 333.8613586
142.4364929 10.4946108 333.7560120
143.3384705 10.5251284 333.6609192
148.7023010 12.2625933 333.3008423
149.3460236 12.7246141 333.2929993
152.2252350 15.6538677 333.3440857
152.7076416 16.4165649 333.3866577
153.1400757 17.2783985 333.4482422
153.5126343 18.2392311 333.5244141
153.8343811 19.2694817 333.6123047
93.8836365 4.6039891 337.4402466
94.7431488 4.7351222 337.3589478
99.6586990 7.6013885 337.1922302
100.1993179 8.2658987 337.2054749
100.6723175 9.0680542 337.2576599
101.0945206 9.9290600 337.3107605
101.4710617 10.8793583 337.3908997
101.7755890 11.9875574 337.5236816
140.7189484 10.3638945 333.1645813
141.6636200 10.2464314 333.0472717
148.8169861 12.0739183 332.5102234
149.4476013 12.5343390 332.5107117
150.0895691 13.0280371 332.4937439
150.6983948 13.5403357 332.4947510
151.2599487 14.1142216 332.5155334
151.8071136 14.7493172 332.5298767
154.0004425 18.9469357 332.8005371
154.2782593 20.1183186 332.9223938
92.4077988 3.8993108 336.7090759
93.3725739 3.9093397 336.6148987
94.2850189 3.9947829 336.5217896
95.0968781 4.1778979 336.4718018
99.9874420 7.0650210 336.3025513
100.5436783 7.7294774 336.3241577
101.0352097 8.4635925 336.3634033
101.4958954 9.2724361 336.4056396
101.8979340 10.2000628 336.4754333
102.2054901 11.2289000 336.5693359
140.8532715 10.1212788 332.3608398
141.7798920 10.0357647 332.2570190
148.8912506 11.9319782 331.7345886
149.5300140 12.3806076 331.7219849
150.1811523 12.8589897 331.7098999
150.8029938 13.3661242 331.7041626
151.3665619 13.9389257 331.7189636
151.8998413 14.5685320 331.7381287
154.1224213 18.7154846 332.0048523
154.4105072 19.8616581 332.1181030
44.9883919 1.2115982 340.6044922
45.6854630 1.6784109 340.5951538
91.7460556 3.4037080 335.9463501
92.7182999 3.3855462 335.8412170
93.6758728 3.4307704 335.7492676
94.5779724 3.5298223 335.6563416
95.3867493 3.7263606 335.6064148
101.3343964 7.9924641 335.4967651
101.8073425 8.7783689 335.5447388
102.2300797 9.6551151 335.5976257
102.5796814 10.6325178 335.6802673
102.8944016 11.6725674 335.7896118
140.9334412 9.9540567 331.5780640
141.8562012 9.8851967 331.4745178
142.7772217 9.8751144 331.3766479
143.6688690 9.9406242 331.2884827
148.9403534 11.8406525 330.9680176
149.5813904 12.2994604 330.9618530
150.2292938 12.7660017 330.9434814
150.8557281 13.2379684 330.9298096
151.4294434 13.8017292 330.9439697
151.9720917 14.4419813 330.9619446
154.2071838 18.5833225 331.2361450
154.5027008 19.6682243 331.3276367
44.3284645 -0.7945516 339.5950623
45.1473007 -0.5323561 339.5232239
45.9049072 -0.1357834 339.4880981
46.5699310 0.3747713 339.4885864
47.2205429 0.9274700 339.4789124
47.8116951 1.5500383 339.4779968
48.2908325 2.3145237 339.5496521
91.0473633 3.0242844 335.1851196
92.0578384 2.9497612 335.0599670
92.9897232 2.9670916 334.9784851
93.9419937 3.0261440 334.8843079
94.8198166 3.1531396 334.8040161
95.6312866 3.3549759 334.7402344
101.5758057 7.5941072 334.6321106
102.0632324 8.3571224 334.6762695
102.4992981 9.2114363 334.7341614
102.8834305 10.1285925 334.8020630
103.2056580 11.1006737 334.8774414
103.4696808 12.2895594 335.0234680
140.0402679 9.9816189 330.9158020
140.9928436 9.8410282 330.8034363
141.9275970 9.7745237 330.6948242
142.8218231 9.7781773 330.6042175
143.7218781 9.8617668 330.5164490
148.9660339 11.7824850 330.2056274
149.6063995 12.2446756 330.1991577
150.2604370 12.7165461 330.1860962
150.8938904 13.1934662 330.1744690
151.4610138 13.7360649 330.1836853
152.0191498 14.3707352 330.2008362
154.2715759 18.4836063 330.4594727
154.5731964 19.5508804 330.5558167
154.8487854 20.8609219 330.6891479
44.2119789 -2.0369482 338.6258850
45.0426216 -1.8108575 338.5770264
45.8142433 -1.4878290 338.5459290
46.5379066 -1.0532651 338.5268860
47.2127533 -0.5597665 338.5161743
47.8557777 -0.0074471 338.5212097
48.4635086 0.6025859 338.5201111
48.9940147 1.2936935 338.5375366
49.4316978 2.0814941 338.5792236
49.8147011 2.9884663 338.6497803
91.2687378 2.6530824 334.3336487
92.2520218 2.5988328 334.2276001
93.2174225 2.6125016 334.1268921
94.1563187 2.6924176 334.0354614
98.0774307 4.0281219 333.7959595
98.7921066 4.4437208 333.7726135
100.6610184 5.9688129 333.7569580
101.2346878 6.6164889 333.7786865
101.7604141 7.2906575 333.7990417
102.2554779 8.0512123 333.8414001
102.7105789 8.8801508 333.8959961
103.1132813 9.7558327 333.9563293
103.4523849 10.7018747 334.0329590
103.7206879 11.8148203 334.1371155
140.0511780 9.9102468 330.1515198
141.0301971 9.7765923 330.0335999
141.9447784 9.7281799 329.9336853
142.8425140 9.7715921 329.8465271
143.7165985 9.8707027 329.7679138
148.9898987 11.7516155 329.4420776
149.6379547 12.2010918 329.4370728
150.2879944 12.6653566 329.4226990
150.9118347 13.1666088 329.4172974
154.8809814 20.7774067 329.9170227
42.9238014 -3.1258471 337.8298645
43.8972702 -3.0425868 337.7404785
44.7733383 -2.8456619 337.6766357
45.5885048 -2.5833113 337.6238098
46.3554344 -2.2547786 337.5779419
47.0785980 -1.8258822 337.5601501
47.7619743 -1.3499328 337.5379028
48.4009972 -0.7875330 337.5500793
49.0066452 -0.1851532 337.5510864
49.5512276 0.4834023 337.5793152
50.0208702 1.2104250 337.6162415
50.4306297 2.0748563 337.6667480
50.7803497 3.0803945 337.7539673
90.4361496 2.4573212 333.6127319
91.4807968 2.3340855 333.4855957
92.4485703 2.2945993 333.3852234
93.4023743 2.3240426 333.2890625
94.3115616 2.4356885 333.2053833
98.2362518 3.7805555 332.9622498
98.9323654 4.2060466 332.9476624
100.8110657 5.7244391 332.9265137
101.3685837 6.3717847 332.9523926
101.9047241 7.0819516 332.9922485
102.4064713 7.8067818 333.0160522
102.8738251 8.6037483 333.0626221
103.2924042 9.4656429 333.1209717
103.6430054 10.3918295 333.1947632
103.9342194 11.4721489 333.2940369
104.1873856 12.7294540 333.4279480
139.0442047 10.0753736 329.5186768
140.0766602 9.8820105 329.3876648
141.0352173 9.7632132 329.2748413
141.9268646 9.7399244 329.1804810
142.8145752 9.8050003 329.1010437
143.7027740 9.8920240 329.0198975
148.9879608 11.7439766 328.6918640
149.6528015 12.1664047 328.6703796
150.2931671 12.6490374 328.6654358
150.8924103 13.1782322 328.6680298
154.8701935 20.7658005 329.1606750
42.4001083 -3.8338447 336.9939575
43.4002342 -3.8166003 336.8914795
44.3492508 -3.6885035 336.8054504
45.2198143 -3.4522283 336.7478027
46.0062523 -3.1764374 336.7057800
46.7713623 -2.8434808 336.6587219
49.9757919 -0.1280642 336.6516113
50.4850883 0.5483457 336.6681213
50.9047394 1.3955402 336.7311096
51.2505760 2.3794658 336.8235779
51.6024628 3.3994303 336.9188843
90.6077652 2.1877284 332.7740479
95.2704163 2.4220264 332.3322754
96.0750427 2.6247890 332.2744141
96.8765182 2.8870471 332.2155762
97.6310425 3.2258716 332.1860962
98.3552856 3.6010895 332.1462097
99.0446777 4.0377641 332.1323547
103.7802277 10.1605787 332.3661804
104.0984268 11.2020693 332.4587402
104.3560028 12.4013958 332.5745239
141.0184784 9.7946472 328.5238342
141.9010925 9.7785826 328.4324646
142.8364258 9.8182182 328.3362122
143.7101135 9.9023619 328.2615051
147.5727997 11.0202265 327.9979553
148.2713776 11.3920784 327.9738770
152.5042114 15.1339550 327.9822693
152.9972534 15.8930569 328.0221863
153.4649506 16.6704330 328.0656738
153.8928070 17.5237560 328.1222839
154.2671967 18.4758492 328.1970825
154.5692139 19.5375538 328.2915955
154.8491821 20.8141537 328.4127197
42.8282547 -4.4577794 336.0616150
43.8079643 -4.3816252 335.9645386
44.7115326 -4.1925240 335.9003601
45.5574112 -3.9445140 335.8498840
46.3546143 -3.6690912 335.7887878
47.0906219 -3.3106265 335.7640381
50.2985954 -0.5763892 335.7802429
50.8075333 0.0855059 335.7912292
51.2648315 0.8825241 335.8285522
51.6641769 1.7917117 335.8979797
52.0295448 2.7207162 335.9560242
52.3237877 3.7849445 336.0628662
90.7135620 1.9923487 331.9636230
95.3861847 2.2622931 331.5116882
96.1679993 2.4776938 331.4594116
96.9436951 2.7779427 331.4170837
97.6910858 3.1371503 331.3826294
98.4100723 3.4965236 331.3537903
99.1121826 3.9128966 331.3298340
103.8677902 10.0198917 331.5730286
104.2120056 11.0198030 331.6460876
104.4767151 12.1820364 331.7526855
104.6726990 13.5782881 331.9118652
140.9722748 9.8707581 327.7811890
141.8631744 9.8483105 327.6878052
142.7778931 9.8855314 327.5995178
143.6555786 9.9804249 327.5219727
147.5199127 11.1064005 327.2618408
148.2305145 11.4717655 327.2322388
152.4525604 15.2330523 327.2452087
152.9396820 15.9703817 327.2829895
153.4169312 16.7715111 327.3287964
153.8438568 17.6209793 327.3858337
154.2053986 18.5635948 327.4591675
154.5098114 19.6607780 327.5578308
154.7821503 20.9209156 327.6783142
-2.5646329 -6.3262372 339.5621338
42.1633873 -4.9583907 335.2565002
43.1687737 -4.9286332 335.1558228
44.0924416 -4.8051848 335.0855103
44.9939270 -4.6039782 335.0187073
45.8480110 -4.3555036 334.9576111
49.4092293 -2.2499607 334.8338623
50.0147629 -1.6458501 334.8470459
51.5539169 0.4614562 334.9469910
51.9881706 1.3220328 335.0079651
52.3753891 2.2361274 335.0678101
52.6884308 3.2702289 335.1505127
52.9078293 4.4129367 335.2574768
89.7355881 2.0005078 331.2741089
90.8299255 1.8413671 331.1410828
96.9714813 2.7448030 330.6347656
98.4600906 3.4206948 330.5570984
99.1616745 3.8315232 330.5353699
103.1431122 8.1780920 330.6411133
103.5684891 9.0307674 330.6996460
104.5641098 12.0425720 330.9472656
138.9126740 10.2952518 327.2829590
139.9584503 10.1045742 327.1548157
154.1157532 18.7104359 326.7338562
154.4177094 19.8261223 326.8316345
154.6784973 21.1464939 326.9574585
-5.2916498 -9.8111248 338.6291199
-4.4748058 -9.4916954 338.5740051
-3.7204177 -9.0524931 338.5491638
-3.0101697 -8.5619946 338.5260925
-2.3824017 -7.9842649 338.5400696
-1.8137594 -7.3309159 338.5626526
-1.3112081 -6.5737324 338.6068420
-0.8644295 -5.8053546 338.6446838
-0.4665749 -4.8286648 338.7637939
41.4078255 -5.3329892 334.4746704
42.4252396 -5.3462420 334.3837585
43.4069405 -5.2902493 334.2929077
44.3416061 -5.1585946 334.2070007
45.2417297 -4.9497533 334.1388855
46.0737953 -4.6820865 334.0843201
49.6233826 -2.5462279 333.9809875
50.2248802 -1.9499481 333.9927673
51.7982445 0.1015604 334.0643616
52.2532883 0.9390728 334.1163940
52.6466217 1.8293011 334.1875916
52.9891090 2.8296328 334.2665405
53.2471962 3.9183965 334.3585510
53.4076576 5.1669145 334.4881897
89.8229599 1.8939097 330.4664917
90.9035416 1.7417542 330.3391724
97.0148468 2.7088792 329.8377991
97.7678146 3.0301230 329.8057861
98.4821320 3.3719165 329.7684937
99.1721344 3.8024116 329.7542114
103.1667404 8.1423397 329.8546143
103.6017151 8.9623356 329.9047241
104.6170197 11.9975977 330.1586914
138.8077545 10.4921894 326.5584106
139.8379517 10.2942171 326.4296570
154.0029602 18.9602413 326.0167236
154.2941132 20.0637512 326.1168823
154.5410767 21.3994923 326.2442627
-5.4871931 -10.9200659 337.6703491
-4.6496582 -10.6382074 337.6329041
-3.8977954 -10.2308149 337.6255798
-1.8486840 -8.6873970 337.6008301
-1.2381197 -8.0735750 337.5910339
-0.7040520 -7.3898039 337.6154785
-0.2318166 -6.6281466 337.6560364
0.1897191 -5.7565422 337.7018433
0.5410214 -4.7114325 337.8117981
41.6454124 -5.6799512 333.6011963
42.6808968 -5.6849327 333.4960327
43.6492004 -5.6050272 333.4090576
44.5660400 -5.4409075 333.3335571
48.4544640 -3.7840183 333.1503601
49.1496353 -3.3263998 333.1192932
52.8641205 1.5219584 333.3193054
53.2271423 2.4669290 333.3880615
53.5139236 3.5337083 333.4829407
53.7083244 4.6991191 333.5888977
53.8187904 6.1197386 333.7713928
89.8495102 1.8472013 329.6734314
90.9088364 1.7031741 329.5528564
97.0206299 2.6847191 329.0562744
97.7705154 3.0115454 329.0184631
101.0382004 5.3629966 328.9668884
101.6087646 5.9829440 328.9825134
103.9817810 9.8528280 329.1913757
104.3342896 10.8239546 329.2685852
104.6206512 11.9581757 329.3685303
104.8149414 13.2931480 329.5046997
138.6623688 10.7221460 325.8403015
139.7254181 10.5077848 325.7127991
140.6639557 10.3917427 325.6031494
141.5790863 10.3535032 325.5087585
142.4667358 10.4110432 325.4242859
143.3368378 10.5104227 325.3453979
144.1894226 10.6334028 325.2769775
145.0114136 10.8075542 325.2220459
153.8474884 19.2200165 325.3097839
154.1311340 20.3382626 325.4112854
-6.8901572 -11.9191284 336.8768311
-5.8810043 -11.8025017 336.7854309
-4.9771528 -11.5849838 336.7225037
-4.1938128 -11.2595673 336.6986389
-3.4098475 -10.8708153 336.6448364
-1.3704071 -9.2712030 336.6424255
-0.7817010 -8.6565599 336.6540527
-0.2276480 -7.9962072 336.6751099
0.2713734 -7.2790542 336.7027893
0.7224393 -6.4380450 336.7477112
1.1140928 -5.4993119 336.8132935
40.8129349 -5.8836074 332.8453369
41.8413773 -5.9578514 332.7400208
42.8599892 -5.9369226 332.6415405
43.8022385 -5.8235536 332.5642395
44.7076759 -5.6380920 332.4960938
48.6039124 -3.9912326 332.2928772
49.2814827 -3.5176444 332.2843933
53.0277405 1.2972829 332.4658813
53.4001770 2.2091751 332.5347595
53.7053490 3.2526062 332.6273499
53.9285851 4.3958611 332.7304993
89.8382874 1.8595132 328.8916016
90.8972855 1.7245076 328.7716370
97.0054245 2.7175620 328.2821350
97.7467728 3.0554938 328.2471313
101.0033417 5.4070082 328.1940613
101.5901108 6.0359788 328.2105408
103.9427872 9.8945227 328.4192200
104.3016891 10.8636932 328.4948425
104.5991287 12.0092869 328.5964661
104.7931747 13.3410673 328.7295532
138.4926147 10.9973669 325.1290283
139.5352631 10.7928724 325.0010986
140.5037537 10.6599913 324.8893738
141.4391022 10.6000395 324.7933044
142.3313751 10.6310425 324.7077332
143.2110748 10.7319212 324.6311340
144.0494690 10.8761501 324.5645752
144.8564758 11.0734758 324.5029602
153.6641235 19.5607338 324.6096497
153.9324646 20.7008648 324.7178955
-53.3911324 -14.3692436 340.3397217
-52.8519707 -13.6345339 340.3646851
-7.4148984 -12.6113272 336.0093079
-6.4122419 -12.5284328 335.9193420
-5.4502773 -12.3550739 335.8419189
-4.5891557 -12.0866661 335.7958984
-3.7763779 -11.7670383 335.7383423
-3.0293849 -11.3608675 335.7199097
0.1858388 -8.5711994 335.7169495
0.6923742 -7.8500628 335.7468567
1.1381308 -6.9992671 335.8133545
1.5410337 -6.0815611 335.8641663
1.8719168 -5.1062059 335.9465637
2.2643452 -2.7714725 336.1872559
40.9603500 -6.1011643 331.9972839
41.9755058 -6.1493006 331.8949585
42.9786148 -6.1051168 331.8011475
53.1385460 1.1258847 331.6318359
53.5289841 2.0219069 331.6873779
53.8481674 3.0508010 331.7774963
54.0874329 4.1472325 331.8739929
54.2654610 5.4385891 332.0195618
89.7741241 1.9395059 328.1224060
90.8437653 1.8075302 328.0021973
104.5462418 12.1132307 327.8313599
104.7334976 13.4446335 327.9645691
138.2991943 11.3502769 324.4288025
139.3546295 11.1240339 324.3040771
140.3240814 10.9696417 324.1851196
141.2667236 10.9014406 324.0880432
142.1583710 10.9174156 323.9999390
143.0542297 11.0052156 323.9273682
143.8794403 11.1604939 323.8589783
144.7077942 11.3508434 323.8029175
145.4710999 11.5720005 323.7484131
146.1972809 11.8277950 323.7113037
151.8172760 16.3602867 323.6787415
152.2954407 17.1555367 323.7165527
152.7290497 18.0362358 323.7701111
153.1120758 18.9224911 323.8398743
153.4446259 19.9318161 323.9229126
153.6944275 21.1362171 324.0351868
-55.3704376 -17.3930702 339.3127747
-54.5194397 -17.0766563 339.2457581
-53.7299118 -16.6527863 339.2166138
-53.0359192 -16.1067619 339.2122498
-51.3643913 -14.0387592 339.2673340
-50.9831009 -13.1520634 339.3554382
-8.0843706 -13.1407890 335.1742554
-7.0344944 -13.0990124 335.0798035
-6.0417089 -12.9872875 334.9894409
-5.1313252 -12.7770500 334.9333191
-4.2755189 -12.4872904 334.8792419
-3.4862692 -12.1491470 334.8419495
-2.7237377 -11.7478914 334.8140259
0.4975174 -8.9635715 334.8211670
0.9987874 -8.2567635 334.8399658
1.4751917 -7.4484224 334.8821411
1.9042633 -6.5596919 334.9421997
2.2706413 -5.6254549 335.0144958
2.5420828 -4.5952735 335.0989685
2.7074950 -3.4023585 335.2229919
2.8059006 -2.0838494 335.3767700
41.0996094 -6.2708197 331.1512146
42.0688400 -6.2845302 331.0615540
43.0731773 -6.2270694 330.9672852
53.2068024 1.0168684 330.8046875
53.6057358 1.9156554 330.8609009
53.9421082 2.9205203 330.9456177
54.2065430 3.9708478 331.0319519
54.3813362 5.2432852 331.1629944
89.7065125 2.0701790 327.3597412
90.7739105 1.9433360 327.2413025
104.4505920 12.2435389 327.0738831
104.6373596 13.6010246 327.2073669
140.1297760 11.3445702 323.4938049
141.0313721 11.2758245 323.3936768
141.9720459 11.2727537 323.3067627
142.8480988 11.3478680 323.2232971
143.6866913 11.4833336 323.1589355
144.5162659 11.6700153 323.1047363
145.2825470 11.9238253 323.0512085
145.9934387 12.1877642 323.0157776
151.6094360 16.7513390 322.9823914
152.0689545 17.5330486 323.0326843
152.4992065 18.4088593 323.0881348
152.8847046 19.3786678 323.1525574
153.1850281 20.4027977 323.2462463
-56.5002136 -18.7986526 338.3976440
-55.4802895 -18.6099072 338.3023376
-54.5699463 -18.3451176 338.2312927
-53.7978439 -17.9477634 338.2271423
-53.0373154 -17.4784260 338.1979675
-52.3714180 -16.9154739 338.2111511
-51.7447891 -16.3307056 338.2021484
-51.1670914 -15.6329117 338.2363892
-50.6571655 -14.8976526 338.2580261
-50.2266197 -14.0765371 338.3007202
-49.8517761 -13.1568680 338.3606567
-49.5635376 -12.1108541 338.4648132
-7.7422662 -13.5605402 334.2502747
-6.7153039 -13.4873180 334.1644287
-5.7680779 -13.3489513 334.0882568
-4.8446994 -13.1261520 334.0193787
-4.0234265 -12.8206005 333.9868164
-0.4105074 -10.5608015 333.8858032
0.1962605 -9.9647131 333.8856506
0.7385696 -9.2706175 333.9185181
1.2410655 -8.5371790 333.9585876
1.7357394 -7.7819276 333.9885864
2.1932664 -6.9183683 334.0461121
2.5759237 -6.0239644 334.1011047
2.8784239 -5.0103974 334.1855774
3.0800095 -3.9047010 334.2844543
3.1711180 -2.5809486 334.4420166
40.0731735 -6.2612648 330.4435120
41.1534004 -6.3652067 330.3295593
54.4411964 5.1288910 330.3323059
89.5858688 2.2549460 326.6069641
90.6375732 2.1346462 326.4906311
96.7637253 3.0821252 326.0025635
97.5101242 3.4248285 325.9739380
103.6725388 10.3173542 326.1488342
104.0240784 11.3228636 326.2275696
104.3092041 12.4786491 326.3317566
104.5029144 13.8664846 326.4646301
139.8492279 11.8147478 322.8139038
140.7893677 11.7077217 322.7063904
141.7427826 11.6841583 322.6190796
142.6240234 11.7568293 322.5398254
143.4727020 11.8813829 322.4737549
144.2979431 12.0816879 322.4109802
145.0596924 12.3293867 322.3553162
145.7861023 12.5795603 322.3253174
150.3222809 15.7595587 322.2402344
150.8514252 16.4221058 322.2639465
151.3580475 17.1877728 322.2999878
151.8201904 18.0227966 322.3432312
152.2460938 18.8923416 322.4124451
152.6019592 19.8770657 322.4824829
152.8760986 20.9813557 322.5834045
-55.8593254 -19.5308952 337.3772583
-54.8960152 -19.2981758 337.3118896
-54.0386467 -18.9868240 337.2679749
-53.2565689 -18.5970154 337.2388916
-52.5051537 -18.1167660 337.2065125
-51.8174934 -17.5416603 337.2216797
-51.1952400 -16.9711571 337.2142334
-50.6154137 -16.3004913 337.2357178
-50.0907784 -15.5559931 337.2740479
-49.6335487 -14.7731829 337.3132935
-49.2156601 -13.9039106 337.3574219
-48.9002991 -12.9069986 337.4355164
-48.6927452 -11.8196487 337.5227966
-48.5804901 -10.5844240 337.6906738
-8.5703077 -13.9122162 333.4588928
-7.4880571 -13.8928137 333.3560791
-6.4887385 -13.7896605 333.2778015
-5.5476274 -13.6292543 333.2008972
-4.6208901 -13.4011679 333.1251526
-3.8006568 -13.0887833 333.0896301
-0.2162241 -10.8241425 332.9966431
0.3921665 -10.2103500 332.9981689
0.9306626 -9.5018072 333.0456848
1.4499671 -8.8062925 333.0698242
1.9550335 -8.0698414 333.0979309
2.4058647 -7.2076063 333.1500854
2.7938721 -6.3203578 333.2134705
3.1279438 -5.3408985 333.2932129
3.3838599 -4.2984071 333.3750000
3.5270617 -3.0653098 333.4976501
40.1143494 -6.3036995 329.6231384
41.1752586 -6.3944297 329.5112915
54.4724960 5.0884767 329.5147400
89.4277573 2.4798226 325.8615723
90.4962845 2.3566737 325.7480774
96.6290207 3.2977464 325.2578125
97.3673401 3.6579676 325.2268677
103.5142517 10.5931301 325.4127502
103.8522568 11.5876541 325.4949646
104.1235504 12.7778425 325.5993347
139.5481415 12.3142748 322.1433105
140.5218964 12.1956968 322.0429993
141.4165192 12.2076588 321.9396362
142.3310547 12.2630739 321.8531189
143.2049866 12.3491964 321.7883911
144.0419464 12.5069475 321.7297363
144.8293915 12.7246304 321.6786804
145.5446930 12.9859371 321.6335754
150.0662079 16.1974945 321.5649414
150.5919037 16.8919506 321.5892334
151.0851440 17.6806908 321.6306763
151.5346222 18.5325127 321.6785889
151.9351807 19.4310856 321.7441711
152.2646790 20.4688854 321.8316040
152.5031586 21.6611805 321.9401245
-56.3437080 -20.3153152 336.4650574
-55.3704720 -20.1178169 336.4058228
-54.4362755 -19.8284054 336.3468018
-53.6253242 -19.5026665 336.3136292
-52.8024750 -19.0922203 336.2619019
-52.0793495 -18.5973492 336.2549744
-51.3916283 -18.0705261 336.2422180
-50.7687035 -17.4902840 336.2519531
-50.1753845 -16.8269215 336.2572937
-49.6389236 -16.0969677 336.2888489
-48.3739510 -13.5232582 336.4679871
-48.1084938 -12.5023031 336.5401611
-47.9477654 -11.3521757 336.6562805
-8.3161936 -14.2002373 332.5593262
-7.2647295 -14.1579027 332.4636841
-6.2937469 -14.0297174 332.3901062
-5.3683400 -13.8495560 332.3197327
-4.4791489 -13.5986013 332.2655945
-3.6607804 -13.2813425 332.2301331
2.1211801 -8.3015862 332.2156982
2.5742188 -7.4119205 332.2912903
2.9747057 -6.5568681 332.3319092
3.3143127 -5.6160617 332.4066162
3.5974731 -4.5837107 332.4893494
3.7773221 -3.4309208 332.5914612
40.0681572 -6.2795506 328.8190002
41.1608925 -6.3719740 328.7037659
54.4611359 5.0954213 328.7070313
90.3191605 2.6328847 325.0076904
96.4624557 3.5577095 324.5264282
97.1985016 3.9162266 324.4941711
100.4696503 6.2997394 324.4429321
101.0477219 6.9083314 324.4620972
102.5592117 9.1196222 324.5614624
102.9597092 9.9843702 324.6141663
103.3243408 10.9031858 324.6782837
103.6497269 11.9134398 324.7669373
103.9029770 13.1508713 324.8794556
139.2028809 12.8972559 321.4655151
140.1468964 12.8099365 321.3836060
141.0902863 12.7842941 321.2814331
142.0671692 12.7595129 321.1978760
148.6645203 15.5515852 320.8720093
149.2462006 16.1143627 320.8721313
149.7771912 16.7234402 320.8824158
150.2842560 17.4163151 320.9256592
150.7660065 18.2637520 320.9642029
151.1943359 19.1271477 321.0231323
151.5753784 20.0961914 321.0984192
151.8630676 21.1982288 321.1949463
-105.1083298 -24.5637398 339.7683716
-104.3914795 -24.0652370 339.7497559
-103.7022781 -23.4876423 339.7365417
-103.0511551 -22.8403797 339.7400818
-102.5162659 -22.1313782 339.7515564
-102.1147690 -21.2463055 339.8312073
-55.8975639 -20.8222752 335.4964600
-54.9740562 -20.5723763 335.4505615
-54.0611610 -20.2652359 335.3887939
-53.2459946 -19.8987236 335.3645325
-52.4843788 -19.4768486 335.3331604
-51.7461853 -18.9819603 335.3322144
-51.0565720 -18.4699554 335.3065796
-50.4539452 -17.8759575 335.3188477
-49.2765350 -16.5075245 335.3518677
-47.9677925 -13.9964943 335.5163574
-47.6632500 -13.0205584 335.5857544
-47.4476929 -11.9555578 335.6734314
-47.2909508 -10.7390337 335.8076172
-9.2627220 -14.3863020 331.7967529
-8.1514044 -14.4172630 331.6801758
-7.0875397 -14.3601675 331.5848999
-6.1293950 -14.2185059 331.5135193
-5.2270236 -14.0224037 331.4472656
-4.3593826 -13.7440004 331.4026489
-3.5252686 -13.4246063 331.3539429
2.2555575 -8.4503708 331.3546448
2.7155895 -7.6165385 331.3987732
3.1125097 -6.7242827 331.4651794
3.4495070 -5.7658114 331.5405579
3.7394288 -4.7473512 331.6254578
3.9412770 -3.6016383 331.7307129
4.0788903 -2.3264191 331.8594360
38.8484421 -6.0394392 328.1497192
40.0329323 -6.2159410 328.0172119
41.1192017 -6.3053060 327.9043274
54.4078979 5.2019658 327.9140625
89.0222549 3.1058745 324.3906555
90.1107178 2.9710703 324.2826538
96.2672119 3.8791025 323.7922668
97.0065689 4.2148733 323.7661743
100.2734299 6.6130414 323.7160950
100.8529510 7.2482886 323.7279663
102.3465958 9.4650059 323.8357849
102.7444077 10.3371325 323.8924866
103.1069717 11.2551880 323.9647217
103.4148102 12.3021545 324.0484009
103.6408157 13.5652103 324.1623840
139.7326813 13.4793243 320.7186890
140.7470245 13.3964138 320.6251526
141.7406921 13.3320017 320.5354614
148.3429565 16.1224041 320.2009888
148.9249878 16.6847496 320.2211914
149.4461060 17.3187180 320.2408142
149.9276123 18.0877476 320.2669678
150.3951263 18.9030075 320.3226624
150.7945099 19.8491402 320.3767395
151.1346893 20.8855515 320.4707031
151.3801270 22.0982323 320.5741272
-105.9945374 -26.2531548 338.7554321
-104.2002945 -25.5548820 338.6666870
-102.1476898 -23.8235188 338.6585083
-101.6281662 -23.0988808 338.6931152
-101.1991959 -22.2669621 338.7394104
-100.8088531 -21.3500042 338.8029785
-100.4788513 -20.3617744 338.9038696
-56.5602188 -21.3822594 334.6477966
-55.6115990 -21.1953335 334.5813599
-54.6765938 -20.9344082 334.5174561
-52.2004967 -19.8049488 334.4094238
-51.4505386 -19.3246861 334.3792725
-50.7883110 -18.7962093 334.3791199
-50.1728973 -18.2002621 334.3677979
-49.5639076 -17.5519466 334.3890381
-48.9869080 -16.8636322 334.4256592
-48.4826317 -16.1389332 334.4491577
-48.0488129 -15.2987204 334.5017395
-47.6494026 -14.3775072 334.5743713
-47.2999916 -13.4696321 334.6332703
-47.0543137 -12.4386215 334.7246704
-46.8872528 -11.2328358 334.8401184
-9.1436996 -14.5268030 330.9290161
-4.2625761 -13.8539038 330.5402527
-3.4422915 -13.5376139 330.4991455
-2.6811860 -13.1816101 330.4743347
-1.9287456 -12.7483034 330.4424133
-1.2001631 -12.2800198 330.4261169
-0.5106169 -11.7881498 330.4121704
3.1963387 -6.8316317 330.6072388
3.5513587 -5.8880816 330.6807861
3.8501008 -4.8761010 330.7634277
4.0573459 -3.7549698 330.8651123
4.2095470 -2.5364108 330.9789124
38.7593384 -5.9113536 327.3602905
39.9757919 -6.1017151 327.2236633
41.0453529 -6.1829791 327.1134033
45.6197777 -5.4891438 326.7578430
46.4259911 -5.1767607 326.7164612
47.1911469 -4.8352585 326.6846924
47.9113693 -4.4503946 326.6576233
52.1783028 -0.4318835 326.6947327
52.6631470 0.3656296 326.7359314
54.3032761 5.3547034 327.1300964
89.8308945 3.3744256 323.5642700
90.8855515 3.2890935 323.4588013
91.8397827 3.2884245 323.3645630
94.4918976 3.6585114 323.1605835
95.2517548 3.9185441 323.1132813
97.5035248 4.9496174 323.0162964
98.1944122 5.3913841 322.9980469
100.0536423 6.9526930 322.9985352
100.6275253 7.5956783 323.0124207
101.1524963 8.2806873 323.0407104
101.6510925 9.0344391 323.0793762
102.8440399 11.6744165 323.2519226
103.1295090 12.7366295 323.3451233
103.3345490 14.0694132 323.4632263
140.3547058 14.0905561 319.9794617
141.3258972 14.0436506 319.8855591
142.2327881 14.0738811 319.8022461
143.0808563 14.1942577 319.7372742
146.7355194 15.7666779 319.5623474
147.3895416 16.2223454 319.5660400
147.9735565 16.7930317 319.5527344
148.5268860 17.3784180 319.5654907
149.0415344 18.0499096 319.5845642
149.5225220 18.7973480 319.6250916
149.9757385 19.6645241 319.6939087
150.3313293 20.6912937 319.7644958
150.6110229 21.8070545 319.8675232
-106.2100296 -27.3049583 337.7692261
-105.2800217 -27.0408688 337.7290344
-104.3691711 -26.6878967 337.6814270
-103.5588837 -26.2501564 337.6504211
-101.5122528 -24.5248871 337.6454773
-100.9672241 -23.8383255 337.6656799
-100.4960632 -23.0299530 337.7174377
-100.0387726 -22.1982460 337.7364807
-99.7008209 -21.2368584 337.8173218
-99.4663391 -20.1928406 337.9247131
-58.4398460 -21.8430862 333.9032288
-57.2925301 -21.8379478 333.7952576
-56.2647552 -21.7121067 333.7133179
-55.3184395 -21.5104675 333.6437073
-54.4068909 -21.2320976 333.5913086
-51.9586487 -20.0804234 333.4861145
-51.2405815 -19.5868378 333.4746399
-50.5685883 -19.0365410 333.4712524
-49.9275551 -18.4563522 333.4705200
-49.3339920 -17.8182888 333.4949951
-48.7698631 -17.1207809 333.5166931
-48.2640800 -16.3743401 333.5529480
-47.8162766 -15.5509892 333.6012268
-47.3827896 -14.6894093 333.6437378
-47.0237961 -13.7917471 333.7116089
-46.7457161 -12.7796402 333.8003235
-46.5443459 -11.6584539 333.8883667
-46.4270554 -10.3719950 334.0323181
-9.0626535 -14.6169901 330.0687866
-4.2286687 -13.9170036 329.6967163
-3.3842299 -13.5932941 329.6469421
-2.6316593 -13.2136269 329.6189270
-1.8849727 -12.7728014 329.6047668
-1.1270483 -12.3214540 329.5764771
-0.4463993 -11.8437204 329.5657349
3.2604253 -6.9017763 329.7609253
3.6190665 -5.9995103 329.8211060
3.9172480 -4.9865623 329.9028015
4.1357155 -3.8138967 330.0198364
4.2728763 -2.5849392 330.1340637
40.9155083 -6.0060267 326.3334656
45.5024910 -5.3163962 325.9796143
46.2941589 -4.9919233 325.9397583
47.0432587 -4.6409926 325.9024963
47.7939568 -4.2515960 325.8824158
52.0611839 -0.2591130 325.9189148
52.5390854 0.5568192 325.9611206
54.1492157 5.5512524 326.3571472
54.2289963 7.1111445 326.5105286
89.5213165 3.8379414 322.8485718
90.5885773 3.7468278 322.7538147
91.5665207 3.7180719 322.6579895
94.2089005 4.0811653 322.4390564
95.0076981 4.3266330 322.3988342
97.2588120 5.3633451 322.3044434
97.9382324 5.8119712 322.2864685
99.8010635 7.3561783 322.2807922
100.3607712 8.0144444 322.3001709
100.8765945 8.7333879 322.3207092
101.3693466 9.4999409 322.3662109
102.5278168 12.2028294 322.5542297
102.7824478 13.3328876 322.6537476
140.8745880 14.8444338 319.2644043
141.7699585 14.8644619 319.1769409
142.6462860 14.9597273 319.1030273
146.3154144 16.4928379 318.9213257
146.9489441 16.9958572 318.9143066
147.5388641 17.5482254 318.9240112
148.0948486 18.1523151 318.9413757
148.6010132 18.8240719 318.9722595
149.0480652 19.6349621 319.0157471
149.4455872 20.6195755 319.0798950
-107.7293930 -28.3074112 336.9057922
-106.6280289 -28.1828728 336.8263550
-105.6045532 -27.9663811 336.7541199
-104.6835632 -27.6669216 336.6983643
-103.8206558 -27.2797203 336.6575928
-103.0357895 -26.7975426 336.6524353
-100.9937897 -25.0902805 336.6396790
-100.4044495 -24.4468403 336.6336670
-99.9278641 -23.6582336 336.7059326
-99.4714279 -22.8121796 336.7422180
-99.1016388 -21.8997612 336.8045654
-98.8198776 -20.9057598 336.8762817
-98.6249924 -19.7797184 336.9729309
-98.5041809 -18.5578804 337.1117554
-58.1781807 -22.1381569 332.9777222
-55.1077538 -21.7400303 332.7391357
-54.2033043 -21.4575024 332.6867676
-53.3189926 -21.1090488 332.6319275
-52.5605888 -20.7183914 332.6272888
-51.8002701 -20.2699127 332.5889893
-51.0799980 -19.7399273 332.5878906
-50.4290237 -19.2126408 332.5902710
-49.7666283 -18.6699848 332.5663147
-49.1554222 -18.0195618 332.5898743
-48.5969048 -17.3212223 332.6151123
-46.5269775 -13.0659571 332.8770447
-46.2986488 -11.9377460 332.9803467
-46.1616402 -10.7097359 333.0970459
-9.0279341 -14.6594353 329.2234192
-1.1185020 -12.3303623 328.7434082
-0.4416757 -11.8437767 328.7319641
3.9513700 -5.0104671 329.0621948
4.1786408 -3.8943892 329.1612549
4.3077388 -2.6428816 329.2840271
4.3499026 -1.0628780 329.4571838
40.7569084 -5.7870450 325.5596008
51.9028282 -0.0261499 325.1492615
52.3809967 0.7693217 325.1886902
52.8176498 1.6066469 325.2424622
53.2018127 2.5265491 325.3032532
53.5321541 3.5054531 325.3815918
53.7929344 4.6304340 325.4760437
53.9504852 5.8588376 325.5987549
90.2329483 4.2768545 322.0549011
91.2614059 4.2125864 321.9578552
92.2117996 4.2486000 321.8667297
93.1093063 4.3611360 321.8038635
93.9317780 4.5442967 321.7510376
94.7196426 4.7692447 321.6945801
95.5020905 5.0559425 321.6407166
96.2574539 5.4150620 321.6105957
96.9620132 5.8336248 321.5895081
97.6437149 6.2794681 321.5797729
98.2970657 6.7427311 321.5755310
98.9198608 7.2566648 321.5715027
100.5697021 9.2123880 321.6281128
101.0539703 10.0167589 321.6741333
101.4792709 10.8851480 321.7185669
101.8517914 11.8140621 321.7867737
102.1498947 12.8168554 321.8690796
140.2838440 15.8467636 318.6459045
141.2371826 15.8088884 318.5755920
142.1284332 15.8778887 318.4907837
142.9377899 16.0296803 318.4292908
143.6922150 16.2525387 318.3837891
144.4357147 16.5269947 318.3514099
145.1592102 16.8948269 318.3242493
145.8233032 17.3435955 318.3085938
146.4571381 17.8740330 318.3011475
147.0410309 18.4556446 318.3117981
147.5718689 19.1036549 318.3339844
148.0417175 19.8218174 318.3764954
-107.1721725 -28.9053612 335.8993530
-106.0950241 -28.7387543 335.8212280
-105.1223984 -28.4837685 335.7566223
-104.2483521 -28.1487179 335.7219849
-103.3792572 -27.7287464 335.6877441
-102.6103363 -27.2498131 335.6645203
-100.5989685 -25.5244217 335.6658020
-100.0166397 -24.8585835 335.6909180
-99.4914780 -24.1252079 335.7076111
-99.0297546 -23.2886372 335.7599487
-98.6363678 -22.4051933 335.8169556
-98.3282318 -21.4240112 335.9011230
-98.0703583 -20.3871174 335.9792175
-97.9120789 -19.2541103 336.0667725
-97.8767700 -17.9023132 336.2453003
-59.1891479 -22.3032246 332.1919556
-58.0135422 -22.3387966 332.0796509
-54.9793587 -21.9066372 331.8429871
-54.0718689 -21.6086254 331.7949829
-53.2004814 -21.2492142 331.7487488
-52.4177170 -20.8645020 331.7153320
-51.6748581 -20.4082317 331.7066956
-50.9544983 -19.8797951 331.6815491
-50.2877960 -19.3561687 331.6820374
-49.6439400 -18.8069782 331.6863403
-49.0267754 -18.1724777 331.6966858
-48.4561005 -17.4826107 331.7173462
-46.3595085 -13.2419138 331.9833374
-46.1122665 -12.1613283 332.0712280
-45.9505234 -10.9463568 332.1882324
-9.0544519 -14.6329021 328.3911438
-1.1622897 -12.2922173 327.9151001
-0.4867235 -11.7998610 327.9060669
3.9304252 -4.9813929 328.2318420
4.1676345 -3.8727701 328.3290710
4.2958231 -2.6260488 328.4506531
4.3285842 -1.0238529 328.6218262
39.4952126 -5.3902593 324.9190063
40.5599899 -5.5002608 324.8002319
51.7234383 0.2543908 324.3858032
52.2030602 1.0388088 324.4270325
52.6191254 1.9007930 324.4803467
52.9963570 2.8302660 324.5464172
53.3253250 3.8464725 324.6240540
53.5663452 4.9772520 324.7241516
53.7071915 6.2381263 324.8465271
89.8386765 4.8690400 321.3557434
90.8628616 4.8073945 321.2727051
91.8353958 4.8326678 321.1861877
92.7212906 4.9526963 321.0934143
93.5578690 5.0902152 321.0326538
94.3882751 5.2785635 320.9888000
95.2059250 5.5519071 320.9553223
95.9489975 5.9060664 320.9207153
96.6365738 6.3226557 320.8960266
97.3132477 6.8011456 320.8721008
97.9728851 7.2824755 320.8765564
98.5827255 7.7937245 320.8818054
100.2315292 9.7868538 320.9272461
100.6880112 10.6134090 320.9697266
101.1082153 11.4921007 321.0420227
101.4451447 12.4425907 321.1195984
101.6995316 13.5056572 321.2073364
140.5692139 16.9448166 317.9847412
142.3389282 17.0981598 317.8574524
143.0982361 17.2923832 317.8034668
143.8390503 17.5609512 317.7593689
144.5515137 17.9624805 317.7339783
145.2200165 18.4395370 317.7237549
145.8464203 18.9632435 317.7277527
146.4172974 19.5811329 317.7392578
146.9232635 20.2633171 317.7630615
-107.8445053 -29.4659271 335.0159607
-106.7640076 -29.3569298 334.9286194
-105.7367020 -29.1489296 334.8612671
-104.7731400 -28.8611393 334.8027954
-103.8984070 -28.5252705 334.7566833
-101.5926208 -27.0832138 334.7052917
-100.9304962 -26.4921761 334.7114258
-100.2700729 -25.8861122 334.6981506
-99.6889877 -25.2409954 334.7131653
-99.1548004 -24.4935455 334.7554932
-98.6668854 -23.6782665 334.7934875
-98.2565384 -22.8151855 334.8480225
-97.9157028 -21.8698940 334.9188843
-97.6271210 -20.8722992 334.9888306
-97.4495392 -19.7387371 335.0957336
-97.3703766 -18.5027790 335.2224121
-59.0083694 -22.4733620 331.2859802
-57.8627205 -22.4860287 331.1818237
-54.8979111 -22.0105400 330.9619446
-54.0101967 -21.6877766 330.9194946
-53.1282120 -21.3254814 330.8746948
-52.2938576 -20.9555264 330.8269958
-51.5712280 -20.5074348 330.8175659
-50.8726807 -19.9845905 330.8128967
-50.2057953 -19.4563198 330.8042908
-49.5644531 -18.9019032 330.8060608
-48.9486580 -18.2816792 330.8157349
-48.3605804 -17.5893784 330.8338623
-47.8485603 -16.8618546 330.8661804
-47.3794899 -16.0690384 330.9078369
-46.9424629 -15.2185650 330.9594116
-46.5629005 -14.3293076 331.0220337
-45.8160553 -11.1211824 331.2931519
-9.1357546 -14.5431910 327.5699463
-4.3192706 -13.7719049 327.2105408
-3.4976363 -13.4461966 327.1694031
-2.6969202 -13.0772161 327.1368408
-1.9541287 -12.6738272 327.1113281
3.1796777 -6.8039398 327.2683716
3.5373271 -5.8755383 327.3359680
3.8432024 -4.8604193 327.4162903
4.0876541 -3.7883844 327.5086365
4.2338610 -2.5290632 327.6289673
4.2745786 -0.9672504 327.7909241
40.2988358 -5.1403451 324.0532837
41.3214455 -5.1791797 323.9498291
42.3075600 -5.1234093 323.8640442
43.2352562 -4.9769874 323.7966919
44.1340523 -4.7920256 323.7396240
50.4558067 -0.8049805 323.5767517
50.9787140 -0.1376099 323.6006775
51.4939842 0.5648723 323.6380615
51.9658737 1.3608437 323.6810913
52.3759956 2.2780664 323.7274780
52.7508049 3.1974001 323.7988281
53.0652466 4.2127080 323.8811035
53.2841797 5.3634462 323.9869995
90.4057465 5.4910398 320.5858765
91.4013214 5.5038595 320.5080261
92.3501663 5.5444303 320.4343262
93.2031250 5.6646514 320.3587646
94.0087585 5.8833447 320.3033142
96.2881012 6.8878736 320.2185669
96.9534302 7.3663363 320.2004700
98.7657013 8.9863338 320.1952820
99.3391647 9.6661749 320.2226563
99.8446274 10.3879709 320.2684326
100.2807312 11.2605972 320.3107300
100.6497955 12.2230453 320.3760986
100.9475403 13.2625828 320.4644775
142.3395233 18.6141453 317.2095642
144.4750366 19.7806034 317.1433716
145.0799103 20.3496189 317.1558838
-107.4750061 -29.8542747 334.0456543
-106.4181519 -29.7075863 333.9641418
-105.3926697 -29.4733658 333.8912659
-104.4858627 -29.1785374 333.8478088
-103.5945892 -28.8226776 333.7929077
-101.3153992 -27.3731995 333.7502136
-100.6452103 -26.8061562 333.7450256
-99.9920044 -26.1957016 333.7448730
-99.4123611 -25.5391560 333.7668457
-98.8761673 -24.8024082 333.7980347
-98.3814392 -23.9974136 333.8435059
-97.9552155 -23.1486492 333.8841248
-97.5960770 -22.2187881 333.9658203
-97.2835617 -21.2473526 334.0361938
-97.0608826 -20.1793842 334.1235046
-96.9423904 -18.9846783 334.2345276
-96.9339752 -17.5903263 334.3922119
-58.9321861 -22.5645294 330.4049683
-57.7817001 -22.5658913 330.3003540
-54.8319817 -22.0629387 330.0853577
-53.9589043 -21.7325649 330.0420837
-53.1036758 -21.3745193 330.0073547
-52.2667198 -21.0003757 329.9659729
-51.5199203 -20.5523090 329.9446106
-50.8204880 -20.0367641 329.9385376
-50.1531143 -19.5121937 329.9342957
-49.5236206 -18.9518948 329.9341125
-48.9102478 -18.3000317 329.9485168
-48.3313828 -17.6106873 329.9696960
-47.8132477 -16.8944511 329.9974365
-47.3312569 -16.0929966 330.0415649
-46.8983154 -15.2733078 330.0847168
-46.5073166 -14.4135380 330.1406250
-45.7393646 -11.1977854 330.4113770
-45.6687851 -9.8843069 330.5425110
-45.7757111 -8.1984148 330.7367554
-9.2423458 -14.4017296 326.7566528
-4.3963141 -13.6457224 326.3951721
-3.5797462 -13.3131952 326.3567505
-2.8157287 -12.9457064 326.3252869
-2.0671153 -12.5275440 326.3032837
3.0697265 -6.6548796 326.4581604
3.4123003 -5.7062926 326.5265808
3.7156112 -4.6657281 326.6072998
3.9697850 -3.6275685 326.6987000
4.1205711 -2.3857586 326.8176880
39.9997749 -4.7355013 323.3062134
41.0529022 -4.7845416 323.2106018
42.0466537 -4.7365360 323.1215820
42.9644318 -4.5916529 323.0381470
43.8785400 -4.4272547 322.9811096
50.2030754 -0.4526568 322.8344421
50.7255669 0.2506176 322.8466187
51.2285271 0.9662668 322.8844604
51.6920700 1.7896407 322.9322510
52.0863419 2.6819806 322.9907532
52.4485550 3.6448483 323.0617676
52.7380333 4.7140121 323.1487427
52.9296799 5.9032888 323.2573242
90.9301605 6.2368193 319.8511658
91.8751831 6.2694445 319.7635498
92.7618713 6.3637762 319.6937561
93.5582809 6.5853453 319.6315918
95.8437119 7.5908699 319.5267944
96.5401154 8.0417557 319.5195313
98.3423386 9.6787443 319.5298767
98.8859863 10.3905888 319.5544739
99.3533249 11.1676369 319.6075745
99.7574463 12.0826931 319.6589355
100.0891418 13.1301441 319.7257080
-107.1725082 -30.1517448 333.0897217
-106.1426544 -29.9825134 333.0128784
-105.1828842 -29.7241440 332.9631653
-104.2735825 -29.4033871 332.9179993
-103.4066010 -29.0411282 332.8787842
-101.0846939 -27.6083679 332.8038635
-100.4179153 -27.0186615 332.8211060
-98.6771698 -25.0247974 332.8653259
-98.1544113 -24.2148304 332.9044800
-96.6207123 -19.3289948 333.2846375
-96.5998840 -18.0069313 333.4072876
-60.1923981 -22.4952278 329.6638794
-58.9290352 -22.5908146 329.5384827
-57.7639122 -22.5920315 329.4324951
-56.7174110 -22.4831390 329.3507690
-55.7259598 -22.3106594 329.2781982
-54.8089867 -22.0681038 329.2197266
-53.9473572 -21.7382774 329.1763306
-53.0840721 -21.3721828 329.1419373
-52.2648697 -20.9947624 329.1034851
-51.5176277 -20.5529327 329.0817261
-50.8102989 -20.0481186 329.0741577
-48.9214897 -18.2863808 329.0888062
-48.3366547 -17.6059532 329.1077881
-47.8101692 -16.9017887 329.1324768
-47.3246765 -16.1030140 329.1749573
-46.8784332 -15.2701492 329.2233276
-46.4927063 -14.4033375 329.2780457
-46.1864662 -13.4548807 329.3504944
-45.9214630 -12.3839140 329.4395752
-45.7161865 -11.2182407 329.5447388
-45.6349945 -9.9226866 329.6710815
-45.7171936 -8.2623177 329.8563843
-9.3969460 -14.1946163 325.9531250
-8.3165569 -14.2002745 325.8548889
-7.2525024 -14.1306248 325.7667236
2.9231522 -6.4599314 325.6586609
3.2614431 -5.5042410 325.7271423
3.5595753 -4.4978657 325.8079224
3.8052118 -3.4182577 325.9028320
3.9467378 -2.1428778 326.0184021
40.6933670 -4.3076091 322.4774780
41.7209663 -4.2858920 322.3870544
45.9878349 -3.1326013 322.1067505
46.7284126 -2.7536790 322.0983582
48.7632141 -1.2578157 322.0555115
49.3697014 -0.6963953 322.0811462
50.9298058 1.3978058 322.1555786
51.3779144 2.2289636 322.2037659
51.7626228 3.1673145 322.2541199
52.0953827 4.1708598 322.3402405
52.3541985 5.2632675 322.4342346
52.5323105 6.5037198 322.5350952
92.2340317 7.2074804 319.0576782
93.0275269 7.4107733 318.9888611
93.8759384 7.6567860 318.9455566
94.6383057 7.9677038 318.9040833
95.3628922 8.3551207 318.8754883
96.0756836 8.7905397 318.8667297
96.6905136 9.3252068 318.8427124
97.2793045 9.8749285 318.8530579
97.8380966 10.4768858 318.8947144
98.2947464 11.3240585 318.9027405
98.7465668 12.1573763 318.9563293
-108.0477142 -30.4663124 332.2468872
-106.9801254 -30.3556538 332.1672058
-105.9744492 -30.1758480 332.0942993
-105.0054169 -29.9008961 332.0321350
-104.0818405 -29.5722942 331.9819946
-103.2272797 -29.2115536 331.9438477
-100.9311523 -27.7672520 331.8886414
-100.2818375 -27.1709137 331.8948059
-98.5173416 -25.1933250 331.9493103
-97.9856873 -24.4064465 331.9835205
-96.3905869 -19.5944805 332.3380737
-96.3500290 -18.2511482 332.4774475
-96.4573288 -16.6810875 332.6454468
-60.1930580 -22.4769459 328.7976990
-58.8950729 -22.5790405 328.6680908
-57.7686996 -22.5649166 328.5693054
-56.7306328 -22.4467545 328.4889526
-55.7429619 -22.2639275 328.4194946
-54.8616295 -22.0199547 328.3667603
-53.9742508 -21.7052708 328.3193054
-53.1047821 -21.3495693 328.2791443
-52.3114166 -20.9570160 328.2498474
-51.5683937 -20.5006981 328.2302856
-50.8452568 -20.0034008 328.2179871
-48.9495087 -18.2496910 328.2313843
-48.3635521 -17.5670109 328.2503662
-47.8364830 -16.8579884 328.2774963
-47.3507957 -16.0707970 328.3164673
-46.9114532 -15.2332811 328.3643799
-46.5435905 -14.3325748 328.4261169
-46.2330322 -13.3890657 328.4976196
-45.9494743 -12.3492889 328.5801086
-45.7471886 -11.1710758 328.6864319
-45.6564178 -9.8603954 328.8144836
-9.6036663 -13.9332600 325.1609802
-8.5092955 -13.9496555 325.0611877
-7.4522657 -13.8820696 324.9729919
2.7322619 -6.1799259 324.8615112
3.0633161 -5.2407560 324.9331665
3.3562903 -4.2201943 325.0081482
3.5847924 -3.0960221 325.1090088
3.7211144 -1.8440261 325.2311707
40.3025703 -3.7565899 321.7561951
41.3554993 -3.7615147 321.6672058
45.6911392 -2.6852760 321.3887024
46.4025269 -2.2936795 321.3622131
48.4347954 -0.7973837 321.3384705
49.0408669 -0.2038336 321.3379517
50.5740623 1.9197954 321.4249268
51.0219307 2.7699690 321.4798279
51.3850670 3.6936812 321.5489502
51.6819382 4.7780967 321.6237793
91.5269318 8.2649202 318.4046631
92.3834229 8.4225721 318.3682556
93.2467041 8.6238604 318.3175659
94.0405655 8.8987923 318.2758789
94.7671051 9.2888670 318.2382202
95.4889832 9.7060251 318.2357178
96.1291199 10.2186966 318.2312927
96.6838684 10.8192768 318.2317505
97.1845551 11.5214453 318.2676697
97.6474228 12.3110466 318.3176880
-109.1458817 -30.6722832 331.4392395
-107.9055328 -30.6155472 331.3239746
-106.8397064 -30.5072060 331.2394104
-105.8266449 -30.3107071 331.1690369
-104.8684998 -30.0319653 331.1186523
-103.9620895 -29.7066326 331.0658569
-103.1172562 -29.3261585 331.0373840
-98.3832779 -25.3240738 331.0275574
-97.8621292 -24.5471439 331.0582275
-97.4217300 -23.6941490 331.1130981
-97.0456772 -22.8023739 331.1740417
-96.2388382 -19.7440357 331.4187927
-96.1517334 -18.4619255 331.5416260
-60.2771378 -22.3757820 327.9478760
-58.9716454 -22.4916458 327.8199158
-57.8252296 -22.4759388 327.7196655
-53.1535187 -21.2707996 327.4289551
-52.3798447 -20.8564873 327.4030151
-51.6436157 -20.4049072 327.3841248
-50.9095688 -19.9244614 327.3693542
-47.9169998 -16.7360706 327.4347534
-47.4311905 -15.9582014 327.4717102
-47.0041695 -15.1228418 327.5219421
-46.6372223 -14.2308664 327.5816345
-46.2971802 -13.3001490 327.6479492
-46.0192375 -12.2632647 327.7322388
-45.8466835 -11.0388250 327.8418884
-45.7314034 -9.7802086 327.9626465
-9.8303204 -13.6306438 324.3731689
-8.7452526 -13.6454430 324.2736511
-7.6766934 -13.5801373 324.1824341
-6.7150111 -13.4297094 324.1093445
-5.8142653 -13.2241392 324.0470886
-1.8742586 -11.3668642 323.9073486
-1.2058927 -10.8303051 323.8990784
-0.5573535 -10.2715101 323.8900757
0.0603826 -9.7009993 323.9013062
3.1271973 -3.9042253 324.2312012
3.3245618 -2.7718701 324.3317261
3.4338050 -1.4654790 324.4535828
40.9117851 -3.1505265 320.9528503
41.9153519 -3.1045611 320.8706055
42.8660469 -2.9687812 320.7892456
43.7443275 -2.7605641 320.7319641
44.5496063 -2.4865112 320.6952209
48.0629959 -0.2561833 320.6111450
48.6685524 0.3294782 320.6261902
49.2145805 0.9968316 320.6374207
49.7066040 1.6937866 320.6709900
50.1719933 2.5036936 320.7050781
50.5937996 3.3940773 320.7693787
50.9310608 4.3837218 320.8402100
51.2119102 5.4622569 320.9372253
92.5087891 9.7780695 317.6882629
93.3398743 10.0364208 317.6714783
94.0553665 10.4266262 317.6495972
94.7201080 10.9264679 317.6229858
95.3679047 11.4212656 317.6294250
95.9294739 12.0329161 317.6416626
96.3620834 12.8386297 317.6537170
-107.7871323 -30.7187405 330.4076538
-106.7671432 -30.5957584 330.3370056
-105.7482224 -30.3721809 330.2685547
-104.7959061 -30.0897102 330.2117920
-103.9305038 -29.7680912 330.1724854
-103.0520401 -29.3773594 330.1300964
-98.3172302 -25.3852787 330.1268311
-97.8091660 -24.5905724 330.1649475
-97.3736115 -23.7455063 330.2129822
-96.9863129 -22.8713665 330.2707214
-96.1539383 -19.8480453 330.5097351
-96.0336304 -18.5984669 330.6253052
-96.0587845 -17.1096897 330.7781982
-60.3921776 -22.2358208 327.1050110
-59.1074944 -22.3438816 326.9803467
-57.9686241 -22.3276272 326.8800354
