152.1499634 23.0681229 117.8650589
152.0215759 23.8970814 117.8313828
151.7527008 24.8367100 117.7721405
-103.3807831 -22.6149044 86.3532791
-102.8849335 -21.7868900 86.3995285
-102.5342331 -20.9354019 86.4496231
-102.2513046 -20.0430355 86.4690170
-102.0685272 -19.1416416 86.4623871
-102.0184555 -18.1842804 86.4412155
-102.1144104 -17.1645527 86.4116211
-102.3061142 -16.1304188 86.3577271
148.6103210 15.7667751 116.8481064
149.1814117 16.3469124 116.9188385
149.6854858 16.9331589 116.9734421
150.1405792 17.5589199 117.0114136
150.5383301 18.1787186 117.0596390
150.8500671 18.8152370 117.0852966
151.0973206 19.5117779 117.0881729
151.3006439 20.2652493 117.0948181
151.4537048 21.0064735 117.1088715
151.5175018 21.7588081 117.1153412
151.4548645 22.5679302 117.0773468
151.3795929 23.3679276 117.0650177
151.1921234 24.2289448 117.0195541
-103.4505844 -24.5636044 85.4512787
-102.7489624 -23.7741356 85.5210037
-102.1804199 -22.9369965 85.5977783
-101.6891098 -22.1048279 85.6378708
-101.2795410 -21.2387848 85.6542053
-101.0323944 -20.3408089 85.6758194
-100.8733521 -19.4378090 85.6865921
-100.7877502 -18.5045986 85.6837006
-100.7977829 -17.5069828 85.6495285
-101.0034943 -16.4597912 85.6174088
-101.2502365 -15.4615011 85.5416641
-101.6492691 -14.4046440 85.5083923
148.8431091 17.2463303 116.1556091
149.2729492 17.8943863 116.1957855
149.6378784 18.5444012 116.2044678
149.9926453 19.1574554 116.2469330
150.3022766 19.8337841 116.2976456
150.4857025 20.5803108 116.2984619
150.5993958 21.3221169 116.2990570
150.6106567 22.1194839 116.2771225
150.5385437 22.9310417 116.2448730
-103.1430435 -25.5969944 84.5743637
-102.3461990 -24.8366909 84.6582184
-101.6778793 -24.0407925 84.7290344
-101.1146317 -23.2020512 84.7768478
-99.7914505 -18.7713528 84.8670273
-99.7737427 -17.7538013 84.8583984
-99.8831329 -16.7649231 84.8171844
-100.1242294 -15.7595167 84.7739334
-100.4428101 -14.7450857 84.6968155
-100.9165802 -13.6779156 84.6077652
148.6289520 18.9008808 115.4115524
148.9939728 19.5632935 115.4395676
149.2446136 20.2495060 115.4461594
149.4351196 20.9780388 115.4420929
-102.1302032 -25.8309536 83.7603531
-101.4136963 -25.0680580 83.8437805
-100.8473434 -24.2626400 83.9217453
-100.3036652 -23.4171143 83.9653625
-98.9771500 -18.9592304 84.0525436
-98.9274063 -17.9791222 84.0211334
-101.3595886 -26.0463200 82.9497375
-100.6732712 -25.2683296 83.0188675
-100.0973053 -24.4544830 83.0729828
-99.5819550 -23.5933590 83.1243744
-99.1673889 -22.7349548 83.1601410
-98.8553467 -21.8779087 83.1882935
-98.5817490 -20.9749374 83.1920166
-98.3958359 -20.0721493 83.2190170
-98.2498474 -19.1634064 83.1981888
-98.2343445 -18.1651497 83.2012634
-102.4011841 -27.6956329 81.9077911
-101.4298096 -26.9555283 82.0094681
-100.6475372 -26.2025471 82.0953598
-100.0110626 -25.4177361 82.1706772
-99.4422989 -24.5938416 82.2255020
-98.9506378 -23.7425098 82.2710114
-98.5761032 -22.8939648 82.3070755
-98.2925644 -22.0170269 82.3334198
-97.9805450 -21.1341228 82.3266602
-97.7873383 -20.2295570 82.3712082
-54.6801109 -10.9829540 87.7232437
-101.7603607 -27.8529129 81.0576706
-100.8466568 -27.1018944 81.1592178
-100.1115570 -26.3423176 81.2424850
-99.4760361 -25.5511360 81.3119888
-98.8993454 -24.7181625 81.3641205
-98.4396286 -23.8788624 81.4089584
-98.0743637 -23.0235481 81.4370728
-97.7540512 -22.1512260 81.4565125
-97.4546509 -21.2584209 81.4819946
-53.1681824 -12.3399792 87.0405273
-52.9185600 -11.4946632 87.0474014
-52.8014145 -10.5731812 87.0458450
-102.2261353 -28.6840076 80.0744629
-101.2445145 -27.9809513 80.1951065
-100.3956299 -27.2333183 80.2919006
-99.6768188 -26.4562626 80.3713303
-99.0553436 -25.6662445 80.4422073
-98.4823532 -24.8152161 80.4932709
-98.0509338 -23.9643822 80.5352783
-52.6130371 -14.3269644 86.2569504
-52.1493683 -13.5373583 86.3034134
-51.8438339 -12.7158937 86.3424301
-51.5898285 -11.8478832 86.3440857
-51.4834862 -10.9516487 86.3601990
-51.4204292 -10.0424900 86.3384628
-51.4581375 -9.0989857 86.3082428
-51.6287231 -8.1000986 86.2589874
-51.9288635 -7.0855322 86.1888733
-102.9739685 -29.4889736 79.0650330
-101.7727890 -28.7887764 79.2055588
-98.1227722 -24.8992004 79.6041183
-97.6960678 -24.0485172 79.6533585
-53.5054054 -16.8988228 85.3269272
-52.7224045 -16.1714535 85.4068604
-52.0847435 -15.4275999 85.4814529
-51.5129128 -14.6361685 85.5279617
-51.1302528 -13.8198318 85.5815582
-50.3566818 -11.2496138 85.6107864
-50.2663994 -10.3641758 85.6068878
-50.3047447 -9.4198847 85.5949860
-50.4162979 -8.4495192 85.5470276
-50.6987724 -7.4403481 85.5041428
-51.0396538 -6.4236822 85.4131317
-102.6309891 -29.5753708 78.1736450
-101.4596405 -28.8855629 78.3166656
-97.8377914 -24.9793777 78.7180252
-97.3846359 -24.1351547 78.7594681
-52.3830109 -17.1912251 84.5788803
-51.7034874 -16.4523830 84.6592178
-51.0995865 -15.6777916 84.7115021
-50.6166153 -14.8845339 84.7681198
-50.1929436 -14.0711403 84.7982407
-49.4655113 -11.4949150 84.8657684
-49.3363495 -10.6162930 84.8497314
-49.3382568 -9.6763659 84.8395691
-49.4160156 -8.7316465 84.7994995
-49.6122093 -7.7433958 84.7462616
-49.9372482 -6.7314210 84.6853790
-50.3839760 -5.6886530 84.6011887
-50.9419556 -4.5724940 84.5306473
-102.3641663 -29.6390038 77.2765350
-101.2362518 -28.9487743 77.4144058
-98.7420807 -26.6693268 77.7003708
-98.1394882 -25.8621407 77.7648849
-97.6259384 -25.0327282 77.8184128
-52.2854424 -18.1399994 83.7187500
-51.5210800 -17.4199848 83.8127136
-50.8798370 -16.6486111 83.8839493
-50.3378334 -15.8800268 83.9449921
-49.8643417 -15.0892811 83.9980316
-49.4131737 -14.2729883 84.0231476
-49.0836220 -13.4538326 84.0480804
-48.8530960 -12.5979328 84.0646515
-48.6788483 -11.7140341 84.0731506
-48.5662041 -10.8236246 84.0761414
-48.5311584 -9.9074240 84.0504150
-48.6113205 -8.9527597 84.0316010
-48.7949638 -7.9542255 83.9989853
-49.3855896 -5.9682679 83.8738632
-49.8672600 -4.8881545 83.7677917
-102.1901398 -29.6757298 76.3679199
-101.0733643 -28.9792690 76.5034561
-98.5734940 -26.7044888 76.7940140
-97.9800491 -25.9112606 76.8566132
-97.4470062 -25.0701847 76.9112854
-52.4282532 -19.0380058 82.8335953
-51.5280190 -18.3411636 82.9388123
-50.7582169 -17.5998325 83.0170670
-50.1678085 -16.8432178 83.0873795
-49.6441002 -16.0759392 83.1435165
-49.1667633 -15.2755737 83.1936188
-48.7662621 -14.4641762 83.2413788
-48.4588165 -13.6302233 83.2679062
-48.2168236 -12.7767086 83.2766876
-48.0249634 -11.8879700 83.2818451
-47.9016533 -11.0068378 83.2843704
-47.8698082 -10.0929966 83.2790222
-47.9175224 -9.1345301 83.2441177
-102.1289215 -29.6862640 75.4440918
-101.0022202 -28.9978504 75.5806732
-98.5157013 -26.7345543 75.8706436
-97.8925400 -25.9198914 75.9411850
-51.7341843 -19.2189217 82.0489502
-50.8667946 -18.5118790 82.1413422
-50.1857491 -17.7734528 82.2360306
-47.8807793 -13.7806368 82.4477158
-47.6556396 -12.9271507 82.4696045
-47.4502678 -12.0524435 82.4701843
-102.1622238 -29.6748638 74.5048981
-100.9894943 -28.9680386 74.6527786
-98.5291977 -26.7218285 74.9398346
-97.9092712 -25.9262638 75.0027313
-51.1370850 -19.3709106 81.2390137
-50.3357773 -18.6630039 81.3314209
-49.6416931 -17.9000797 81.4079132
-47.4100189 -13.9112005 81.6324768
-47.1799812 -13.0588274 81.6602173
-46.9527779 -12.1905231 81.6640778
-4.7612343 -5.2812471 87.2700043
-4.3377981 -4.5152998 87.3050919
-4.0641160 -3.7087486 87.3154221
-3.8824000 -2.8654225 87.3188095
-3.7791438 -2.0018272 87.3042374
-3.8568833 -1.0597584 87.3062439
-101.1460724 -28.9527798 73.6963196
-100.1561279 -28.2338753 73.8165894
-99.3136368 -27.4813900 73.9157867
-98.6060333 -26.7061329 73.9914627
-51.5439758 -20.1767883 80.3186722
-50.6571884 -19.5014038 80.4201813
-49.8694572 -18.7774029 80.5113373
-49.2103806 -18.0167904 80.5905533
-48.6412277 -17.2681713 80.6531143
-48.1253242 -16.5016136 80.7109985
-47.6665764 -15.6859045 80.7515259
-47.3003769 -14.8599186 80.7848053
-47.0138969 -14.0319548 80.8138733
-46.7417526 -13.1748428 80.8185730
-4.5280371 -7.1626310 86.5051575
-3.8719485 -6.4286852 86.5679169
-3.3859301 -5.6998382 86.6246872
-2.9451420 -4.9406400 86.6512680
-2.6555960 -4.1245732 86.6859970
-2.4554064 -3.3010855 86.6985855
-2.3015287 -2.4588523 86.6850128
-2.3014550 -1.5446707 86.6609421
-101.3600540 -28.8915043 72.7362976
-100.3766708 -28.2013874 72.8500366
-99.4595490 -27.4332390 72.9698486
-98.7256088 -26.6646423 73.0494003
-50.2402840 -19.5928097 79.5902939
-49.5113449 -18.8774357 79.6789398
-48.8431320 -18.1144180 79.7572556
-48.2708054 -17.3746414 79.8197098
-47.7565689 -16.5822372 79.8727112
-47.3176384 -15.7711840 79.9157333
-46.9588165 -14.9401484 79.9512558
-46.6434479 -14.1156187 79.9755478
-3.9333670 -8.2213755 85.7385330
-3.2548840 -7.5219417 85.8316345
-2.6172624 -6.7924681 85.8790970
-2.1981294 -6.0464520 85.9494934
-1.8157034 -5.2911921 85.9794464
-1.5064156 -4.4771266 85.9993744
-1.2922010 -3.6384954 86.0191803
-1.1740898 -2.7907097 86.0368118
-1.0941069 -1.9025117 86.0011826
-101.6712570 -28.8352680 71.7545319
-100.6399231 -28.1176186 71.8892059
-99.7381668 -27.3857975 71.9892578
-98.9527283 -26.6054707 72.0893250
-49.9555168 -19.6775322 78.7501373
-49.2279205 -18.9617367 78.8401642
-48.5138588 -18.1897755 78.9144058
-47.9702682 -17.4536419 78.9820175
-47.4750023 -16.6633644 79.0312042
-47.0440559 -15.8352499 79.0752029
-46.6853409 -15.0241919 79.1070328
-2.8257766 -8.5258417 85.0586166
-2.2107527 -7.8170519 85.1417389
-1.6464764 -7.0692539 85.1886368
-1.2503916 -6.3267937 85.2453232
-0.1282421 -2.1979711 85.3177719
-0.1291537 -1.2950678 85.2832489
-0.2389853 -0.3750821 85.2471085
-0.4537491 0.5614216 85.1892700
-0.8014607 1.5792664 85.1285248
-101.0684128 -28.0268364 70.8863678
-100.0955505 -27.2793732 71.0136719
-50.5317917 -20.4480438 77.8012466
-49.7243614 -19.7338562 77.8966980
-48.9747200 -19.0182514 77.9866104
-48.2899742 -18.2742996 78.0664139
-47.7331200 -17.5107746 78.1297607
-47.2453995 -16.7144165 78.1790771
-3.4561532 -10.1405048 84.1693039
-2.6520131 -9.4952288 84.2736969
-1.9670619 -8.8061504 84.3539429
-1.3640053 -8.0695219 84.4221344
-0.8861175 -7.3215976 84.4951706
-0.4266821 -6.5718904 84.5127563
0.7454275 -2.4569006 84.5888367
0.7520688 -1.5564157 84.5729141
0.6769912 -0.6582820 84.5378799
0.4871889 0.2928830 84.4964066
0.2172793 1.2503381 84.4237900
-0.2065020 2.2838638 84.3626480
-48.8024597 -19.0651283 77.1271210
-48.1218262 -18.2983971 77.2076721
-47.5630112 -17.5362949 77.2693939
-47.0716133 -16.7552586 77.3213501
-2.6369321 -10.3925467 83.4454575
-1.8360524 -9.7187824 83.5404358
-0.1272642 -7.5373607 83.7434998
0.3126260 -6.7890759 83.7802887
0.6605630 -6.0196638 83.8190918
0.9616002 -5.2174459 83.8488159
1.1965294 -4.3905230 83.8587418
1.3475454 -3.5636890 83.8664780
1.4525596 -2.6863945 83.8521194
1.4513940 -1.7733288 83.8462067
1.3980342 -0.8798514 83.8227234
1.2680646 0.0544226 83.7738724
1.0232991 1.0215639 83.7158051
0.6729609 2.0096428 83.6388702
0.2081199 3.0413873 83.5493927
-48.7176590 -19.0896549 76.2550964
-48.0569992 -18.3271866 76.3321304
-47.4713860 -17.5608864 76.3991165
-2.7753146 -11.2341490 82.6039658
-1.9333451 -10.6002817 82.7123413
-1.1714592 -9.9154053 82.8000259
0.5401567 -7.7220383 82.9877090
0.9240665 -6.9690142 83.0407257
1.2749910 -6.1967015 83.0683975
1.5770438 -5.4002891 83.0912476
1.7766569 -4.5658612 83.1101837
1.9443563 -3.7294347 83.1014481
2.0292838 -2.8395462 83.1121445
2.0641172 -1.9582685 83.0958710
-50.2410851 -20.5177078 75.1831665
-49.4237633 -19.8086185 75.2856827
-48.6961212 -19.0890884 75.3734512
-48.0384445 -18.3386650 75.4501877
-3.0383968 -12.0233488 81.7392273
-2.1384287 -11.4172573 81.8561172
0.0236708 -9.3726149 82.1232300
0.5946139 -8.6297894 82.1837234
1.0665447 -7.8699546 82.2344818
1.4331177 -7.1269622 82.2807922
1.7992939 -6.3440666 82.3099594
2.0764432 -5.5456834 82.3222809
2.2342534 -4.7040424 82.3438110
2.4201522 -3.8559067 82.3364029
2.5487151 -2.9937901 82.3423538
-50.3213234 -20.5002785 74.2854691
-49.4658165 -19.7956524 74.3948059
-48.7276802 -19.0727482 74.4799805
-48.0470123 -18.3163300 74.5685730
-3.4963889 -12.7961817 80.8593521
-2.4587975 -12.1819201 80.9828796
-1.6090187 -11.5641117 81.0927124
0.5057904 -9.5063763 81.3538589
1.0325415 -8.7745609 81.4138718
1.4837079 -8.0090532 81.4630661
1.8866184 -7.2359810 81.5011826
2.2458794 -6.4629230 81.5338593
2.4695861 -5.6502786 81.5591049
2.6409550 -4.8130159 81.5686722
2.8380342 -3.9958966 81.5632324
45.1645546 2.8953471 87.5065155
45.5463028 3.6082065 87.5356674
45.9036484 4.3718476 87.5552750
46.1340599 5.1631699 87.5660095
46.2347031 5.9944434 87.5693588
46.1722488 6.8650928 87.5736618
-50.4641647 -20.4360027 73.3867493
-49.5778694 -19.7664204 73.4925613
-48.8388634 -19.0475330 73.5818863
-48.1464081 -18.2964096 73.6691055
-1.9836450 -12.3034525 80.2109833
-1.1907989 -11.6862192 80.3212585
-0.4116244 -11.0229244 80.4124298
0.2963441 -10.3350077 80.4992905
2.6182368 -6.5619450 80.7495422
2.8522127 -5.7636800 80.7610779
3.0344739 -4.9339113 80.7812119
3.2141490 -4.1034446 80.7888947
45.5446548 1.0648240 86.7996826
46.1435776 1.7369895 86.8630142
46.6241760 2.4262264 86.9121628
46.9750595 3.1541576 86.9577255
47.6271210 5.5247693 86.9929123
47.6804123 6.3664732 86.9694519
47.6011047 7.2688670 86.9489365
-50.7288666 -20.3665295 72.4596939
-49.7994347 -19.7094078 72.5761261
-49.0419960 -18.9882870 72.6682205
-48.3458862 -18.2501030 72.7446899
-2.5918095 -13.0473890 79.3046188
-1.6223691 -12.4180984 79.4293137
-0.7974588 -11.7841139 79.5403900
-0.0427388 -11.1253958 79.6319122
0.6381596 -10.4264965 79.7148209
2.9362845 -6.6565418 79.9651794
46.0652695 0.0419293 86.0950089
46.7550354 0.6906133 86.1770630
47.3095779 1.3668779 86.2443619
47.7295341 2.0636051 86.2969971
48.0755959 2.8061805 86.3387375
48.7437744 5.1612892 86.3769913
48.8107414 5.9999495 86.3627014
48.7675018 6.8841500 86.3468475
-50.1045914 -19.6141567 71.6458206
-49.3193398 -18.9068356 71.7386932
-2.2527263 -13.1325331 78.5108566
-1.2956165 -12.5221195 78.6382065
-0.4521636 -11.8715239 78.7442703
1.5127116 -9.7957582 78.9898605
2.0176549 -9.0507460 79.0474014
2.4735208 -8.2735376 79.0944366
2.8654423 -7.5236850 79.1371231
3.2216213 -6.7475176 79.1709824
47.1198616 -0.2862345 85.4610596
49.6954346 4.8551211 85.7274551
49.7800026 5.6853290 85.7158813
49.7859612 6.5481634 85.6939774
49.7153549 7.4249859 85.6586838
49.2148666 9.3117905 85.5393600
48.7705498 10.3292780 85.4537811
-51.4684448 -20.1934910 70.5560303
-50.4730644 -19.5264111 70.7010880
-49.6355247 -18.8147068 70.8119736
-1.9774306 -13.2065153 77.7119904
-1.0143787 -12.5931463 77.8402863
-0.1992098 -11.9502745 77.9457932
1.7485210 -9.8678303 78.1846695
2.2329164 -9.1207600 78.2427826
2.6846552 -8.3455553 78.2906723
3.1033118 -7.5784650 78.3345337
45.6205635 -2.4264045 84.4889832
46.4876671 -1.8364897 84.6134262
47.3017044 -1.2138680 84.7104874
47.9888420 -0.5713489 84.8037186
50.4876556 4.5917506 85.0539551
50.5906677 5.4264445 85.0454712
50.6057091 6.2816701 85.0353088
50.5626297 7.1517024 85.0036850
50.4245872 8.0428143 84.9573059
50.1157150 9.0375004 84.9128036
49.7707748 10.0100479 84.8165665
-1.7958760 -13.2590475 76.9006119
-0.8434362 -12.6379080 77.0274506
-0.0504358 -12.0033865 77.1307144
1.9182240 -9.9056406 77.3746033
2.4030344 -9.1620684 77.4305725
2.8631432 -8.3876381 77.4811249
46.4754639 -2.6988142 83.8273163
47.3125229 -2.0890067 83.9407349
48.0893326 -1.4515051 84.0400620
48.7328453 -0.8162978 84.1230698
51.1369743 7.8367119 84.2930527
50.9686966 8.7501764 84.2188416
50.6571617 9.7215452 84.1585312
50.2322159 10.7056351 84.0699768
49.6523819 11.8090830 83.9794083
-2.8702488 -13.9367113 75.9130020
-1.7185929 -13.2854643 76.0715637
-0.7650960 -12.6675777 76.1995239
0.0546190 -12.0288553 76.3072128
2.0233767 -9.9377937 76.5538025
2.5354741 -9.1907263 76.6127701
3.0031204 -8.4316883 76.6636505
46.3483238 -3.4935005 83.0313873
47.2216301 -2.9297750 83.1429138
48.0112877 -2.3126254 83.2550430
48.7385483 -1.6731100 83.3508759
49.3778267 -1.0138801 83.4225082
51.8150558 7.6162763 83.5852814
51.6304855 8.5496349 83.5532379
51.3776932 9.4819927 83.4871597
51.0406075 10.4434853 83.4034958
50.5588341 11.4624882 83.2990570
-1.6858996 -13.3028231 75.2351227
-0.6942382 -12.6649876 75.3705597
0.1257590 -12.0359621 75.4792404
2.0850930 -9.9616642 75.7249908
2.6034479 -9.2236834 75.7855148
46.0171165 -4.2384644 82.2090988
47.0408897 -3.6832173 82.3369598
47.8351288 -3.1191609 82.4606171
48.6238556 -2.4914386 82.5510864
50.4470215 -0.4998675 82.7785568
50.9209862 0.2050648 82.8338242
51.9365730 2.4330459 82.9319458
52.1468124 3.2305727 82.9504166
52.2891159 4.0292244 82.9540634
52.4003754 4.8452187 82.9511566
52.4481964 5.6895556 82.9373169
52.4354935 6.5400286 82.9252014
52.3960648 7.4359670 82.8997803
52.2811966 8.3332272 82.8451080
-1.7071611 -13.2881031 74.3922806
-0.6938135 -12.6567698 74.5329666
0.1142700 -12.0366859 74.6375427
2.1188123 -9.9529305 74.8943787
2.6308773 -9.2256641 74.9516525
46.6481819 -4.4215569 81.5060730
47.6026421 -3.8666477 81.6334457
48.3728485 -3.2924454 81.7445374
49.1172371 -2.6650050 81.8387527
50.9195824 -0.6507694 82.0676193
51.3850365 0.0611130 82.1171646
52.3949013 2.2799895 82.2144318
52.5844994 3.0735400 82.2293015
52.7401581 3.8818307 82.2352524
52.8630104 4.7039638 82.2335892
52.9189034 5.5389447 82.2214050
-1.8340218 -13.2493382 73.5313187
-0.8179989 -12.6364431 73.6722717
0.0290247 -12.0130138 73.7835617
0.7942731 -11.3535099 73.8847885
1.4818639 -10.6578398 73.9755325
2.0737348 -9.9421749 74.0489426
47.1596107 -4.5784068 80.7881012
48.0799713 -4.0208731 80.9166260
50.2267494 -2.1487772 81.1979370
50.8162422 -1.4815478 81.2744064
52.1638603 0.6486359 81.4339828
52.5069466 1.3899742 81.4624634
52.7802849 2.1767504 81.4850235
52.9712486 2.9669991 81.5011368
53.1492271 3.7492483 81.5018005
53.2824898 4.5629606 81.5014648
95.2020874 12.1267052 87.7338333
95.4492645 12.8720980 87.7326736
-0.9951457 -12.5797548 72.8061523
-0.1094590 -11.9584570 72.9250641
0.6738610 -11.3114595 73.0301590
1.3478349 -10.6312666 73.1137085
1.9548395 -9.9092703 73.1917801
46.4935188 -5.2736998 79.9152908
47.5767937 -4.7071085 80.0614853
48.4890862 -4.1427956 80.1874847
50.6157036 -2.2692716 80.4712830
51.1950493 -1.5886151 80.5410843
52.5195313 0.5411484 80.6944122
52.8485909 1.2852314 80.7292328
53.1143646 2.0562716 80.7492142
53.3131447 2.8373981 80.7743988
95.3714447 9.6064844 87.0467758
95.8794403 10.2522917 87.1016235
96.2991486 10.9312410 87.1385803
96.5408707 11.6532698 87.1762619
96.7695389 12.3922205 87.1984634
96.9693298 13.1715679 87.1995087
97.0156937 13.9913568 87.1849747
96.9728775 14.8316555 87.1558228
-1.2303295 -12.5138950 71.9177704
-0.3461346 -11.8875990 72.0482407
0.4588868 -11.2406111 72.1562805
1.1395231 -10.5703316 72.2409439
46.8721008 -5.3917007 79.1777954
47.9205513 -4.8155346 79.3217392
48.8265381 -4.2403054 79.4483032
50.9374199 -2.3717763 79.7297592
51.4801254 -1.6828282 79.7982101
53.4252167 1.9724020 80.0063629
53.6332130 2.7510962 80.0204620
95.3212891 7.9749699 86.3281021
95.9721527 8.5792704 86.4062195
96.4991989 9.2040043 86.4792328
96.9694138 9.8681755 86.5432129
98.1649246 13.5808411 86.6332245
98.1984329 14.3951683 86.6073761
98.1616516 15.2211313 86.5696869
97.9846954 16.1022758 86.5322495
97.7040329 17.0424690 86.5010910
-0.6854282 -11.8004045 71.1505356
0.1349716 -11.1553221 71.2662201
0.8694074 -10.4747400 71.3659897
48.1991997 -4.9054203 78.5741501
49.1046143 -4.3219442 78.6989136
51.1961975 -2.4387491 78.9760590
51.7214088 -1.7580614 79.0443192
53.6699791 1.8842571 79.2566376
53.8795052 2.6793337 79.2716064
94.7992325 6.4889030 85.5337906
95.5809937 7.0376463 85.6371231
96.3018646 7.6204939 85.7367859
96.9451599 8.2383337 85.8173141
97.4494400 8.8791313 85.8903961
97.9146957 9.5458202 85.9381714
99.1346054 13.2364283 86.0399933
99.1743698 14.0554152 86.0272446
99.1327286 14.8943892 85.9984360
99.0390167 15.7251768 85.9530945
98.7938004 16.6374435 85.9031448
98.4730453 17.6076832 85.8450165
-1.0917011 -11.6858606 70.2372284
-0.2507258 -11.0369291 70.3679428
0.5045121 -10.3775339 70.4574203
48.4603577 -4.9583678 77.8188171
49.3135185 -4.3923459 77.9400330
52.4327469 -1.1142516 78.3473816
52.8774986 -0.3992574 78.3996811
53.2522545 0.3174967 78.4412155
53.5883369 1.0674096 78.4739380
53.8488808 1.8337522 78.4966354
95.7490234 6.1581168 84.9340286
96.4857635 6.7307835 85.0369644
97.1806870 7.3365779 85.1297455
97.7719421 7.9508476 85.2060776
99.5895920 11.4204464 85.4111328
99.7901993 12.1876822 85.4227371
99.9451904 12.9611483 85.4201431
99.9846191 13.7619667 85.4104919
99.9632950 14.5892744 85.3960190
99.9220200 15.4311152 85.3550491
99.7486496 16.3000755 85.3044205
99.4556656 17.2488785 85.2387772
99.0910721 18.2407780 85.1774063
0.0803078 -10.2335920 69.5614624
47.5951843 -5.5846548 76.9063568
48.6211052 -5.0066051 77.0522537
49.4709549 -4.4399791 77.1721878
52.5963860 -1.1687942 77.5823746
53.0216827 -0.4510699 77.6316147
53.3729591 0.2860310 77.6764679
97.2461700 6.4649200 84.4146957
97.9168625 7.0933561 84.4956589
98.4641495 7.7085490 84.5698547
100.2674332 11.1750240 84.7761154
100.4826279 11.9333591 84.7843704
100.6133804 12.7202425 84.7885208
100.6663895 13.5247002 84.7832260
100.7061462 14.3255453 84.7574005
100.6646576 15.1695166 84.7363434
100.5465698 16.0276966 84.6916351
100.3214874 16.9364166 84.6299896
99.9926529 17.8990173 84.5679169
47.6697426 -5.6235785 76.1230850
51.6434517 -2.5803354 76.6757965
52.2087479 -1.9054543 76.7479401
52.6963730 -1.2049215 76.8080215
53.1115379 -0.4711984 76.8566437
97.2607880 5.6435394 83.6821213
97.8840561 6.2339253 83.7811813
98.5141907 6.8715892 83.8613281
99.0642853 7.5131602 83.9266510
100.3302536 9.5306053 84.0749359
100.6262131 10.2378845 84.1022186
101.3459015 14.1063061 84.1184464
101.3121643 14.9320078 84.0994873
101.2156601 15.7859116 84.0632324
101.0476837 16.6837063 84.0040054
100.7773285 17.6217804 83.9372940
100.4326401 18.5783348 83.8747559
47.7109337 -5.6276603 75.3345413
51.6993752 -2.5949395 75.8946991
52.2516365 -1.9161710 75.9644928
52.7315521 -1.2134131 76.0199814
53.1880951 -0.4693053 76.0777435
96.3256836 4.3232589 82.8194962
97.1539536 4.8632998 82.9373016
97.8630981 5.4373021 83.0345764
98.4989090 6.0389090 83.1195984
99.0930557 6.6797566 83.1960678
99.6060562 7.3196597 83.2669754
100.8344498 9.3377790 83.4121628
101.1422653 10.0544176 83.4466400
101.9086151 13.9052143 83.4614792
101.8961868 14.7143650 83.4438705
101.8046875 15.5763330 83.4129639
101.6611557 16.4614220 83.3660202
101.4366226 17.3793163 83.3034134
101.1000595 18.3359776 83.2261810
47.6648712 -5.6125731 74.5299530
48.7045479 -5.0429873 74.6836548
49.6084518 -4.4671407 74.8155823
51.6967697 -2.5895586 75.1010513
52.2442207 -1.9067109 75.1712418
52.7483788 -1.2031102 75.2353210
53.2089577 -0.4967549 75.2894135
96.9058838 4.1494007 82.1589279
97.6865463 4.6860499 82.2759552
102.3999329 13.7386036 82.8027115
102.4022369 14.5459156 82.7825241
102.3251495 15.3848534 82.7507629
102.1986160 16.2741566 82.7080154
102.0152740 17.1756496 82.6519547
47.5404129 -5.5921912 73.7103119
48.6298523 -5.0016088 73.8810959
49.5165329 -4.4429703 74.0039825
51.6287346 -2.5702765 74.2986298
52.1842041 -1.8934519 74.3673553
52.7089920 -1.1881669 74.4403839
96.4825058 3.4620795 81.3704834
97.3487854 3.9796426 81.4942322
98.1422882 4.5403295 81.6048279
102.8338928 13.5837355 82.1330795
102.8346481 14.4005156 82.1087036
102.7650909 15.2468309 82.0771484
102.6586990 16.1231537 82.0470581
48.4461517 -4.9568295 73.0540085
49.3643532 -4.3949385 73.1882324
51.5072746 -2.5339203 73.4841461
52.0918732 -1.8551546 73.5608368
96.9286041 3.3243763 80.6887436
103.0314789 11.8763323 81.4568558
103.1488876 12.6446629 81.4576569
103.2044220 13.4448223 81.4513702
103.2023315 14.2650843 81.4301834
48.2226944 -4.8932414 72.2127838
49.1521988 -4.3196974 72.3599625
51.3518600 -2.4696274 72.6721802
51.9405174 -1.8160000 72.7425232
97.3144073 3.2008808 80.0048523
103.3548126 11.7650795 80.7720108
103.4708710 12.5262470 80.7700958
144.7022247 19.8434086 87.2843323
144.9153595 20.5541706 87.2987366
145.0320892 21.3146210 87.3067322
145.0901947 22.0975361 87.3136749
48.8448868 -4.2426271 71.5047455
49.6841278 -3.6508720 71.6349716
50.4385872 -3.0461912 71.7424316
51.1168175 -2.4010501 71.8296432
51.7365570 -1.7475823 71.9106674
96.6989059 2.5754273 79.1751633
97.6464996 3.0931296 79.3120956
103.2614441 10.1420021 80.0519943
103.4747086 10.9133072 80.0681152
103.6291428 11.6719618 80.0746994
144.8470764 17.4224434 86.6804047
145.3220520 18.0271111 86.7333755
145.7141876 18.6732635 86.7794724
146.0018311 19.3530483 86.8104630
146.4732056 21.5639706 86.8223419
146.4724121 22.3436508 86.7959061
146.3463593 23.2073421 86.7857437
49.3237991 -3.5528326 70.7801895
50.1035538 -2.9399264 70.8923492
50.8358269 -2.3019762 71.0009384
51.4862823 -1.6546519 71.0793762
96.9766006 2.4954000 78.4703979
97.9003220 2.9985440 78.6106873
103.4943466 10.0650902 79.3477020
103.7086258 10.8274221 79.3609390
103.8593369 11.5966711 79.3700867
144.7936096 15.8284121 86.0130310
145.4368439 16.4037132 86.0834503
145.9547272 17.0100975 86.1611252
146.3848114 17.6314564 86.2201080
146.7330017 18.2847157 86.2629166
147.0125580 18.9777851 86.2953033
147.5229950 21.1507721 86.3184509
147.5608826 21.9407368 86.2894669
147.4853821 22.7719822 86.2583313
147.3381500 23.6226387 86.2088852
147.0784302 24.5253468 86.1593246
49.6641235 -2.8074517 70.0197830
50.4241867 -2.1769454 70.1320572
97.1812668 2.4139657 77.7586975
98.1055908 2.9276097 77.8978195
103.1332397 8.5612793 78.5815277
103.4221802 9.2722874 78.6135101
103.6818085 10.0057211 78.6369171
145.1753845 14.9200945 85.3801880
145.8197479 15.4812775 85.4694138
146.3617706 16.0601902 85.5487595
148.4175415 20.8097000 85.7540283
148.4466705 21.6102428 85.7582016
148.4582520 22.3953609 85.7229843
148.3789978 23.2141685 85.6863098
148.1946564 24.0771236 85.6339798
147.9313507 24.9852142 85.5793076
49.1550026 -2.6384501 69.1402359
49.9231148 -2.0211034 69.2539520
97.3281479 2.3555751 77.0361633
98.2703781 2.8806889 77.1778336
103.2826996 8.5108051 77.8646851
103.5744781 9.2173204 77.8939590
146.0292969 14.6047697 84.8283997
146.5795898 15.1659164 84.9116745
147.0866241 15.7695293 84.9802246
149.1457062 20.5379257 85.2048264
149.2490997 21.2934303 85.1906128
149.2813721 22.0710354 85.1805573
149.2553253 22.8861980 85.1440887
149.1110992 23.7319336 85.1010437
148.9029236 24.5851288 85.0369034
148.5798492 25.5318108 84.9853287
97.4277191 2.3417985 76.3036499
98.3629837 2.8528123 76.4468994
102.6482620 7.1156573 77.0519867
103.0398102 7.7919240 77.0987396
103.3869629 8.4875469 77.1385574
103.6883850 9.1817150 77.1695633
145.3494110 13.2652941 84.0459900
146.1276245 13.7878761 84.1568985
146.7488861 14.3323221 84.2491302
148.2394409 16.1510849 84.4529114
148.6750336 16.7731857 84.5052795
149.0255432 17.4315319 84.5495911
149.3039856 18.1122093 84.5777435
150.0171051 21.7883816 84.5985870
149.9999542 22.5947056 84.5748062
149.9065857 23.4214458 84.5336456
149.7263336 24.2675343 84.4840622
149.4634399 25.1513157 84.4084930
97.4515915 2.3292832 75.5583954
98.3689575 2.8406599 75.6987839
102.7008057 7.0883670 76.3141327
103.1018600 7.7718010 76.3646469
103.4607162 8.4613209 76.4068069
146.0643768 13.0094404 83.4661102
146.7634277 13.5352201 83.5728073
147.3785248 14.0998669 83.6547012
148.8405151 15.9203987 83.8605270
149.2478027 16.5527115 83.9098892
149.5677338 17.2153378 83.9582367
149.8678284 17.8972168 83.9839630
150.6181946 21.5656815 84.0086670
150.6027069 22.3615341 83.9978409
150.5717468 23.1520405 83.9458771
150.4142761 24.0164318 83.9066696
150.1781311 24.8907528 83.8419342
149.8438721 25.8256912 83.7580261
97.4271088 2.3423860 74.8035355
98.3661346 2.8653080 74.9511795
99.1972885 3.3863840 75.0764999
99.9535599 3.9479108 75.1895447
100.6020279 4.5191879 75.2819061
101.2295837 5.1308742 75.3743668
102.7444687 7.0871744 75.5788345
103.1386795 7.7606196 75.6253433
145.8991547 12.2769594 82.7582245
146.6649475 12.7810144 82.8744583
147.3194122 13.3256445 82.9772568
147.9199219 13.9032154 83.0597305
148.4497070 14.4867449 83.1252823
148.9369659 15.0880690 83.1887207
149.3809509 15.7146654 83.2462921
149.7538605 16.3504333 83.3009262
151.1303253 22.9462433 83.3576889
151.0202332 23.7764378 83.3127823
150.8372650 24.6333160 83.2499008
150.4964142 25.5783558 83.1735992
150.0734100 26.5451088 83.0873413
97.3484650 2.3629982 74.0373840
98.2888031 2.8778718 74.1899185
99.1717148 3.4115369 74.3273697
99.9220505 3.9585779 74.4378281
100.5830383 4.5369830 74.5325546
101.2060852 5.1365318 74.6247330
102.7260437 7.0940776 74.8323288
145.6135559 11.6002874 82.0234222
146.4839172 12.0793600 82.1507721
147.2141724 12.5863485 82.2638626
147.8536987 13.1499529 82.3557205
148.3985596 13.7154274 82.4418259
148.9263611 14.3087740 82.5082550
149.3904419 14.9197111 82.5736084
149.8046722 15.5473728 82.6282578
150.2013550 16.1874866 82.6739883
151.6473541 22.7387676 82.7445068
151.5412750 23.5788193 82.7139893
151.3905640 24.4217815 82.6545105
151.1265717 25.3193455 82.5789185
150.7458954 26.2788563 82.4939194
150.3276215 27.2358589 82.3989944
98.1610565 2.9206488 73.4158859
99.0256348 3.4414668 73.5518570
99.8205338 3.9976566 73.6752472
100.4892426 4.5704446 73.7711868
101.1061707 5.1718616 73.8588181
101.6987762 5.8176203 73.9452438
102.2031174 6.4668341 74.0139999
102.6474380 7.1256080 74.0658875
146.1390076 11.4259844 81.4090576
146.9623718 11.9007034 81.5374146
147.6656799 12.4140692 81.6437073
149.3204803 14.1667585 81.8870850
149.7419281 14.7857437 81.9436798
150.1620483 15.4224997 81.9939804
150.5671082 16.0434437 82.0493774
152.0994263 20.9949570 82.1744614
152.1347961 21.7573776 82.1571274
151.8699493 24.2366562 82.0505295
151.6663055 25.1003208 81.9791641
151.3382111 26.0448151 81.9016876
150.9393311 26.9968262 81.8042450
97.9728775 2.9844234 72.6309052
98.8314209 3.5076885 72.7686768
99.6375809 4.0625601 72.8956299
100.3255539 4.6304283 72.9929810
100.9731827 5.2404094 73.0874710
101.5573425 5.8631973 73.1710434
102.0837936 6.5086780 73.2482529
145.6522675 10.7893238 80.6445541
146.5620575 11.2610235 80.7861862
147.3548431 11.7490177 80.9108429
148.0565491 12.2727556 81.0131912
149.6929626 14.0392170 81.2480316
150.1149902 14.6622305 81.3057709
150.5307159 15.2883453 81.3663788
150.9606628 15.9147768 81.4175034
152.4961395 20.8355579 81.5439148
152.5465698 21.6071873 81.5344849
152.3199615 24.0615749 81.4232559
152.1277313 24.9338284 81.3679810
151.8456421 25.8522663 81.2916183
151.4666138 26.7858868 81.1962128
150.9613495 27.8137932 81.0916214
98.6142120 3.5908599 71.9788284
99.4048920 4.1344442 72.1022568
100.1359711 4.7084599 72.2155762
100.7916031 5.3003626 72.3134232
101.3934555 5.9257941 72.3952484
146.0777740 10.6479435 80.0107269
146.9454193 11.1246166 80.1510162
147.7181702 11.6199903 80.2694473
148.4036102 12.1473951 80.3762283
149.0344238 12.7018099 80.4658813
149.5925293 13.2867489 80.5484390
150.0710907 13.8935814 80.6128998
150.5069733 14.5174322 80.6735916
150.9358063 15.1475630 80.7284012
151.3407440 15.7722111 80.7776642
152.6125488 19.2173424 80.9116058
152.7487488 19.9477425 80.9154892
152.8627472 20.6911163 80.9090347
152.9147797 21.4700642 80.8937607
152.2686462 25.6859264 80.6709213
151.9071045 26.6094971 80.5802612
151.4107208 27.6208858 80.4632797
150.7261658 28.7073936 80.3155594
99.1514511 4.2373853 71.3203888
99.8847885 4.7945848 71.4220428
100.5656891 5.3825998 71.5227051
101.1729660 5.9893994 71.5992432
146.4245605 10.5199394 79.3733902
147.2795715 10.9980116 79.5105667
148.0317383 11.5057449 79.6265717
148.6889038 12.0319548 79.7309189
149.3396606 12.5943937 79.8223038
149.9125366 13.1752377 79.9085770
150.4175720 13.7763195 79.9750137
150.8483734 14.3809395 80.0373688
151.2652283 15.0225172 80.0936508
151.6399994 15.6576099 80.1428223
152.9282074 19.0958271 80.2663345
153.0745850 19.8464603 80.2756729
153.1703644 20.5816250 80.2680588
153.2062531 21.3614597 80.2552490
152.6172180 25.5513382 80.0325470
152.2717133 26.4812374 79.9476318
151.8122406 27.4682140 79.8400497
151.1950073 28.5302410 79.7004623
99.5745544 4.9045439 70.6221542
100.2792358 5.4938526 70.7299500
100.9116516 6.0988178 70.8106613
145.8067017 9.9713144 78.5773773
146.7497864 10.4175606 78.7280655
147.5740509 10.8938494 78.8601074
150.6590881 13.6766205 79.3238220
151.1119080 14.2866917 79.3858414
153.3162689 23.6843662 79.5081787
153.1377258 24.5518093 79.4545898
152.9123077 25.4274330 79.3859558
152.6054840 26.3410645 79.3073044
152.1729279 27.3233376 79.2038956
151.5708618 28.3934212 79.0698090
150.7038879 29.5694637 78.8835983
99.1455154 5.0566730 69.7902451
99.8721695 5.6344786 69.9022446
146.0488739 9.8776131 77.9187775
146.9932404 10.3274059 78.0718384
147.8035126 10.8098631 78.2024460
150.8580627 13.5962772 78.6617432
151.3305664 14.2070732 78.7269440
153.5520477 23.5868092 78.8504486
153.3786926 24.4597683 78.7988586
153.1675720 25.3344917 78.7356644
152.8696136 26.2575951 78.6573792
152.4583130 27.2148876 78.5570450
151.8691254 28.2822037 78.4235306
151.0690155 29.4282665 78.2485352
98.6408310 5.2156243 68.9375076
99.3918228 5.7919507 69.0751266
146.2596893 9.8163052 77.2531738
151.3194427 29.3484840 77.5944901
98.7916260 5.9889307 68.1888580
146.3930359 9.7679415 76.5752640
151.5130463 29.2779350 76.9270706
146.4741058 9.7420235 75.8872223
147.3943939 10.1854343 76.0389404
148.2298126 10.6652107 76.1746826
148.9548340 11.1786871 76.2903595
149.6016083 11.7309141 76.3894501
151.6553497 29.2167149 76.2523804
146.5164642 9.7228432 75.1912460
147.4556274 10.1805134 75.3482285
148.2814331 10.6525640 75.4823837
148.9997864 11.1606560 75.5962906
149.6549072 11.6993523 75.6981354
151.7088165 29.2037201 75.5598145
147.4384766 10.1753492 74.6422272
148.2975769 10.6649723 74.7850266
153.0727386 27.0082855 75.1679153
152.5399170 28.0340538 75.0436325
151.7290802 29.1923981 74.8627777
147.3944550 10.1937876 73.9299011
148.2297668 10.6752234 74.0699539
153.0534363 27.0257912 74.4628067
152.4924622 28.0657978 74.3323669
151.6676483 29.2338085 74.1458054
148.1360016 10.7231750 73.3524551
153.5165253 17.3342609 74.1360397
153.7433624 18.0316238 74.1503525
152.9949341 27.0334072 73.7533340
152.3906097 28.1059380 73.6122360
147.0752563 10.2968197 72.4564819
147.9649048 10.7827272 72.6132050
153.4613800 17.3636131 73.4312210
153.6733856 18.0548134 73.4434128
152.8480988 27.1037807 73.0221786
152.2288208 28.1694698 72.8797302
147.7687683 10.8598566 71.8699036
148.5743256 11.3440514 72.0055008
149.3110657 11.8420572 72.1283417
151.1034546 13.5425224 72.4071503
151.5862885 14.1407480 72.4771347
153.3483734 17.4061985 72.7117996
153.5625305 18.0973892 72.7275696
153.4718628 25.2668724 72.4919357
153.1268463 26.1825218 72.4040070
152.6334839 27.1805363 72.2858734
148.3513031 11.4446554 71.2647858
149.0901184 11.9440384 71.3864746
150.9116364 13.6200666 71.6760712
151.4186401 14.2179804 71.7481232
153.1769867 17.4717979 71.9745560
153.4085693 18.1653576 71.9961090
153.2539673 25.3482933 71.7493439
152.8675690 26.2995186 71.6477356
152.3379059 27.3147621 71.5202560
148.0266418 11.5453482 70.4879227
148.7920380 12.0558491 70.6236038
149.4886932 12.5882864 70.7350311
150.0799103 13.1325159 70.8157043
150.6610870 13.7140770 70.9153519
151.1642151 14.2960043 70.9994431
151.6417084 14.9272003 71.0835114
152.0373840 15.5602579 71.1242447
153.6489716 20.4611855 71.2730408
153.6842957 21.2367516 71.2505188
153.6775360 22.0279236 71.2285385
153.6150208 22.8255196 71.1972046
153.4838562 23.6644478 71.1478195
153.2665558 24.5455685 71.0792084
152.9504395 25.4790039 70.9930115
152.5406799 26.4419117 70.8802643
148.4571838 12.1841536 69.8544159
149.1864624 12.7132673 69.9879608
149.8143463 13.2583580 70.0842896
150.3736877 13.8297863 70.1659775
150.8237000 14.4080858 70.2029800
151.3062744 15.0258884 70.2897339
151.7686310 15.6609488 70.3710709
153.3761139 20.5610275 70.5229874
153.4136200 21.3313408 70.5024338
153.4086151 22.1317997 70.4812851
153.3127289 22.9597511 70.4302292
153.1492615 23.8078918 70.3762360
152.9030151 24.6967964 70.3046875
152.5621338 25.6293182 70.2133026
148.0170135 12.3205891 69.0464325
148.7716827 12.8616896 69.1910095
149.4294128 13.3987484 69.2947998
150.0258636 13.9609556 69.4028015
150.5261078 14.5556545 69.4681168
153.0606689 20.6929779 69.7497406
153.0998383 21.4745789 69.7384186
153.0651855 22.2724533 69.7125473
152.9398651 23.1045628 69.6579819
152.7543030 23.9606285 69.5991364
152.4769592 24.8669815 69.5216980
152.1063995 25.8048897 69.4223251
148.3020477 13.0355225 68.3955536
148.9920197 13.5701952 68.5174484
149.6082611 14.1269979 68.6095352
150.1578064 14.7120886 68.7017899
152.6890106 20.8417645 68.9912338
152.6992950 21.6383820 68.9685287
152.6392670 22.4438114 68.9338455
152.4946747 23.2897987 68.8691406
152.2931519 24.1416054 68.8091965
151.9678650 25.0696831 68.7170639
151.5196991 26.0670986 68.5938873
148.4543304 13.7717466 67.6941452
149.0955658 14.3213596 67.8063278
149.6526337 14.8950958 67.8901443
150.1687012 15.5072823 67.9782715
150.6042175 16.1266747 68.0373154
151.0182648 16.7688980 68.1080475
151.3485718 17.4233646 68.1338501
151.6591492 18.0897751 68.1903839
151.8628693 18.7644882 68.1880264
152.0301208 19.5031357 68.1950150
152.1408539 20.2607918 68.1919632
152.1751099 21.0464840 68.1654510
152.1743469 21.8380985 68.1470032
152.1053314 22.6565418 68.1118622
151.9613953 23.4994469 68.0636292
151.7272491 24.3773365 67.9982834
148.5093689 14.5408945 66.9732437
149.0772858 15.1257076 67.0797348
149.5664825 15.7277288 67.1517944
149.9916992 16.3541546 67.1878433
150.4022064 16.9829082 67.2539902
150.7987366 17.6477146 67.3316116
151.1081696 18.3005829 67.3672104
151.3385010 18.9742184 67.3864288
151.4951477 19.7136517 67.3875351
151.5939026 20.4801006 67.3912735
151.6196136 21.2578144 67.3670197
151.6039581 22.0484200 67.3446198
151.5014038 22.8994751 67.2969208
151.3114624 23.7551975 67.2290268
148.8957062 15.9868126 66.3182678
149.3675232 16.5970402 66.3959274
149.7408295 17.2426968 66.4125519
150.1166840 17.9011288 66.4701843
150.4396362 18.5618038 66.5123215
150.7037201 19.2405930 66.5520859
150.8526917 19.9696922 66.5565414
150.9309540 20.7313786 66.5544968
150.9364777 21.5259762 66.5333481
150.8851929 22.3316956 66.4992294
150.7392731 23.2055340 66.4365005
148.5598755 16.8996201 65.5265503
149.0039673 17.5253620 65.6011124
149.3650970 18.1866951 65.6303635
149.6855621 18.8519020 65.6705475
149.9304199 19.5294876 65.7054901
150.0526581 20.2880764 65.6910782
148.6181335 19.2576599 64.7649918
148.8551025 19.9423885 64.7853012
151.7975616 18.7607002 336.9349670
152.2751770 20.1640663 336.9089050
152.0469818 17.1021690 335.4197083
152.7174377 18.4097805 335.3556519
153.4861298 21.2744961 335.3373108
151.8491364 15.6021929 333.9911499
152.7013245 16.8530254 333.8953247
153.3578644 18.1632900 333.8352966
153.8420868 19.5510216 333.8056641
154.2280731 22.5584965 333.8579102
154.1009369 24.1968842 333.9475403
152.2654114 15.4430332 332.5157776
154.2428741 19.3956909 332.3320923
154.5489044 20.8642750 332.3392639
154.6696167 22.3888702 332.3797607
150.3269958 13.0115929 331.3412476
154.4631348 19.3080502 330.8954773
154.7942047 20.7776909 330.8956604
154.9151154 22.2903652 330.9362793
154.8704224 23.8997288 331.0046692
151.6627350 14.1004086 329.7593384
154.0803680 17.8946552 329.5053711
154.5674286 19.2768497 329.4763184
154.8769989 20.7414665 329.4823303
155.0123901 22.2467003 329.5177307
154.9621277 23.8602352 329.5899963
154.7185364 25.5568199 329.6949768
154.1699219 27.3339882 329.8558044
150.4536591 12.9712191 328.5127869
154.0332031 17.9119167 328.1141052
154.5052490 19.3052006 328.0902100
154.8053131 20.7754650 328.0977478
154.9467621 22.2731552 328.1320190
154.9051666 23.8847752 328.2008057
154.6637268 25.5768871 328.3055725
154.1344147 27.3453693 328.4607849
150.2843628 13.0330334 327.1395874
151.4522552 14.1874332 326.9936218
153.8291626 17.9917202 326.7517700
154.2959442 19.3810520 326.7291870
154.5920715 20.8484497 326.7367554
154.7082520 22.3633804 326.7754822
154.6742401 23.9709873 326.8429871
154.4315491 25.6688976 326.9467468
153.8991547 27.4352264 327.1007080
101.4291000 6.7584243 333.3482971
149.9252167 13.1718740 325.7994690
151.0873718 14.3159580 325.6546936
152.0467682 15.5420446 325.5468445
152.8404541 16.8097496 325.4667664
153.4689026 18.1288776 325.4165039
153.9414825 19.5248928 325.3934021
154.2212677 21.0000248 325.4039001
100.6290131 5.3878441 331.9298401
101.8196411 6.6299438 331.7877197
149.3912201 13.3616924 324.4857178
150.5872650 14.5145168 324.3389893
151.5761414 15.7258759 324.2287598
152.3580170 16.9862499 324.1513062
152.9700317 18.3163166 324.1026306
153.4453583 19.7176857 324.0814514
153.7030792 21.2050037 324.0923767
100.8413315 5.3225489 330.3988037
102.0172195 6.5593481 330.2593079
149.9270477 14.7656660 323.0475464
150.9276276 15.9710035 322.9355469
151.7085876 17.2298489 322.8594055
153.0264282 21.4667206 322.8106384
153.1369781 22.9842205 322.8518066
152.9832611 24.6446972 322.9345703
100.8504639 5.3274384 328.9017334
101.9986038 6.5735559 328.7699585
102.9292297 7.8870530 328.6730652
150.1086578 16.2898540 321.6718750
151.4860382 18.8905945 321.5484314
152.2351379 23.3352146 321.6008301
100.6870880 5.3825598 327.4334412
101.8382721 6.6394677 327.3026428
102.7507401 7.9483399 327.2106323
149.8501587 17.9333591 320.3665466
150.4596405 19.2810535 320.3212891
150.8887634 20.7208080 320.3052673
151.1028900 22.2146587 320.3286438
100.3292236 5.5092354 325.9962769
101.4896774 6.7616525 325.8663330
102.4021149 8.0721474 325.7752991
148.5108337 18.4546223 319.1803894
149.1459351 19.7861500 319.1317444
149.5423279 21.2418709 319.1200867
50.0738068 -2.8440578 331.7033997
99.7633896 5.7066455 324.5913696
100.9345779 6.9601769 324.4607544
101.8527679 8.2649565 324.3689270
103.1248856 11.1113796 324.2794495
50.3036423 -2.9067032 330.0764771
51.5665398 -1.6016924 329.9366455
100.2067947 7.2249565 323.0826416
101.1254730 8.5159016 322.9895935
48.7296028 -4.1039901 328.6741943
50.2993889 -2.8975382 328.4884949
51.5324821 -1.5795460 328.3549194
99.2287750 7.5686774 321.7386475
100.9560013 10.2176170 321.5785828
101.5333481 11.6863298 321.5490112
102.0488129 14.7481585 321.5795898
50.0469284 -2.8148220 326.9384155
51.2961617 -1.4985350 326.8047485
99.0209732 9.2568569 320.3282471
100.6756668 13.6345863 320.2347717
49.5918236 -2.6680272 325.4177856
50.8514862 -1.3599999 325.2842102
51.8637810 0.0429235 325.1894531
52.6437340 1.5011215 325.1273193
-0.6259987 -11.6721201 330.5381470
51.2234993 0.2463093 323.6974487
52.0289917 1.7094737 323.6385193
52.5923958 3.2100887 323.6075439
0.9141628 -10.3505621 328.6862793
49.2893715 -0.8520182 322.3403931
50.3388786 0.5363560 322.2387390
51.1349411 1.9925098 322.1752014
51.7256889 3.4923103 322.1475830
0.7173240 -10.2821617 327.0344238
1.8597593 -8.8227434 326.9271851
50.0126114 2.3543158 320.7550354
51.0071564 5.4703074 320.7220459
1.4678065 -8.6962128 325.3057861
-50.2509499 -19.3737068 330.1076660
-50.2799454 -19.3557968 328.3369141
0.8305274 -6.7321906 322.0898132
1.5208150 -5.1621041 322.0516663
-49.1531982 -17.8269939 326.4656982
0.9487860 -1.4153666 320.5599976
-100.0813828 -27.0570946 330.8357239
-48.5774231 -16.1196308 324.6731262
-100.0025482 -27.0665379 328.9580383
-50.6356621 -17.4041767 323.1172180
-48.5461197 -14.2742128 322.9508667
-50.6227837 -15.5421066 321.3958435
-100.2073059 -25.0555916 323.4396667
-100.4398956 -19.2278290 319.8977356
150.6698608 19.3442574 287.9753113
150.3761749 16.3136101 286.5195007
151.3095703 17.5279655 286.4486084
151.9762421 18.8392525 286.4151001
152.4298553 20.2404938 286.4044189
152.6540222 21.7508583 286.4216614
152.2445831 17.1625786 284.9387512
152.8789520 18.4931068 284.9083862
153.3354950 19.8927631 284.8982544
153.5897675 21.3815937 284.9113770
151.0803223 14.4594040 283.5864258
153.5233917 18.2468014 283.4323425
153.9743347 19.6508980 283.4267578
154.2551880 21.1216640 283.4346924
154.3375702 22.6497364 283.4687500
154.7024384 20.9474125 281.9868469
154.7215424 24.0905495 282.0671082
150.7181091 13.0190554 280.7819519
151.8833008 14.1717548 280.6960754
152.8609467 15.3704891 280.6266479
153.6425629 16.6302280 280.5830078
154.2410889 17.9597454 280.5566101
154.9659729 20.8428478 280.5600586
155.0852203 22.3538799 280.5862732
155.0148163 23.9720440 280.6346436
154.6902466 25.6967278 280.7126465
150.8822021 12.9596806 279.3611755
152.0318451 14.1182375 279.2783813
152.9876404 15.3346462 279.2157593
153.7696991 16.5837688 279.1710205
154.3565216 17.9187679 279.1480713
154.7924805 19.3261395 279.1409607
155.0843964 20.8011723 279.1503296
155.2074738 22.3092556 279.1763000
155.1298981 23.9353905 279.2253418
154.8452606 25.6388702 279.2959595
149.5290527 11.9280539 278.0625916
150.8782349 12.9627876 277.9595032
152.0121613 14.1280203 277.8800659
152.9636536 15.3463326 277.8197327
153.7468109 16.5984764 277.7759399
154.3364868 17.9364967 277.7529907
154.7820740 19.3497524 277.7459106
155.1687775 22.3204250 277.7828064
155.0981903 23.9465771 277.8303833
154.7967377 25.6598225 277.9018555
154.2549591 27.4404030 277.9983826
149.3619843 12.0039759 276.6764526
150.7010040 13.0347614 276.5752563
151.8394165 14.1998110 276.4983215
152.7940369 15.4134645 276.4388123
153.5607147 16.6703835 276.3971863
154.1668396 18.0097942 276.3731995
154.6173401 19.4078674 276.3655701
154.8895416 20.8761253 276.3774414
154.9812164 22.3976421 276.4044800
154.9108124 24.0278034 276.4521484
154.5967102 25.7451344 276.5231934
154.0326691 27.5322590 276.6206665
150.3669281 13.1679125 275.2079163
152.4561920 15.5445814 275.0737000
153.8443604 18.1270771 275.0079041
154.2834320 19.5367031 275.0027161
154.5493164 21.0118732 275.0119629
154.6449432 22.5303307 275.0422058
154.5363312 24.1803265 275.0908203
154.2131500 25.9056549 275.1632690
149.8605957 13.3563480 273.8545532
151.0342560 14.5029373 273.7763672
151.9781799 15.7291431 273.7192688
152.7638702 16.9798851 273.6798401
153.3577728 18.3126144 273.6580505
154.0567322 21.2053452 273.6642761
154.1461792 22.7170563 273.6935425
151.3618774 15.9644918 272.3812866
152.1264801 17.2240334 272.3400574
152.7106934 18.5681210 272.3240662
153.1432800 19.9933891 272.3178406
153.4076385 21.4704113 272.3301392
153.4628296 22.9937344 272.3583069
149.4539032 15.1002102 271.1226501
150.4976807 16.2999229 271.0590515
151.2792053 17.5451603 271.0197144
151.8846130 18.8858929 270.9995117
152.3103333 20.3270798 270.9973755
152.5485840 21.8115101 271.0099792
149.3633270 16.7235546 269.7606506
150.1731262 17.9705620 269.7230530
150.7911682 19.3182545 269.6989746
148.6875153 18.5295124 268.4462891
149.3649597 19.8618050 268.4242249
-96.5297928 -21.8941860 282.1309204
-96.9174652 -23.7071056 280.2570801
-96.1567535 -21.9762402 280.2374878
-95.8299179 -14.4053431 280.3703918
-99.1948853 -26.9573975 278.4942932
-97.8285446 -25.3755684 278.4271240
-96.8086853 -23.7259464 278.3866882
-96.0537949 -21.9990997 278.3676453
-95.5563278 -20.2204876 278.3678894
-95.7115402 -14.4264984 278.4976807
-99.3744736 -26.8928146 276.6431580
-96.9917297 -23.6774311 276.5392761
-95.7125702 -20.1771507 276.5181580
-98.4980927 -25.1924496 274.7507019
-96.4447098 -14.2287073 274.8254700
150.2593384 16.5378838 235.9802094
151.0729980 17.7998085 235.9665985
151.6651306 19.1426239 235.9591675
152.0586548 20.5780849 235.9644470
150.2901611 14.9521580 234.5505829
151.2876740 16.1415691 234.5312042
152.0923920 17.4166374 234.5192871
152.6517487 18.7691994 234.5216064
153.0444031 20.1941643 234.5222168
153.2650452 21.6885719 234.5371246
149.9009552 13.5244265 233.1429901
151.0608063 14.6709137 233.1221161
152.0398560 15.8736954 233.0990601
152.8214111 17.1380119 233.0909424
153.3943634 18.4831009 233.0872803
153.8132019 19.8975506 233.0909271
154.0306854 21.3909588 233.1057281
154.0570831 22.9426193 233.1214142
153.8558350 24.6209698 233.1540070
150.5090485 13.2903557 231.7171326
151.6493988 14.4494858 231.6944427
152.5783844 15.6672516 231.6827087
153.3561249 16.9301071 231.6707001
153.9447021 18.2720871 231.6676941
154.3618774 19.6868649 231.6731567
154.6480713 22.7134285 231.7026215
154.4793091 24.3738060 231.7281494
150.9035950 13.1380100 230.3022919
152.0375977 14.3119287 230.2800751
152.9530945 15.5286446 230.2677002
153.7060242 16.7964172 230.2597046
