147.2197723 32.8634987 323.2007751
146.3735962 33.3236465 323.3000793
145.4234772 33.7347107 323.4159241
152.3402863 19.2807636 322.5925293
152.5367126 20.1235180 322.5098267
148.2161255 31.6868629 322.4237366
147.5529480 32.1901779 322.4992065
146.7410583 32.6873093 322.5827332
145.8693390 33.1345711 322.6895752
152.0547028 19.9548779 321.8966370
147.7328796 31.5036793 321.8142090
147.0306091 31.9998112 321.8875427
146.1803894 32.4806480 321.9801331
145.2461548 32.9185486 322.0916138
151.4763031 19.7202606 321.2847900
151.6481628 20.5722485 321.2135315
151.7610931 21.4089394 321.1484070
151.7879181 22.1865387 321.0872192
151.7671661 22.9266930 321.0406494
151.7109222 23.6854610 321.0118713
151.5806580 24.4198399 320.9805603
147.1664124 31.2832336 321.2119751
146.4184113 31.7709084 321.2897034
145.5495605 32.2299995 321.3930054
144.5397339 32.6575508 321.5078125
151.0292816 20.3266087 320.6174316
151.1498871 21.1573887 320.5494995
151.1941528 21.9501534 320.4912415
151.1924896 22.7000370 320.4440918
151.1404724 23.4669704 320.4017029
151.0360565 24.2197056 320.3710632
146.4756012 31.0555077 320.6148987
145.7241516 31.5199413 320.7049866
144.7842865 31.9553032 320.8087769
150.3163757 20.0379295 320.0195618
150.4530334 20.8895454 319.9637756
150.5167389 21.6953659 319.8907776
150.5514221 22.4604473 319.8484497
150.5299988 23.2346878 319.8083191
150.4456787 23.9951878 319.7760315
149.7752533 26.0968151 319.7344360
149.4740906 26.7292900 319.7351685
149.1703033 27.3734226 319.7575989
148.7510834 27.9964504 319.7743835
148.2557068 28.6093845 319.8095398
147.7489624 29.1837444 319.8507996
147.1568298 29.7464676 319.9005737
146.5043793 30.2792320 319.9698181
145.7712860 30.7795887 320.0436401
149.7982483 21.4208221 319.3302307
149.8446045 22.1952858 319.2723389
149.8341064 22.9732723 319.2265625
149.7566223 23.7372894 319.1918640
149.1118317 25.8225441 319.1523132
148.8161011 26.4860764 319.1574097
148.4922333 27.1202240 319.1778870
148.0429077 27.7376156 319.1948853
147.5334625 28.3427258 319.2272339
147.0113525 28.9134903 319.2844238
146.3743286 29.4542274 319.3391418
145.6538696 29.9743519 319.4057617
144.9098816 30.4575958 319.4920654
148.8557434 21.0667706 318.7938232
148.9396362 21.8494587 318.7131348
148.9840698 22.6540279 318.6715393
148.9264221 23.4238968 318.6270752
148.3426361 25.5412636 318.5890503
148.0126495 26.1915379 318.5877075
147.6540833 26.7978554 318.6021423
147.2158051 27.4152336 318.6351318
146.6890869 28.0174198 318.6770935
146.0669250 28.5676231 318.7125854
147.7606201 20.6451225 318.2349548
147.9477997 21.4594135 318.1781006
147.9823151 22.2579308 318.1272278
147.9553070 23.0631847 318.0911255
147.3785706 25.1884842 318.0314636
147.0720062 25.8321457 318.0503235
146.6948090 26.4337883 318.0720825
146.2228088 27.0369492 318.0989685
145.6705933 27.6233063 318.1354675
146.8177490 22.6111164 317.5537109
146.7143707 23.3623486 317.5313721
146.5500336 24.0734615 317.5290527
146.3087769 24.7702999 317.5321960
145.8831329 25.3755398 317.5108948
147.7636108 26.3582420 289.8584900
147.2711029 26.9518070 289.9123230
149.9511261 24.0691128 289.0129395
149.7981262 24.7979107 288.9973755
149.6015015 25.4851303 288.9820862
149.3236542 26.1612835 288.9857788
148.9718170 26.8071442 288.9868469
148.5265961 27.3969879 289.0107422
147.9864655 27.9753647 289.0586853
147.3679199 28.5531406 289.1190186
150.9434052 22.8875771 288.2589417
150.9425049 23.6687660 288.2214050
150.8829803 24.4391956 288.1888428
150.7287598 25.1417942 288.1849670
150.5294952 25.8273106 288.1723022
150.2461853 26.5092831 288.1786499
149.9050140 27.1515141 288.1835022
149.4836578 27.7598534 288.2007751
148.9845123 28.3560352 288.2229309
148.4009857 28.9279327 288.2572937
147.7342224 29.4424496 288.3136902
146.9744415 29.9456139 288.3962402
151.7647247 23.2109108 287.4518738
149.2192078 29.2389412 287.4697876
148.6366119 29.7762852 287.5042419
147.9597778 30.2886524 287.5446777
147.1096649 30.7866116 287.6242065
152.4123230 22.6897812 286.7111816
152.4122925 23.4546356 286.6824951
149.9008179 29.4896145 286.6892090
149.3276825 30.0429192 286.7300720
148.6758728 30.5725632 286.7761536
147.9167175 31.0826035 286.8220215
147.0228424 31.5365086 286.9083252
146.1117859 31.9456234 286.9829712
152.9334259 22.1181049 285.9812317
152.9685669 22.9061890 285.9457703
152.9458008 23.6681290 285.9175110
149.2964935 30.7976265 286.0047913
148.5946808 31.3336315 286.0473938
147.8054657 31.8172092 286.1035156
146.9118195 32.2271385 286.1802979
153.3374176 21.4817390 285.2711182
153.4326172 22.3133831 285.2203064
153.4342194 23.0915699 285.2014771
153.3976746 23.8393707 285.1731873
149.7994690 30.9907265 285.2479553
149.1174164 31.5323982 285.2901917
148.3625946 32.0317345 285.3514709
147.5414124 32.4724884 285.4163818
146.5953674 32.9085121 285.4989624
153.4428101 19.9987144 284.6188660
153.6498566 20.8501453 284.5586243
153.7819519 21.6570339 284.5184937
153.8525543 22.4778194 284.4717102
151.3150482 30.0355339 284.4308472
150.8068390 30.5962315 284.4635620
148.8729401 32.2126389 284.5881042
148.1028442 32.6799583 284.6383057
147.1346588 33.1143303 284.7235107
146.0282593 33.5225525 284.8429871
153.8338013 20.1554470 283.8718872
154.0273590 21.0000877 283.8202515
154.1376343 21.8107185 283.7797852
154.1814270 22.5985088 283.7510376
151.6313171 30.1591969 283.7033997
151.1501160 30.7324944 283.7225952
149.2680359 32.3525620 283.8446960
148.4775391 32.8371429 283.9138794
147.5939941 33.2876778 283.9717102
146.5663147 33.7043877 284.0654907
153.9098663 19.4025898 283.1959839
154.1543274 20.2678566 283.1406860
154.3372498 21.1232471 283.0855713
149.5744171 32.4624519 283.1191101
148.8356476 32.9512291 283.1719360
147.9963684 33.4387016 283.2245789
147.0045929 33.8755798 283.3158875
145.8885040 34.2624588 283.4117126
154.1760254 19.4935169 282.4689026
154.4234619 20.3868141 282.4081421
154.5898895 21.2297764 282.3598633
149.8492584 32.5572014 282.3834839
149.1221619 33.0671539 282.4423828
148.3077698 33.5663605 282.4984436
147.3774872 34.0138321 282.5715637
146.2164307 34.4014435 282.6671143
145.0422058 34.7128067 282.7838440
154.1278381 18.7009487 281.8102722
154.4064026 19.5943508 281.7437744
152.3181458 30.4144115 281.5260925
151.8359833 31.0026493 281.5559998
148.5605774 33.6567650 281.7727051
147.6405945 34.1128044 281.8425903
146.5110474 34.5181122 281.9390869
145.5288849 34.8467827 282.0225220
154.5914001 19.6602573 281.0232544
152.4322357 30.4560318 280.8293762
151.9615479 31.0443668 280.8453064
148.7223816 33.7219391 281.0606995
147.8224335 34.1784782 281.1261292
146.7801666 34.5927620 281.2105713
145.8450623 34.9400101 281.2927856
154.4644318 18.8445549 280.3683472
154.7217407 19.7207146 280.3097229
151.5397034 31.6597443 280.1664124
150.9349823 32.2144966 280.2087402
148.8581848 33.7619514 280.3443604
147.9611359 34.2313805 280.4141846
154.5319214 18.8633347 279.6646118
154.7937469 19.7574921 279.6047363
151.5933990 31.6818447 279.4664612
151.0199432 32.2374306 279.4982605
148.9398499 33.7919273 279.6395874
154.5673370 18.8962669 278.9595642
154.8137512 19.7627087 278.9049988
148.9860840 33.8079681 278.9359436
154.5550537 18.8881588 278.2631531
154.7989960 19.7673988 278.2082520
148.9733429 33.8077583 278.2402954
148.1207428 34.2849426 278.3025513
154.5207672 18.8888397 277.5673218
154.7572632 19.7540436 277.5142212
154.5223236 26.6414452 277.2889709
154.3076172 27.3268318 277.2843628
147.0787659 34.6857605 277.6863098
154.4330750 18.8550835 276.8782654
154.6692657 19.7138882 276.8260803
154.4244080 26.6027374 276.6021423
154.2100983 27.2876949 276.5996399
146.9715881 34.6453972 276.9993591
145.8527069 35.0614700 277.0844421
154.2799683 18.7873669 276.1954346
154.5275574 19.6642609 276.1432190
154.2982025 26.5653591 275.9201965
154.0730896 27.2354565 275.9187317
146.8230743 34.5821533 276.3173828
145.6623230 34.9978294 276.4034119
154.0875854 18.7128696 275.5162354
154.3400269 19.5988121 275.4650879
154.1310120 26.5003319 275.2430725
153.8900909 27.1639099 275.2410583
146.5915375 34.4991951 275.6419983
145.3944244 34.9036865 275.7312622
153.8422699 18.6089535 274.8388977
154.0956879 19.4923134 274.7890930
154.2994995 20.3838463 274.7415771
154.4213562 21.2002983 274.7023315
148.1789703 33.5209389 274.8347473
147.3030853 33.9812660 274.8961487
146.2922058 34.3934555 274.9730225
145.0756683 34.7789993 275.0651550
153.8138733 19.4017048 274.1244202
154.0059357 20.2571621 274.0730591
154.1482697 21.0995178 274.0325317
147.8625183 33.4049911 274.1690369
146.9696503 33.8571167 274.2311707
145.9360046 34.2613716 274.3095093
153.4494629 19.2492237 273.4580688
153.6602173 20.1225224 273.4063416
153.8413086 20.9888535 273.3684998
152.1954193 28.8230782 273.2492065
151.7797546 29.4537601 273.2605896
149.0346680 32.3003502 273.4062500
148.3106842 32.7910004 273.4490051
147.4563446 33.2794914 273.5006104
146.5912933 33.7078705 273.5741272
153.0556793 19.0892067 272.7940063
153.2906189 19.9865246 272.7486572
153.4676971 20.8408337 272.7016907
151.8571625 28.7023582 272.5790710
151.4296417 29.3346748 272.5968933
148.6559601 32.1585121 272.7459106
147.9135284 32.6441727 272.7941589
147.0556488 33.1172752 272.8502502
146.1134033 33.5394020 272.9185791
152.8692932 19.8272533 272.0939026
153.0409241 20.6730347 272.0451965
150.5780792 29.8005333 271.9530029
150.0678253 30.3817444 271.9842224
148.1965027 31.9975166 272.0880737
147.4424591 32.4747772 272.1373596
146.5651398 32.9250870 272.1994324
152.5784760 20.5069561 271.3980713
150.1514587 29.6461830 271.3045044
149.6200562 30.2208710 271.3342285
147.6966705 31.8001022 271.4425049
146.8948669 32.2742844 271.4897766
145.9703369 32.7077675 271.5549316
144.8964844 33.1047096 271.6276550
152.0196991 20.2737274 270.7410278
152.1437683 21.1122284 270.7103577
152.2271729 21.9186077 270.6818848
152.2478180 22.6957035 270.6552124
152.1998444 23.4410725 270.6296082
148.5010681 30.5706005 270.7128906
147.8229218 31.1004181 270.7494812
147.0821838 31.5895004 270.7908325
146.2802277 32.0364990 270.8551636
145.2775421 32.4474602 270.9256592
151.5012512 20.8655224 270.0713196
151.5899811 21.6764259 270.0354919
151.6352844 22.4601536 270.0084534
151.6205750 23.2016811 269.9843140
147.8966370 30.3426933 270.0773621
147.1891022 30.8554497 270.1135864
146.4175720 31.3269577 270.1660156
145.5014801 31.7576656 270.2234802
150.7925720 20.5829010 269.4293518
150.8917694 21.4142437 269.4017334
150.9581604 22.1950474 269.3841858
150.9553986 22.9421692 269.3542175
150.9002380 23.7109852 269.3377380
150.7682343 24.4734802 269.3218384
149.3750153 27.7772808 269.3249207
148.9298553 28.3953400 269.3507385
148.3818054 28.9942875 269.3690186
147.7922363 29.5419273 269.3973694
147.1279144 30.0687790 269.4355164
146.3924408 30.5580006 269.4780273
145.5699615 31.0109005 269.5437317
144.5933838 31.4131756 269.6100464
150.1294098 21.8584881 268.7376404
150.1675415 22.6246834 268.7236328
150.1477356 23.4118176 268.7012024
150.0507660 24.1984310 268.6880798
148.6574707 27.4998055 268.6985168
148.1685944 28.1080818 268.7126160
147.6212616 28.6998882 268.7523193
146.9660034 29.2337914 268.7820435
146.2841797 29.7491817 268.8293152
145.4552917 30.2191620 268.8782043
144.5048523 30.6293411 268.9282837
149.2653809 21.5230255 268.1200867
149.3151550 22.3133183 268.1086731
149.2980194 23.0914516 268.0863037
149.2104797 23.8681488 268.0646667
149.0507355 24.5880985 268.0523071
148.8281860 25.2785072 268.0502625
148.5325470 25.9319210 268.0481567
148.1900482 26.5540581 268.0538330
147.7982483 27.1693439 268.0755615
147.2761993 27.7739868 268.0910034
148.2674866 22.6786842 267.4520569
148.2138214 23.4841900 267.4602051
148.0512238 24.2135696 267.4548035
147.8272400 24.9021187 267.4467773
147.5196381 25.5537395 267.4482727
147.1592712 26.1618042 267.4557495
146.7380524 26.7684269 267.4770203
146.1950378 27.3455963 267.5007935
146.2190704 25.0508041 266.8519592
145.8651581 25.6678600 266.8809204
145.3976288 26.2461834 266.8881226
147.4957886 24.2262993 239.4034576
147.2537079 24.9022846 239.3969116
146.8589325 25.5446529 239.4129944
149.0384369 24.0374603 238.6084747
148.8216858 24.7228584 238.6157074
148.5890198 25.4004154 238.6063385
148.2469177 26.0691681 238.6106262
147.8182220 26.6867714 238.6214142
147.3307190 27.2505379 238.6308136
146.6974945 27.8047714 238.6546326
150.2260284 22.9205055 237.8791656
150.1845856 23.6956654 237.8675537
150.0363617 24.4180832 237.8720551
149.8239136 25.1021767 237.8790283
149.5917664 25.7846451 237.8755188
149.2891388 26.4600124 237.8723755
148.8816528 27.0778103 237.8892670
148.4207306 27.6673279 237.8990326
147.8757019 28.2372894 237.8994446
147.2129669 28.7655907 237.9273224
151.0879517 22.4968586 237.1443329
151.0956879 23.2579594 237.1385040
149.3061066 28.0112228 237.1537933
148.7752686 28.5815735 237.1704712
148.1821442 29.1208038 237.1817322
147.5104980 29.6425838 237.1979370
146.7027740 30.1385231 237.2335663
151.6629486 21.1403809 236.4411011
151.7895966 21.9803638 236.4194031
151.8208466 22.7693138 236.4240417
151.7903290 23.5243416 236.4136047
150.0164337 28.2820549 236.4229736
149.5028381 28.8698502 236.4410553
148.9388733 29.4254646 236.4554138
148.3042603 29.9497509 236.4790649
147.6132355 30.4574642 236.4842529
146.7604980 30.9499893 236.5180969
145.7796783 31.3881168 236.5821228
152.2006683 20.5881596 235.7215729
152.3491974 21.4159908 235.7110291
152.4350128 22.2351093 235.6976776
149.5927277 29.6742516 235.7272949
148.9988556 30.2086849 235.7485809
148.3316650 30.7380066 235.7633514
147.5377960 31.2423515 235.7841187
146.6609192 31.6842861 235.8095245
145.6809540 32.0868149 235.8540497
152.5964050 19.9677773 235.0170898
152.7955933 20.8306732 234.9985046
152.9052429 21.6331787 234.9950562
152.9645996 22.4464588 234.9790497
150.1400452 29.8825264 235.0038452
149.5738068 30.4324455 235.0195007
148.9398346 30.9638062 235.0398560
148.1812286 31.4844837 235.0680847
147.3732758 31.9497871 235.0864258
146.4558563 32.3651123 235.1141663
145.3720093 32.7591133 235.1754303
153.1017761 20.1584187 234.2998047
153.2885742 21.0245686 234.2836609
153.3831329 21.8206215 234.2734680
153.4130402 22.6219349 234.2600555
147.9574738 32.1690636 234.3655701
147.0856781 32.6103592 234.3903809
146.0807953 33.0066223 234.4246521
153.3287964 19.4725456 233.5974579
153.5597534 20.3435326 233.5792847
153.7217255 21.1991291 233.5614166
153.7867584 21.9975090 233.5563507
153.7919922 22.7760639 233.5486755
148.4421844 32.3523674 233.6494446
147.6255798 32.8068123 233.6721802
146.6520844 33.2223511 233.6985474
145.5381470 33.6021042 233.7406158
153.7359314 19.6422920 232.8817291
153.9467926 20.5146923 232.8661194
154.0717010 21.3366871 232.8560486
147.1134033 33.3983879 232.9858246
146.0685730 33.7884178 233.0160828
153.8253326 18.8941956 232.1889038
154.0707703 19.7603397 232.1715393
154.2629395 20.6405163 232.1547089
154.3671875 21.4572163 232.1457977
147.4843903 33.5420570 232.2750702
146.4842377 33.9455070 232.3014374
145.2830658 34.3179588 232.3450317
143.9541473 34.6892624 232.4029541
154.1201324 19.0223236 231.4740448
154.3543549 19.8894234 231.4601898
145.6785126 34.4606247 231.6287384
144.5152283 34.8313828 231.6610718
154.3495331 19.1056423 230.7702332
154.5662384 19.9703693 230.7562714
146.0045776 34.5775299 230.9160004
144.9138489 34.9530373 230.9506073
154.2537842 18.3321228 230.0759583
154.5377197 19.1908855 230.0633087
154.7386169 20.0333729 230.0548401
154.9084167 20.9066010 230.0388641
155.0079803 21.7239647 230.0286407
148.2657013 33.8351288 230.1522522
147.3217621 34.2642059 230.1777191
146.2443237 34.6612320 230.2089539
145.2040558 35.0345421 230.2378540
154.3773804 18.3665924 229.3758698
154.6689606 19.2352295 229.3635559
154.8867188 20.1017971 229.3473053
155.0390778 20.9442101 229.3398285
155.1201019 21.7672539 229.3293304
148.4078369 33.8891907 229.4491272
147.4741516 34.3265114 229.4748230
153.8563232 17.4114704 228.7024689
154.4469757 18.4148140 228.6754150
148.5045319 33.9201736 228.7480621
154.4985199 18.4323921 227.9748688
148.5205231 33.9331779 228.0500793
147.5722961 34.3803749 228.0752716
154.4894562 18.4321842 227.2787933
148.4994965 33.9238930 227.3533630
147.5597382 34.3732758 227.3777008
154.4268646 18.4024353 226.5815430
148.4561310 33.9101639 226.6571655
154.3403931 18.3725853 225.8867493
148.3575745 33.8819351 225.9625244
154.1888885 18.3103809 225.1934662
148.2188263 33.8199501 225.2710266
147.2398987 34.2656021 225.2928925
146.1813507 34.6699142 225.3176727
145.1069794 35.0554008 225.3426666
153.9690094 18.2246742 224.4977875
154.2683868 19.0858727 224.4872284
154.5017242 19.9595871 224.4799957
154.6426086 20.8032722 224.4692841
154.7151489 21.6128063 224.4600067
149.5411377 32.7783356 224.5361023
148.8595428 33.2718620 224.5597382
147.9921265 33.7545929 224.5749512
147.0317230 34.1879349 224.6012268
145.9256287 34.5859451 224.6255493
144.7274780 34.9637375 224.6538239
154.0212708 18.9957218 223.7960510
154.2537689 19.8654346 223.7874603
154.4088745 20.7085304 223.7770386
154.4994965 21.5534954 223.7711487
149.3225708 32.6933517 223.8504639
148.6027069 33.1846123 223.8686981
147.7330627 33.6545525 223.8838348
146.7503052 34.0875282 223.9098816
145.6156158 34.4644394 223.9363403
153.7104797 18.8637295 223.1004486
153.9497528 19.7371101 223.0922546
154.1355133 20.6215878 223.0899811
154.2412262 21.4397049 223.0821381
153.6394348 26.6178970 223.0762787
153.3717194 27.2846394 223.0805359
152.3161469 29.1716499 223.0887604
151.8652191 29.7966633 223.1064301
150.2798767 31.5358677 223.1359863
149.6900635 32.0784302 223.1502991
147.4164124 33.5331268 223.1978149
146.3838501 33.9557152 223.2199860
153.6041565 19.6145897 222.4078979
153.7950439 20.4838581 222.3973389
153.9228363 21.3179646 222.3912964
153.3413391 26.5100822 222.3876648
153.0928802 27.1747665 222.3918304
152.0572510 29.0784321 222.4129791
151.5825958 29.6880512 222.4122009
149.9742889 31.4337883 222.4403687
149.3764648 31.9584045 222.4602203
147.0204163 33.3877029 222.5050201
145.9562683 33.8015709 222.5258942
153.1884155 19.4373455 221.7149506
153.4016113 20.3364983 221.7107391
153.5544281 21.1890755 221.7047729
153.5675354 23.4933834 221.6894684
153.4689789 24.2097950 221.6888428
150.7545776 30.1770840 221.7360687
150.2289124 30.7514801 221.7503204
149.6330872 31.3028431 221.7565308
148.9752350 31.8243275 221.7673645
148.2737427 32.3143959 221.7820282
147.5145111 32.7738914 221.7993317
146.5682831 33.2130890 221.8208008
152.7262115 19.2454700 221.0160217
152.9447479 20.1502304 221.0182190
153.1164246 21.0055618 221.0155792
153.1841431 23.3480148 221.0066376
153.1001434 24.0678921 221.0049133
150.3706970 30.0310707 221.0507660
149.8233643 30.5973110 221.0628510
149.2011261 31.1409054 221.0689545
148.5266724 31.6522217 221.0782928
147.8118286 32.1379356 221.0951080
146.9884796 32.5853691 221.1110840
146.0014954 33.0048256 221.1307678
152.4364014 19.9553547 220.3289642
152.6224518 20.8299103 220.3252869
152.7509613 23.1746635 220.3189087
152.7003937 23.9101620 220.3266296
152.5863495 24.6594868 220.3230438
152.4241943 25.3973293 220.3245239
150.9190674 28.6334248 220.3425293
150.4269257 29.2480297 220.3489227
149.8645935 29.8538990 220.3499298
149.3120880 30.4123726 220.3688354
148.6947479 30.9538727 220.3876495
147.9896088 31.4682140 220.3916473
147.2444000 31.9295635 220.4082489
146.3790283 32.3473930 220.4274597
151.8559418 19.7200050 219.6295319
152.0703583 20.6127930 219.6455078
152.2222443 22.9704838 219.6234589
152.1624146 23.6842575 219.6192474
152.0736389 24.4561863 219.6299438
151.9185638 25.2091713 219.6275177
150.4283600 28.4333267 219.6577759
149.9042053 29.0567627 219.6583557
149.3473816 29.6505108 219.6677551
148.7470551 30.2044468 219.6745453
148.0884094 30.7351913 219.6921082
147.3713379 31.2366447 219.7096558
146.5678558 31.6822357 219.7251129
145.6412811 32.0854645 219.7295227
151.4029388 20.3399372 218.9379578
151.5695343 21.1940136 218.9550476
151.6253357 21.9849529 218.9485321
151.6259155 22.7543163 218.9494019
151.5694733 23.4688416 218.9348755
150.5786591 27.0122051 218.9536591
150.2261963 27.6158390 218.9612885
149.8199463 28.2138233 218.9688263
149.3387756 28.8261299 218.9821930
148.7683105 29.4182549 218.9926605
148.1060486 29.9681702 218.9951019
147.4036865 30.4796581 219.0077972
146.6456146 30.9578247 219.0248566
150.8784943 21.6943512 218.2689667
150.8978577 22.4706249 218.2577362
150.8924255 23.2159176 218.2547302
149.8925781 26.7501297 218.2639313
149.5049744 27.3445587 218.2613831
149.1097565 27.9438725 218.2812195
148.5986481 28.5574398 218.2852631
148.0068970 29.1363735 218.2990112
147.3259430 29.6661568 218.3117065
146.5458069 30.1666698 218.3095856
150.0727692 22.1500130 217.5930939
150.0741425 22.8970737 217.5751495
150.0126190 23.6781082 217.5726624
149.8761292 24.4244366 217.5659790
149.1105042 26.4507370 217.5797729
148.7157135 27.0552578 217.5840454
148.2833862 27.6336899 217.5959473
147.7446747 28.2245140 217.6073761
147.1046600 28.7970543 217.6218719
149.0716705 22.4990368 216.8778992
149.0168762 23.2596340 216.8919678
148.9140778 24.0519466 216.8983307
148.1520691 26.0806541 216.9064026
147.7428589 26.6718445 216.9060364
147.2718353 27.2433720 216.9128571
146.6990356 27.8301468 216.9160614
147.7052917 22.7159042 216.1721802
147.6620178 23.5613098 216.2220459
147.4898987 24.2859974 216.2120361
147.2526703 24.9733868 216.2263031
146.9062805 25.5998497 216.2263031
146.4783020 26.1833630 216.2232208
145.9598389 26.7499218 216.2091675
146.9144897 24.2666874 188.7856750
146.5883026 24.9118862 188.7649994
145.6337891 26.1174965 188.8323822
148.5604095 23.3195553 188.1179047
148.4394531 24.0744839 188.1186523
148.2028198 24.7505474 188.1327515
147.8750153 25.3981915 188.1323547
147.4545746 26.0257301 188.1342163
146.9845428 26.6244068 188.1306152
146.4552612 27.1744347 188.1425171
145.8286438 27.7376518 188.1427765
149.7365723 22.2351036 187.4211426
149.6998596 22.9746208 187.4256439
149.5592346 23.6906796 187.4598389
149.4020996 24.4384270 187.4588470
149.1858978 25.1360817 187.4554443
148.8681488 25.7920246 187.4667511
148.4895477 26.4292107 187.4683990
148.0582428 27.0434914 187.4642944
147.5810089 27.6170692 187.4593201
146.9885712 28.1741676 187.4544525
146.2798615 28.6979160 187.4638672
150.5918274 21.7858315 186.7424774
150.6151123 22.5856266 186.7479095
150.5326233 23.2943153 186.7668304
148.4540405 27.9515247 186.8014984
147.9343414 28.5341053 186.7875061
147.2979889 29.0762730 186.7855682
151.1799164 20.4674892 186.0314789
151.3099518 21.2988148 186.0422058
151.3605804 22.0978680 186.0586090
151.3516541 22.8754578 186.0671539
151.2625885 23.5701504 186.0851440
149.2304688 28.2416439 186.1175385
148.7114258 28.8291702 186.1190948
148.0918884 29.3808556 186.1129608
147.3248444 29.8771858 186.1231537
146.6026459 30.3596268 186.0902863
145.7531128 30.8547478 186.0898132
151.6914368 19.8779316 185.3272552
151.8789215 20.7533817 185.3417969
148.7977142 29.6354237 185.4250641
148.1050568 30.1730690 185.4303894
147.4354248 30.6697140 185.4147186
146.5905304 31.1609936 185.4107819
145.7126160 31.6022949 185.4075317
152.3180847 20.1319714 184.6456299
152.4487152 20.9687080 184.6645508
149.3818207 29.8619995 184.7575073
148.7783203 30.4123802 184.7498627
148.0863495 30.9319057 184.7459869
147.3036957 31.4177132 184.7320404
146.4549561 31.8581028 184.7167206
145.4817657 32.2758179 184.7173615
152.6596527 19.4812145 183.9415283
152.8359833 20.3353729 183.9659424
152.9411621 21.1550598 183.9847412
149.8837433 30.0556583 184.0740356
149.3079071 30.6067924 184.0655212
148.6283722 31.1345444 184.0640869
147.8915558 31.6334038 184.0519562
147.0938263 32.0859146 184.0312500
146.1647491 32.5000916 184.0179138
152.8882446 18.7835617 183.2399597
153.1277466 19.6629543 183.2593994
153.2905731 20.5177135 183.2826691
153.3920135 21.3423080 183.2997742
150.2965240 30.2139416 183.3890991
149.7099304 30.7666149 183.3907471
149.0667267 31.3014050 183.3814392
148.3623657 31.8100700 183.3755646
147.5780487 32.2768974 183.3676605
146.7296600 32.7058716 183.3416443
145.6891174 33.1319923 183.3237915
153.3078461 18.9602432 182.5482025
153.5183716 19.8185902 182.5714874
153.6739960 20.6907558 182.5915985
153.7685394 21.4940910 182.6128540
151.6641083 29.1601448 182.7085114
151.1706696 29.7620525 182.7209778
150.6379089 30.3610554 182.7147827
150.0912781 30.9081841 182.7053070
149.4693909 31.4543362 182.7011871
148.8189697 31.9700413 182.6835632
148.0691223 32.4524269 182.6758575
147.2254639 32.9002075 182.6595764
146.2073364 33.3318214 182.6414948
153.6182251 19.0822163 181.8659515
153.8049011 19.9085407 181.8949585
153.9620209 20.7629929 181.9182281
154.0827789 21.6220226 181.9287109
151.9687042 29.2728653 182.0275116
151.5062714 29.8814354 182.0248108
151.0000916 30.4853497 182.0167236
150.4513245 31.0432072 182.0173950
149.8436584 31.5919552 182.0135956
149.1825714 32.1183472 182.0043640
148.4351196 32.6095428 181.9989319
147.6326294 33.0584412 181.9791870
146.6599731 33.4944725 181.9545288
145.5177307 33.9209023 181.9416351
153.9277649 19.1997318 181.1750641
154.1272278 20.0533867 181.2008972
154.2808075 20.9155426 181.2211151
154.3679504 21.7352085 181.2404327
148.7719116 32.7203026 181.3068390
147.9740601 33.1800995 181.2947388
147.0100708 33.6292305 181.2768860
145.9187927 34.0452652 181.2487335
144.7529144 34.4371643 181.2314606
154.2282257 19.3215828 180.4881897
154.4105835 20.1686230 180.5107727
154.5240021 21.0039997 180.5364990
154.5958252 21.8243675 180.5541992
149.0232086 32.8175392 180.6193390
148.2491760 33.2882957 180.6047821
147.3265839 33.7475128 180.5867157
146.2485809 34.1685066 180.5604401
145.1368103 34.5556450 180.5423889
154.1898041 18.5518246 179.7720032
154.4309082 19.4041328 179.7987823
154.5836182 20.2345028 179.8242798
147.5651855 33.8399696 179.8972321
146.4835358 34.2682495 179.8733215
145.4548187 34.6513557 179.8557587
154.0343475 17.7280273 179.0512543
154.3492279 18.6204281 179.0818329
154.5668945 19.4601841 179.1091156
154.7218628 20.2967014 179.1331787
147.7199402 33.9159698 179.2091217
146.6830597 34.3443832 179.1827698
145.7188110 34.7278709 179.1646576
154.1486664 17.7767010 178.3579407
154.4683380 18.6747360 178.3886871
147.8626709 33.9719810 178.5149841
146.8304443 34.4052010 178.4911499
145.8762665 34.7894135 178.4709473
154.2214355 17.8020115 177.6620941
154.5518341 18.7150536 177.6939697
147.9569702 34.0035324 177.8221741
146.9027863 34.4495163 177.7969818
154.2473602 17.8148155 176.9646606
154.5728149 18.7177486 176.9969940
147.9964294 34.0088005 177.1272736
146.9389038 34.4656754 177.0989838
154.2213135 17.8020477 176.2646790
154.5468445 18.7105045 176.2984161
147.9441833 34.0094109 176.4259186
146.9439545 34.4494400 176.4011993
154.1531372 17.7824364 175.5628967
154.4678802 18.6760864 175.5967560
154.6994324 19.5129795 175.6239319
154.8686371 20.3554611 175.6511841
154.9474792 24.2752991 175.7487183
154.8338928 24.9984322 175.7628174
154.6677246 25.7126923 175.7760162
154.4519196 26.4207726 175.7832184
149.5416107 33.0181770 175.7628632
148.7839050 33.4965439 175.7469177
147.8962860 33.9729614 175.7276917
146.8489990 34.4205132 175.6992188
154.0083618 17.7173538 174.8551025
154.3407440 18.6298943 174.8919373
154.5795288 19.4727669 174.9219360
154.7579651 20.3121109 174.9480896
154.8632050 24.2525940 175.0506744
154.7324982 24.9485550 175.0618744
154.5505676 25.6580811 175.0733948
154.3456573 26.3840275 175.0841675
149.4197693 32.9767456 175.0608673
148.6838531 33.4532967 175.0466461
147.7653046 33.9321442 175.0235291
146.7161407 34.3671265 174.9960022
154.4174652 19.4058571 174.2148590
154.6164398 20.2618217 174.2462006
154.7173157 24.1912766 174.3478088
154.5718079 24.8883705 174.3568115
154.3960266 25.6030960 174.3678284
154.2172394 26.3277435 174.3773499
151.7143860 30.7789421 174.3988953
151.1401978 31.3509026 174.3870087
150.5399170 31.8875675 174.3724976
149.9250641 32.4102631 174.3681641
149.2709351 32.9152298 174.3577881
148.5096283 33.3995781 174.3405304
147.5909424 33.8661423 174.3167572
146.5031281 34.2944374 174.2863617
145.3278198 34.6801910 174.2450714
154.2025146 19.3223190 173.5088806
154.4125977 20.1849594 173.5393066
154.5282288 24.1249027 173.6428223
154.3900909 24.8147125 173.6529694
154.2394714 25.5392551 173.6670380
154.0742950 26.2845230 173.6827850
151.5300598 30.7126026 173.6937256
150.9561310 31.2731190 173.6859894
150.3467865 31.8243790 173.6716156
149.7441559 32.3478165 173.6638489
149.0534058 32.8445206 173.6479187
148.2959747 33.3103256 173.6341400
147.3509827 33.7814217 173.6089935
146.2551575 34.1896172 173.5784149
153.6685181 18.3708115 172.7592010
153.9332428 19.2147312 172.7949219
154.1468811 20.0635548 172.8239899
154.3176727 24.0388298 172.9344482
154.1971741 24.7374153 172.9445648
154.0632629 25.4705849 172.9637909
153.8760529 26.2143822 172.9781189
153.0537872 28.2007465 172.9966736
152.6896667 28.8056755 172.9958954
150.1475067 31.7445297 172.9736786
149.5010834 32.2638130 172.9613495
148.7734680 32.7388191 172.9297180
148.0144043 33.2053337 172.9199371
147.0393524 33.6691475 172.8923645
153.6321259 19.1073875 172.0853119
153.8416748 19.9482517 172.1167603
154.0606689 23.9320354 172.2305298
153.9641724 24.6514931 172.2466278
153.8047791 25.3717594 172.2604523
153.5812531 26.0997086 172.2564545
152.7738342 28.1116619 172.2848358
152.4007568 28.6925621 172.2737274
149.8465576 31.6421509 172.2505188
149.1811981 32.1486206 172.2426910
148.4697571 32.6197052 172.2275543
147.6821747 33.0846138 172.2086639
146.6795502 33.5180321 172.1791687
153.4636841 19.8090839 171.3931885
153.6508942 20.6880760 171.4295654
153.7347107 21.5219193 171.4460144
153.7431183 22.3085461 171.4560242
153.7451782 23.0679741 171.4846649
153.0585175 26.6817322 171.5599213
152.8106079 27.3628674 171.5761566
152.4548798 27.9942589 171.5653076
152.0942078 28.5911465 171.5646820
151.7239075 29.2034893 171.5776672
151.2470551 29.8170338 171.5693817
149.5019226 31.5151653 171.5483093
148.8008118 32.0150452 171.5239563
148.0605469 32.4901543 171.5042877
147.2469940 32.9346962 171.4852905
146.2111511 33.3409576 171.4530182
153.0331726 19.6168118 170.6583252
153.2293091 20.5131702 170.7083740
153.3446503 21.3787079 170.7471619
153.3751678 22.1812859 170.7600403
153.3743286 22.9282684 170.7700500
152.7156219 26.5622501 170.8502502
152.4584503 27.2248783 170.8599701
152.1251526 27.8670063 170.8578796
151.7739563 28.4736176 170.8573608
151.3705597 29.0718002 170.8606873
150.8754730 29.6676140 170.8564606
149.0779572 31.3626423 170.8201294
148.3533783 31.8575439 170.7986908
147.6086884 32.3195496 170.7808533
146.7416840 32.7490044 170.7581787
152.7502747 20.3245144 169.9718170
152.8700409 21.1880932 170.0161438
152.9426880 21.9918556 170.0371399
152.9777985 22.7803802 170.0646210
152.7301941 24.9590988 170.1167755
152.5308838 25.7060261 170.1135864
151.7341461 27.7170963 170.1493683
151.3548737 28.3224640 170.1418610
149.8699188 30.1005726 170.1224213
149.2934875 30.6656265 170.1223755
148.5902863 31.1889496 170.0967865
147.8674469 31.6702614 170.0826569
147.0752716 32.1160393 170.0611572
152.3252106 20.9775944 169.2776794
152.4332123 21.8043785 169.3133392
152.4851685 22.5912304 169.3310242
152.2731628 24.7828236 169.3844757
152.0959320 25.5353546 169.4053345
151.2284241 27.5364590 169.4098206
150.8440552 28.1301861 169.4114685
149.3607788 29.9063148 169.4001770
148.7289124 30.4648533 169.3889618
147.9971313 30.9766808 169.3611908
147.2358246 31.4370422 169.3454285
151.8184052 21.5622330 168.5761871
151.8835449 22.3613262 168.6070862
151.8845367 23.1118984 168.6256561
151.8297729 23.8203144 168.6316223
149.8351135 28.4913044 168.6780090
149.3243256 29.1001110 168.6760559
148.7426758 29.6768456 168.6677246
148.0604401 30.2195892 168.6505585
147.2998810 30.7167931 168.6259613
146.4636993 31.1485577 168.5949707
151.1878967 22.8347130 167.8813477
151.1786346 23.5763073 167.9088135
149.2018738 28.2347202 167.9465485
148.6542358 28.8356800 167.9453125
147.9566040 29.3972054 167.9021454
147.2786865 29.9195404 167.9010773
150.3546143 23.2562561 167.1664886
150.2712402 23.9967899 167.1787262
150.1258698 24.7663002 167.1984253
149.8738556 25.4761353 167.1958008
149.5694427 26.1419525 167.1937714
149.2439880 26.7745705 167.2024536
148.8410645 27.3684978 167.1977234
148.3902130 27.9381485 167.2013702
147.7975159 28.5037193 167.1898499
147.0944824 29.0608902 167.1739960
149.3408661 22.8412189 166.3648071
149.3023224 23.6153946 166.4157410
149.1524200 24.3911591 166.4437714
148.9125519 25.1033936 166.4519806
148.6243896 25.7811413 166.4498444
148.2944794 26.4169979 166.4586334
147.8735199 26.9836006 166.4506989
147.3440094 27.5322113 166.4445648
146.6848755 28.0760689 166.4268341
148.0579071 22.5764713 137.5379181
147.9126740 23.3204746 137.5475311
147.6991882 24.0282059 137.5558014
147.4254913 24.7142944 137.5715027
147.0953522 25.3475266 137.5741272
146.6684265 25.9714661 137.5593109
146.1645660 26.5509586 137.5508728
145.5646667 27.1036530 137.5467987
144.8564453 27.6216774 137.5281067
149.1773529 22.2565365 136.9039612
149.0969849 22.9845467 136.9385223
148.9486389 23.7091465 136.9567261
148.7264252 24.3955078 136.9794159
148.4807129 25.1047001 136.9816132
148.1401825 25.7529488 136.9880524
147.7201538 26.3678360 136.9867706
147.2733612 26.9611359 136.9661560
146.7291260 27.5218105 136.9463959
146.0970001 28.0673637 136.9088593
145.3548126 28.5765228 136.8774414
150.0494995 21.0475159 136.2267761
150.0667419 21.8113422 136.2686005
150.0458832 22.5848255 136.3064117
149.9751892 23.3223896 136.3273163
147.6791534 27.8829498 136.3511047
147.0941467 28.4459114 136.3192444
146.4067230 28.9740925 136.2840424
145.6204681 29.4708900 136.2509308
150.5954285 19.6952610 135.5148468
150.7441254 20.5368366 135.5632324
150.8168030 21.3348999 135.6116028
150.8359070 22.1143970 135.6540527
150.8156433 22.8916054 135.6835480
150.7229462 23.6125317 135.7084656
148.4890137 28.1791096 135.7285309
147.9220428 28.7527199 135.7148590
147.2988281 29.3034058 135.6731262
146.5473480 29.8141651 135.6320190
145.6213837 30.2799301 135.5767670
144.6206818 30.6964931 135.5324097
151.3267212 19.9733562 134.8932343
151.4680939 20.8212414 134.9383545
151.5261383 21.6039162 134.9801331
151.5373077 22.3972168 135.0148773
147.9752502 29.5762005 135.0575562
147.2944794 30.1060543 135.0188141
146.5149841 30.6011391 134.9687958
145.6379852 31.0453224 134.9127808
144.6743164 31.4487610 134.8685455
151.8149872 19.3968716 134.2003326
152.0042114 20.2550240 134.2573395
152.0850220 21.0483131 134.3115234
152.1119232 21.8236732 134.3516846
152.1006317 22.6145706 134.3864746
148.5587769 29.8064384 134.4346008
147.9423523 30.3421173 134.3932648
147.2408142 30.8706303 134.3540802
146.4436493 31.3372250 134.2975464
145.5269318 31.7395897 134.2404633
144.4963379 32.1293030 134.1927185
152.4025726 19.6137981 133.5656433
152.6383362 22.0428009 133.7091827
152.6142883 22.8180237 133.7469482
150.2411499 28.8606243 133.8273010
149.7282257 29.4388847 133.8064728
147.8305359 31.1034775 133.7191620
147.0846863 31.5838604 133.6743622
146.2658691 32.0055122 133.6158600
145.2969055 32.3995781 133.5518341
152.6836548 18.9413815 132.8579254
152.9035950 19.8001842 132.9237823
153.1128693 22.2369747 133.0558929
153.0688934 23.0008469 133.0941162
150.7026520 29.0203133 133.1705017
150.1966095 29.6118393 133.1636353
148.3404388 31.2944756 133.0801086
147.6263733 31.7843723 133.0398254
146.8576965 32.2273102 132.9878540
145.9483185 32.6306686 132.9192657
153.1437073 19.1276436 132.2087555
153.3497772 19.9895668 132.2708588
148.8037109 31.4651489 132.4331665
148.1024170 31.9674759 132.3892212
147.3583069 32.4206848 132.3450775
146.5008392 32.8379288 132.2835999
145.4082184 33.2657928 132.2097168
153.5323639 19.2808228 131.5551605
153.7155762 20.1293030 131.6150513
149.2121582 31.6163979 131.7743988
148.5226288 32.1186676 131.7386932
147.7973175 32.5822525 131.6936188
146.9618378 33.0171165 131.6380615
145.8954315 33.4407158 131.5592041
153.8583679 19.3919659 130.8942108
154.0301208 20.2418232 130.9524536
153.1932373 26.9182625 131.2154541
152.8704376 27.5535870 131.2119751
152.5186920 28.1970139 131.2081757
152.1497345 28.8270855 131.2094727
148.1584625 32.7190933 131.0378113
147.3602295 33.1617889 130.9834595
146.3270264 33.6004868 130.9087830
145.0247192 34.0270157 130.8159790
153.6356506 17.7759399 130.0929108
153.9292145 18.6771145 130.1639099
154.1475372 19.5145531 130.2280884
154.3091888 20.3559570 130.2845764
153.4150696 27.0228119 130.5467529
153.0779572 27.6564732 130.5533600
152.7417450 28.2864704 130.5512238
152.3959808 28.9193077 130.5420685
148.4496613 32.8358955 130.3748474
147.6891174 33.2808075 130.3240967
146.6934509 33.7331276 130.2505646
145.4188995 34.1724663 130.1576843
153.8977051 17.8982830 129.4230804
154.1863556 18.7907124 129.4970703
154.1848755 25.7501736 129.8544006
153.9464417 26.4358349 129.8668365
153.6543121 27.1035843 129.8697968
153.3238678 27.7518158 129.8700867
152.9724426 28.3898239 129.8769379
152.6143951 28.9981174 129.8783569
146.9766541 33.8505211 129.5865021
145.7581024 34.2835884 129.4929504
154.1228180 17.9899464 128.7498627
154.3997650 18.8612537 128.8216858
154.3622284 25.8096199 129.1801453
154.1358337 26.5137939 129.1930847
153.8617096 27.1715164 129.2029572
153.5404358 27.8288307 129.2053833
153.1892242 28.4718266 129.2031860
152.8164825 29.0776329 129.2003479
147.2021637 33.9447479 128.9163055
146.0128479 34.3793030 128.8227692
153.9350433 17.1171150 127.9898987
154.2936554 18.0718555 128.0723114
154.5586548 18.9263954 128.1431274
154.9571686 22.9677696 128.3925934
154.8781738 23.7124310 128.4258881
154.8007050 24.4520092 128.4548492
154.6753845 25.1539841 128.4808807
154.4919891 25.8580990 128.4999695
154.2729645 26.5743790 128.5145569
154.0088348 27.2381248 128.5250702
153.7021332 27.8905964 128.5288849
153.3584900 28.5350704 128.5295410
152.9816132 29.1470947 128.5251160
152.5723877 29.7259674 128.5144806
152.1060944 30.3297081 128.5033417
151.5935059 30.9415417 128.4841766
151.0418396 31.5196152 128.4612427
147.3992615 34.0110512 128.2392578
154.3973541 18.1035862 127.3862762
154.6602936 18.9574127 127.4570847
155.0414886 23.0139351 127.7080383
154.9701385 23.7647228 127.7404556
154.8932495 24.4934845 127.7712708
154.7387695 25.1865559 127.7921219
154.5537872 25.8872070 127.8113708
154.3532257 26.6013603 127.8306961
154.1130066 27.2764320 127.8421478
153.8177490 27.9380913 127.8487930
152.2002106 30.3752079 127.8194885
151.6936646 30.9825764 127.8017273
151.1656036 31.5686264 127.7806778
147.5164490 34.0645866 127.5562515
154.4684601 18.1453648 126.6974792
154.7292938 18.9951820 126.7679596
155.1352844 21.4940853 126.9408798
155.1348267 22.2827110 126.9822540
155.0909882 23.0426636 127.0186157
155.0457153 23.7961769 127.0540314
154.9568787 24.5181103 127.0839920
154.7898712 25.2011547 127.1033859
154.6066895 25.9099579 127.1230316
154.4166565 26.6192284 127.1419983
154.1831055 27.3102741 127.1556168
152.2656097 30.3959980 127.1310425
149.2943878 33.1412544 126.9846039
148.5596008 33.6074257 126.9370499
147.6068420 34.0922470 126.8694305
154.4817657 18.1386452 125.9999695
154.7498322 19.0035286 126.0726776
155.1565247 21.4956188 126.2462769
155.1698914 22.2907352 126.2899628
155.1515503 23.0548706 126.3286209
155.1031494 23.8086548 126.3653870
154.9936371 24.5316429 126.3935852
154.8363800 25.2128811 126.4132004
154.6638947 25.9203625 126.4343338
154.4633179 26.6511497 126.4544678
154.2226410 27.3279629 126.4651871
152.3143158 30.4175873 126.4421768
149.3441925 33.1553612 126.2936478
148.5976868 33.6236343 126.2455750
154.4489288 18.1300163 125.2991486
154.7306976 19.0078945 125.3746109
155.1539001 21.4991493 125.5519028
155.1789551 22.3094845 125.5997696
155.1483002 23.0650005 125.6380005
155.0894318 23.8037910 125.6685486
154.6779633 25.9300156 125.7427597
154.4555511 26.6471539 125.7587585
149.3287201 33.1542320 125.5954666
148.5671387 33.6143074 125.5433121
154.3590851 18.0934544 124.5895309
154.6544342 18.9731026 124.6665192
155.0880737 21.4649105 124.8450470
155.0876770 22.2708473 124.8823700
155.0525818 23.0263424 124.9192581
155.0187225 23.7842121 124.9707489
154.6347961 25.9063396 125.0388260
154.4005280 26.6261234 125.0568390
154.1460724 27.3179245 125.0706940
153.8629303 27.9651299 125.0776367
153.5084839 28.5969524 125.0726242
153.1441040 29.2118912 125.0707779
149.2733612 33.1341133 124.8920135
148.5061798 33.5902634 124.8420715
147.5167236 34.0646133 124.7683868
146.3173218 34.5055809 124.6711121
154.2323914 18.0512619 123.8769302
154.5309296 18.9418640 123.9593124
154.7514343 19.7658176 124.0244064
154.8994446 20.5935593 124.0844879
154.9809418 21.4229145 124.1378250
154.9760284 22.2294655 124.1800995
154.8338928 24.4617367 124.2924423
154.7349243 25.1756535 124.3203125
153.4434814 28.5750542 124.3690567
153.0961914 29.1951656 124.3732452
147.3931427 34.0205994 124.0550995
146.1231537 34.4543686 123.9476318
154.5799866 19.6945324 123.3020401
154.7417603 20.5206451 123.3621216
154.8424835 21.3759747 123.4260635
154.8591614 22.1801434 123.4713745
154.7027130 24.4165459 123.5700607
154.6191406 25.1256828 123.6099930
153.3260498 28.5394230 123.6581116
152.9780273 29.1526146 123.6609802
147.1989746 33.9487686 123.3314133
145.8706207 34.3679199 123.2150040
154.3760223 19.6314106 122.5872421
154.5429993 20.4517632 122.6434097
154.6595001 21.3045349 122.7010803
154.7138062 22.1174469 122.7546844
154.7056274 22.9029694 122.8019791
154.6455078 23.6555576 122.8332596
154.5672607 24.3719959 122.8596878
154.4599304 25.0577164 122.8895645
150.1978302 32.0186272 122.8363266
149.5232697 32.5168457 122.7957687
148.7848969 32.9740028 122.7384109
147.9966125 33.4064827 122.6876068
146.9603882 33.8466072 122.6080475
145.5464020 34.2594376 122.4761734
154.0968170 19.5048199 121.8474274
154.2895660 20.3498726 121.9175720
154.4349060 21.2196903 121.9808578
154.5073853 22.0377197 122.0301056
154.5224457 22.8364468 122.0841293
154.4707642 23.5770073 122.1166458
154.3822327 24.2884045 122.1441498
154.2593231 24.9894886 122.1699295
149.9586029 31.9302292 122.1111526
149.2582092 32.4200249 122.0650024
148.5337219 32.8609543 122.0152664
147.6727753 33.3035355 121.9424515
153.7791290 19.3683033 121.1039658
153.9853821 20.2274761 121.1783752
154.1482086 21.1071091 121.2435837
154.2314148 21.9360256 121.2979355
150.9007568 30.7259445 121.4414597
150.3137512 31.2890606 121.4219589
149.6263885 31.8193436 121.3714218
148.9159241 32.2979546 121.3206711
148.1810913 32.7384377 121.2729340
147.3109436 33.1642075 121.2032623
153.6274567 20.0894318 120.4396057
153.8068085 20.9833527 120.5139008
153.8990173 21.8020210 120.5570831
150.5816193 30.6002254 120.7094498
149.9311829 31.1580276 120.6659546
149.2335052 31.6807804 120.6220779
148.5198669 32.1525345 120.5746307
147.7491302 32.5822487 120.5170059
153.1893616 19.9037266 119.6690369
153.3713074 20.7978172 119.7487869
153.5026550 21.6567307 119.8173447
153.5669250 22.4723072 119.8713531
153.5416107 23.2243824 119.9038773
150.1692505 30.4508801 119.9569092
149.5152435 30.9978104 119.9170074
148.8235931 31.5133781 119.8841476
148.0460510 31.9819202 119.8206406
153.0350342 21.4767437 119.0558777
153.1045990 22.2873306 119.1128693
153.1058350 23.0591679 119.1549454
149.7093811 30.2584400 119.2012634
149.0087280 30.8167553 119.1522141
148.2578125 31.3246574 119.1066208
152.4803009 21.2477341 118.2644806
152.5540314 22.0812607 118.3407059
152.5810547 22.8643875 118.3926773
152.5363922 23.5774651 118.4294815
152.4121094 24.2493935 118.4423370
151.7907715 26.4457283 118.5050049
151.4791260 27.1112576 118.5126724
150.3163910 28.8881969 118.4861298
149.7599182 29.4635601 118.4566193
149.1184387 30.0456676 118.4247971
148.4036102 30.5907040 118.3822174
151.9133301 21.8258915 117.5435486
151.9454498 22.6150475 117.6068649
151.9183350 23.3310356 117.6456299
151.8226318 24.0212669 117.6692047
151.2348785 26.2253265 117.7413712
150.8791351 26.8985806 117.7291946
149.6791382 28.6397171 117.7086105
149.1079559 29.2060127 117.6814194
148.4481201 29.7765789 117.6405029
151.1724548 23.0457077 116.8628540
151.1143494 23.7551937 116.8885193
151.0005798 24.5000324 116.9203262
150.8003998 25.2494240 116.9322891
150.5405579 25.9727249 116.9564667
150.1832733 26.6323547 116.9567261
149.7975922 27.2307701 116.9448318
149.3715210 27.7874813 116.9240417
148.8875732 28.3319187 116.9129562
148.2805481 28.8909836 116.8646851
150.2281494 23.4195957 116.0572968
150.1093903 24.1575394 116.0948715
149.9209747 24.9150066 116.1243362
149.6406097 25.6190739 116.1338196
149.2294922 26.2686348 116.0977402
148.8857880 26.8916378 116.1271515
148.3911896 27.4336605 116.0757980
148.8179932 24.4838028 115.2377701
145.3702240 21.7532921 87.2427597
145.1882324 22.4671116 87.2600555
144.9584045 23.1783333 87.2678299
144.6317139 23.8326855 87.2716217
144.2384186 24.4547176 87.2686310
143.7045898 25.0471725 87.2603226
143.0884399 25.6020107 87.2232895
146.7267303 21.4958553 86.7054214
146.6387787 22.2419014 86.7414703
146.4407806 22.9517727 86.7778091
146.1936188 23.6561222 86.7832413
145.0084534 25.5268669 86.7506180
144.4522247 26.0958366 86.7094574
143.8131561 26.6296291 86.6693726
147.7988586 20.3593311 86.0585709
147.8193054 21.1372051 86.1323395
147.7517853 21.8914509 86.1877441
147.6261139 22.6179676 86.2291794
147.4276886 23.3352528 86.2598572
147.1604156 24.0241222 86.2691650
146.0390472 25.9181366 86.2512817
145.5366669 26.5045223 86.2143021
144.9520264 27.0565815 86.1616440
144.2380829 27.5976467 86.1002655
148.6186523 19.9078178 85.4688263
148.6708832 20.6907673 85.5376511
148.6703033 21.4637966 85.5956650
148.5909729 22.2096272 85.6522827
148.4908600 22.9496136 85.6768341
145.9199219 27.4237213 85.6359558
149.3585968 19.4104309 84.8203049
149.4174652 20.2124882 84.9119720
149.4626007 21.0104733 84.9748459
149.4563751 21.7818184 85.0296021
149.3855133 22.5293007 85.0741959
149.2291107 23.2475147 85.1133575
146.7298737 27.7335949 85.0877533
146.1332245 28.2967739 85.0261536
145.4193268 28.8321190 84.9651031
144.6573181 29.3112087 84.8867111
143.8005066 29.7571812 84.7908401
149.9268799 18.8260059 84.1787872
150.0741730 19.6788921 84.2681122
150.1465302 20.4979515 84.3405151
150.1630096 21.2713413 84.3999405
150.1208649 22.0293045 84.4547272
149.1397400 25.5453110 84.5787811
148.7895050 26.1906586 84.5737915
148.3854675 26.8160076 84.5665207
147.9447479 27.4228134 84.5411911
147.4390717 28.0038090 84.5129242
146.8717651 28.5758343 84.4664536
146.2127380 29.1215153 84.4126740
145.5124512 29.6301975 84.3400879
144.7098389 30.0988445 84.2530899
143.7921448 30.5182438 84.1428299
142.7139587 30.9059734 84.0402832
150.3956146 18.2143192 83.4970093
150.6043091 19.0974045 83.5929642
150.7383881 19.9606247 83.6757431
150.7719727 20.7445374 83.7505417
150.7564087 21.5038738 83.8103714
150.6831665 22.2548141 83.8702164
149.6994324 25.7676678 83.9827957
149.3516846 26.3949528 83.9658890
148.9520111 27.0293694 83.9650040
148.5433502 27.6450844 83.9459534
148.0534821 28.2376690 83.9275360
147.5083771 28.8214684 83.8844604
146.8661804 29.3819504 83.8398743
146.1987000 29.8942375 83.7737885
145.4408264 30.3779106 83.6967850
144.6003113 30.8225517 83.5904312
143.5975189 31.2220440 83.4825897
150.9954987 18.4469948 82.9035721
151.1762390 19.3180866 82.9972458
150.7442017 24.6130085 83.3503876
150.5071716 25.3144493 83.3624496
150.1496887 25.9580765 83.3816452
149.7830963 26.5778294 83.3719177
149.4477997 27.2162876 83.3564682
149.0669861 27.8493748 83.3482132
147.4663544 29.6047993 83.2394638
146.8160095 30.1282463 83.1801147
146.0891266 30.6235905 83.1120529
145.2783051 31.0785923 83.0209045
144.3507843 31.4902611 82.9066772
143.1770325 31.9022179 82.7803421
151.5088959 18.6530190 82.3006134
151.6761017 19.5173931 82.3919678
151.2085571 24.7917404 82.7381821
150.9548187 25.4844723 82.7519989
150.6145630 26.1324158 82.7460861
150.2564697 26.7551250 82.7650375
149.9447479 27.3991451 82.7514725
149.5642548 28.0314903 82.7391510
147.9451904 29.7938976 82.6387482
147.3368530 30.3291988 82.5765305
146.6548920 30.8348389 82.5138550
145.8904724 31.3019257 82.4331741
145.0093079 31.7320957 82.3284302
151.9808350 18.8366470 81.6880951
152.1220856 19.6913376 81.7763977
145.5378265 31.9498959 81.7300644
