150.5589447 28.2275352 337.2871094
150.7608795 28.5392227 336.8687439
150.5450592 28.9663830 336.8392029
150.6994171 29.2500839 336.4266052
151.7501526 27.8746033 336.1749573
151.5258942 28.3084164 336.1128845
150.8389587 29.5180340 336.0162964
151.6652374 28.5733948 335.6995239
152.0080719 28.4089565 335.3144531
151.7860870 28.8303604 335.2593384
152.3286438 28.1860085 334.9572144
152.4197083 28.3929729 334.5339050
150.8152924 31.1702728 333.8966980
152.9775391 27.9086494 333.8078613
150.8937988 31.2496643 333.5301514
150.9366760 31.3840599 333.1276855
150.9899902 31.4919853 332.7250671
151.0323334 31.5763569 332.3417969
153.6157837 27.5672951 332.3160706
151.0595703 31.6570320 331.9486389
153.6597748 27.6666584 331.9188538
151.0945740 31.7074966 331.5682678
153.7067719 27.7177658 331.5339661
151.1176758 31.7572117 331.1857605
151.1275330 31.8076534 330.8038025
151.1411285 31.8397865 330.4324036
151.1249847 31.8664951 328.5626526
150.8514404 32.1554298 328.5441284
151.0832977 31.8247757 328.2019653
151.0594940 31.7548809 327.8406982
151.0496674 31.6865597 327.4772644
154.0708923 26.7885303 327.5178833
151.0202179 31.6614895 327.1111145
154.0299835 26.7108612 327.1561890
150.9832611 31.6414108 326.7380981
150.7151337 31.9476109 326.7242432
153.9804382 26.6309948 326.7961731
153.9426727 26.5049057 326.4385681
150.7335510 31.1633244 324.9656982
150.4557190 31.4422436 324.9487305
153.6309052 25.9490662 325.0363464
153.5413513 25.7755375 324.6829529
153.1717682 25.9392853 323.9447021
152.9782867 26.4580879 323.9078369
152.8719788 26.2512894 323.5596619
152.7626190 26.0207062 323.2157898
150.7893677 29.6133118 322.9182434
150.6767578 29.3930302 322.5779419
152.5118256 25.5384197 322.5442505
150.5476074 29.1686440 322.2498474
151.8244476 25.9232254 321.8198547
151.6680756 25.5845413 321.4752197
150.4485016 27.3486271 321.0047607
150.2871704 27.0166626 320.6869507
150.7606049 25.4153614 320.4446106
150.5463715 25.8710499 320.4247437
150.3370361 26.2633400 320.3935547
151.0157928 27.3978424 286.9225159
150.7926178 27.8585625 286.8800049
150.5735016 28.2515793 286.8768005
151.3817291 27.3476009 286.5075989
150.7281647 28.5871181 286.4487915
150.8746338 28.8955441 286.0303650
150.6399231 29.2723942 286.0295715
151.7126007 27.8826885 285.7170105
152.0511627 27.7774944 285.3237915
151.8504486 28.1768684 285.2865906
152.3672943 27.6429977 284.9447632
150.7301025 30.2795105 284.8322754
152.4899902 27.8476677 284.5521851
150.8213043 30.4718380 284.4402161
150.9059448 30.6808796 284.0194702
153.0957947 27.3957329 283.8220520
151.0012665 30.8192348 283.6362915
151.0742188 30.9599495 283.2391357
153.2635040 27.7546215 283.0310669
151.1277466 31.0932484 282.8479919
150.8616943 31.3952389 282.8475647
153.3368073 27.9098473 282.6305847
153.5953217 27.6198463 282.2648315
153.3947754 28.0606403 282.2349854
154.0894928 26.8968620 281.5584106
153.9022217 27.3514748 281.5273743
154.1325684 26.9974308 281.1729431
153.9423370 27.4530239 281.1405945
153.9761200 27.5355721 280.7612305
154.0008850 27.5930843 280.3808899
154.3993378 26.6684628 280.0657959
154.2202759 27.1391449 280.0358276
154.0298004 27.6224289 280.0043335
154.4096375 26.7402916 279.6816101
154.4176788 26.8011475 279.3021851
154.4354401 26.7926998 278.9295044
154.4317780 26.7889996 278.5558167
154.4266815 26.7515488 278.1849976
154.4033661 26.7323380 277.8129272
154.3801117 26.6888809 277.4433899
154.3462830 26.6500587 277.0740967
154.3190918 26.5781612 276.7057495
153.9452667 26.6342850 275.2155762
153.7434540 27.1156712 275.1976013
153.6729584 26.9909554 274.8351440
153.5988159 26.8553486 274.4754028
151.0175781 30.9890156 274.2982788
150.7456360 31.2882614 274.2873840
153.5246735 26.7044487 274.1147766
152.8392181 27.0416050 273.0018005
151.2441254 29.7165718 272.8923035
150.9863586 30.0640526 272.8727417
152.9440002 26.3709278 272.6536865
152.7271423 26.8390617 272.6494141
151.1537933 29.4993267 272.5206604
152.6078949 26.6106491 272.2900391
151.0446014 29.3092308 272.1714172
152.4821625 26.3735256 271.9273071
150.9139862 29.1168442 271.8264771
152.1541595 26.5399418 271.5554504
151.9335938 26.9850025 271.5571289
151.8106995 26.6864357 271.1931458
150.9772186 27.5681229 270.8302917
150.7438660 27.9367294 270.8027954
151.4801788 26.0290661 270.4790649
150.8125458 27.2212524 270.4758606
151.0864258 26.0744858 270.1294250
150.8614349 26.4934921 270.1396790
150.6360931 26.8725910 270.1259766
150.6752777 26.1229477 269.7765503
150.5517578 27.2738228 236.4770508
150.9346466 27.2151947 236.0569458
150.7191162 27.6310444 236.0498657
151.6574554 27.0274467 235.2914886
150.6708832 29.2710781 234.8807831
152.3624573 26.7462940 234.5502472
150.7876434 29.5022068 234.4946136
150.8946228 29.7154617 234.1170959
152.6198273 27.2403698 233.7739105
151.0031891 29.8987713 233.7434998
150.7382965 30.2488575 233.7371521
153.2188110 26.7538147 233.0322418
153.3100739 26.9607124 232.6392822
153.5880432 26.6695271 232.2729492
153.3975220 27.1279964 232.2578430
150.8515472 31.3073921 231.8484955
150.8936005 31.4235859 231.4523621
153.9804535 26.6713676 231.1403046
150.9507751 31.5036068 231.0881958
154.0485229 26.7577248 230.7659302
150.9987793 31.5890160 230.7159882
154.0914154 26.8638706 230.3859558
151.0433197 31.6709080 230.3382568
154.3183441 26.4544811 230.0213165
154.1252899 26.9622898 230.0072327
151.0729828 31.7547989 229.9584808
151.1159058 31.8033161 229.5921631
151.1336060 31.8665657 229.2091064
154.2257538 27.1530285 228.8801727
151.1640015 31.8956623 228.8355713
154.2565613 27.1853485 228.5070801
151.1710510 31.9214249 228.4618073
154.2695618 27.2173271 228.1318359
151.1567535 31.9356728 228.0906372
150.8978729 32.2088890 228.0885315
154.2718658 27.2295837 227.7591095
151.1571198 31.9222507 227.7185059
154.2752228 27.2102470 227.3857574
151.1619415 31.9038277 227.3473663
154.2594452 27.1846981 227.0143433
151.1467590 31.9012890 226.9732971
154.2357025 27.1199551 226.6420135
151.1391602 31.8746128 226.5997467
154.1938782 27.0832024 226.2723083
151.1195374 31.8353825 226.2286224
151.0888672 31.7854328 225.8579559
151.0471039 31.7238464 225.4870605
150.9890747 31.6559505 225.1227722
150.9322052 31.5595741 224.7507324
154.3582764 25.6493492 224.4093018
154.1682739 26.1629868 224.4120941
153.9756927 26.6508293 224.4151306
150.8768005 31.4483299 224.3718109
153.9120331 26.5059700 224.0422211
150.8159027 31.3442440 224.0037842
154.0342255 25.8583031 223.6566772
153.8506165 26.3375912 223.6611786
150.7464752 31.2470913 223.6434631
153.6956024 26.0434608 222.9099731
153.5021210 26.5199947 222.9171295
153.3138733 26.9684792 222.9180603
153.2260742 26.8103161 222.5428619
153.0225677 26.3488750 221.7842712
152.6967621 26.6067238 221.4231110
152.4893188 27.0590801 221.4325409
150.8349915 29.6946850 221.4235687
150.7291870 29.4851704 221.0436554
152.2489166 26.5669250 220.6714325
150.6114044 29.2611160 220.6837769
151.5342407 26.8114090 219.9323578
150.8410797 28.0102940 219.9608917
150.5899200 28.3987370 219.9635773
151.1549988 26.1157513 219.1914215
150.9343872 26.5432930 219.2091064
150.7159424 26.9723072 219.2294769
150.7294159 26.1257839 218.8097839
151.0211639 26.2104530 185.5757446
150.8054657 26.6478577 185.5777588
151.1739197 26.6267948 185.1706238
150.9559631 27.0639362 185.1709747
150.7417450 27.4412155 185.1930084
150.5085754 27.8284283 185.2156067
150.6535492 28.1347771 184.8387146
151.9032898 26.3991165 184.4269257
150.8040161 28.3804932 184.4817505
152.0410614 26.6977272 184.0542297
152.3871002 26.4850273 183.6913300
152.1789093 26.9188690 183.6976166
152.7129059 26.3009243 183.3179016
150.7011108 29.9519062 183.0238495
152.9241791 26.7417183 182.5773621
150.7970581 30.1187325 182.6741943
153.0207367 26.9250622 182.2059937
150.8867493 30.3105373 182.2898712
150.9812012 30.4547596 181.9236755
151.0560303 30.5932331 181.5626678
153.6585083 26.5455875 181.0857239
153.7369232 26.7039490 180.7166138
154.0488892 26.4519005 179.9679413
153.8507080 26.9107895 179.9762115
154.0903015 26.5647850 179.5965118
153.8954010 27.0121861 179.6056976
153.9452820 27.0884151 179.2360687
153.9863586 27.1625557 178.8664398
154.0253601 27.2138176 178.4969788
154.0322266 27.2930393 178.1252441
150.8704987 31.9004307 178.2465363
154.4229126 26.3412857 177.7216492
154.2364807 26.8229332 177.7358856
154.0439606 27.3012161 177.7504272
150.8760986 31.9177589 177.8757629
154.4080963 26.4011669 177.3487701
150.8887177 31.9245968 177.5039368
154.4134521 26.4005394 176.9751587
150.8856659 31.9408779 177.1323853
154.4212494 26.3890266 176.6000519
154.2319946 26.8719654 176.6165619
154.0420685 27.3343334 176.6315613
150.8885803 31.9402409 176.7611542
154.0438538 27.3063965 176.2563477
150.9021454 31.9111004 176.3840485
154.0206299 27.2843246 175.8835602
150.8738708 31.9034557 176.0121460
153.9902649 27.2314644 175.5070953
153.9466400 27.1696167 175.1326447
154.1072388 26.6222954 174.7299042
153.9186249 27.0647087 174.7495270
154.0747375 26.5278263 174.3479004
153.8811951 26.9920158 174.3724976
153.2508087 27.4003448 172.8907776
153.3661346 26.7705841 172.4788818
153.1607819 27.2280006 172.5071259
153.2712402 26.5892048 172.0823822
153.0699463 27.0467491 172.1187592
150.9524078 30.4230728 172.2200775
152.9723969 26.8754234 171.7357178
150.8665009 30.2787800 171.8391876
152.8895569 26.6445827 171.3307343
150.7724762 30.1219711 171.4635162
150.6781921 29.9368896 171.0745697
152.2422028 27.0706463 170.6112366
151.1157379 29.0258179 170.6736755
152.3040619 26.3207378 170.1722870
152.1156921 26.8047218 170.2072296
150.9922485 28.7852345 170.2828369
151.5740509 27.3741360 169.8477173
150.8489075 28.5372753 169.8993378
151.2532196 26.7492352 169.0456696
151.0237427 27.1755447 169.0967255
150.7842560 27.5848675 169.1241150
150.8590698 26.8386517 168.6870880
150.5380402 25.6857910 135.3281403
150.9237366 25.6324272 134.9627380
150.7184906 26.0378361 134.9902954
150.4992218 26.4923229 135.0084686
151.4940796 25.9274826 134.2397461
151.6578674 26.2202129 133.9084320
152.0166779 26.1001186 133.5397339
151.8016663 26.5359917 133.5551453
150.6561279 28.4289341 133.6878357
152.3668671 25.9520454 133.1760864
150.7688599 28.6753597 133.3391418
150.8918304 28.8874435 132.9895172
152.6239166 26.4231148 132.4805756
152.9278870 26.2607250 132.0930023
152.7346344 26.6755619 132.1109772
153.3418579 26.2060032 131.3655853
153.4311218 26.3932819 131.0075684
150.7971039 30.4537640 131.2543793
150.8692017 30.5683212 130.9064789
153.5806580 26.6918449 130.2953796
150.9335785 30.6980705 130.5410004
153.6511993 26.8431339 129.9332123
151.0061798 30.8072491 130.1876984
153.7245483 26.9838123 129.5760803
151.0612335 30.9289436 129.8300171
154.0114136 26.6223545 129.1740875
153.7929840 27.0802784 129.2148590
151.1173859 31.0383091 129.4537048
154.0205383 26.7489548 128.8160095
153.8303986 27.1865387 128.8507690
154.0398102 26.8052788 128.4530182
153.8740997 27.2396946 128.4850464
154.2433777 26.5028515 127.6544952
154.6374817 25.4560509 127.2329636
154.6621857 25.5066891 126.8649445
154.6889954 25.5215740 126.4940186
154.7011719 25.5290604 126.1211243
154.7071533 25.5150204 125.7440720
154.7093506 25.4955235 125.3664246
154.3233032 26.5356140 125.0819321
154.2732544 26.4812527 124.7347870
153.9587555 26.5635357 122.8097382
153.7509613 27.0543728 122.8627319
153.6994019 26.9215298 122.4637833
151.0370026 30.9125061 122.3658905
150.9736786 30.8064957 121.9752960
153.0937958 27.2935085 121.3449554
150.9045105 30.6811581 121.5795670
153.0055542 27.1157589 120.9459534
150.8318176 30.5316238 121.1843948
150.7541046 30.3628292 120.7895355
150.6690521 30.1910152 120.4065704
152.2437134 27.3316669 119.8173294
152.3399048 26.6235332 119.3475342
152.1289215 27.0873718 119.4068146
151.5805664 27.6589394 119.0565186
150.8244476 28.8384571 119.1718369
150.5718994 29.2083817 119.2020416
151.0329742 27.4922485 118.2635345
150.7839203 27.8519707 118.2859421
150.4475555 24.8999538 83.5076294
150.8048096 24.7744942 83.1357880
150.6166382 25.1515694 83.1864548
150.3997955 25.6237793 83.2289734
151.5229187 24.4515858 82.4090958
150.5020905 26.5721607 82.6503448
151.7841949 24.9657955 81.7458038
150.7636108 27.0889397 81.9705887
152.5040741 24.6849899 80.6405487
152.6135406 24.8981705 80.3019485
150.6543884 28.5672226 80.6934204
150.7324219 28.7190437 80.3470306
152.7902527 25.2969818 79.6172104
150.8107910 28.8588428 79.9935074
152.8677368 25.4449749 79.2705002
150.8762054 28.9871902 79.6464386
153.1258240 25.1022968 78.8690033
152.9362030 25.5873299 78.9207382
150.9218292 29.1208267 79.2931290
150.6706848 29.4588356 79.3276978
153.1088257 25.9391403 77.8632965
153.4610596 24.1368809 77.2469330
153.3894653 24.8629894 77.3506393
153.3114929 25.5256405 77.4455032
153.1502686 26.0266876 77.5059433
153.5711517 24.2859230 76.1552887
153.5080719 25.0274830 76.2679138
153.6111145 25.2451954 75.5490189
153.6501617 25.2682381 75.1852722
153.2871399 26.2559605 74.1895142
153.2839661 26.1936893 73.8012161
153.2567749 26.1524048 73.4172668
153.2334747 26.0850544 73.0294266
152.9030914 26.2468796 71.9025497
152.7033539 26.6779671 71.9626160
152.6450806 26.5346737 71.5571213
152.5652466 26.4029770 71.1613922
152.6885529 25.7864170 70.6715851
152.4949188 26.2260685 70.7386322
150.8785400 28.9979839 70.7053070
150.6399994 29.3621998 70.7237549
152.2887115 25.8345413 69.8926544
150.7993011 28.8153820 70.2829666
151.9963684 26.0962009 69.5460892
151.7990417 26.5632095 69.6190872
150.7052917 28.6176434 69.8670120
150.5971527 28.4048977 69.4522324
151.5811768 26.1335125 68.7558136
151.3796844 26.5608120 68.8230057
151.1670532 26.9964523 68.8928070
150.4706726 28.2029610 69.0384979
151.1141968 28.7714691 336.2624817
151.3805084 29.3030701 335.4181213
150.9076691 30.0408783 335.3700256
152.0475159 28.9161663 334.6712952
151.5949860 29.6754513 334.6066589
151.0984344 30.4273891 334.5396118
152.6471710 28.4279613 333.9499512
152.2168427 29.2346020 333.8665771
151.7461243 30.0041256 333.7927856
151.2415619 30.7215233 333.7403564
153.1816406 27.9138870 333.2274475
152.7885132 28.7225723 333.1415710
152.3640594 29.4741573 333.0879822
151.8867645 30.2369385 333.0142517
151.3646545 30.9503040 332.9519348
153.2982330 28.1604652 332.4362488
152.9076843 28.9592552 332.3556519
152.4726715 29.7364063 332.2786255
151.9862671 30.4708443 332.2192993
151.4533386 31.1422062 332.1727905
153.3959045 28.3384151 331.6535034
152.0556793 30.6127338 331.4505005
151.5095978 31.2703342 331.4073181
153.8332520 27.5900383 330.9787598
153.4511414 28.4501724 330.8901672
152.0939941 30.7063713 330.6905518
151.5484467 31.3570290 330.6445618
152.1147919 30.7623806 329.9348145
151.5842896 31.3991642 329.8940735
151.0159302 32.0260429 329.8567200
152.1253204 30.7697811 329.1888733
151.5807190 31.4356308 329.1400452
151.0305176 32.0291901 329.1086731
153.8678741 27.6774960 328.7221985
153.4656982 28.5308971 328.6375732
152.0892639 30.7379227 328.4514465
151.5458374 31.3721867 328.4106140
153.8209991 27.5989170 327.9894714
153.4180145 28.4655514 327.9049377
152.0336304 30.6307163 327.7257385
151.4865723 31.2407494 327.6867371
153.7419891 27.4884663 327.2647095
153.3448792 28.3411789 327.1819458
151.9543304 30.5421543 326.9981384
151.4194641 31.1545277 326.9608154
153.6492157 27.3057022 326.5486450
153.2525482 28.1791840 326.4639893
151.8875275 30.4084530 326.2780762
151.3484192 31.0503464 326.2351990
150.7920532 31.6611042 326.1979370
153.5359192 27.0860538 325.8392639
153.1487427 27.9759617 325.7537231
151.7850342 30.2115688 325.5664978
151.2428436 30.8702660 325.5233765
150.6866455 31.4596024 325.4860535
153.3839264 26.8179913 325.1423340
153.0106659 27.7271481 325.0505981
151.6505890 29.9791298 324.8614502
151.1189880 30.6483040 324.8162842
153.2070465 26.4921799 324.4457092
152.8375702 27.4203529 324.3599548
152.4421082 28.2126598 324.2851257
151.9912262 28.9654694 324.2223816
151.4916229 29.7001190 324.1671143
150.9745941 30.3753014 324.1164551
152.6321411 27.0471306 323.6775513
152.2448730 27.8409309 323.6038513
151.7998199 28.6090221 323.5347900
151.3132477 29.3623123 323.4780273
150.8078003 30.0492744 323.4218445
152.3993073 26.6060047 323.0002136
152.0082550 27.4348660 322.9270325
151.5806732 28.2170086 322.8580933
151.0990295 28.9911327 322.8027954
152.1484833 26.0964336 322.3286133
151.7485199 26.9627304 322.2656250
151.3237762 27.7493172 322.1902161
150.8516998 28.5007801 322.1273804
151.4514160 26.3880692 321.6094971
151.0297546 27.2158375 321.5439148
150.5643158 27.9747601 321.4671326
151.1207886 25.7072296 320.9494324
150.7043304 26.5818596 320.8990479
151.1443176 28.0916920 286.2821350
151.4452209 28.6374035 285.4686584
150.9501495 29.4561672 285.4208374
152.1304016 28.3324432 284.7112122
151.6704102 29.1361942 284.6619263
151.1653137 29.8717251 284.6332703
152.7402954 27.9562798 283.9631958
152.3368530 28.7492981 283.9153442
151.8798523 29.4963779 283.8818359
151.3494720 30.2454281 283.8365479
152.9233551 28.3086319 283.1764526
152.5167694 29.0701160 283.1343079
152.0307007 29.8258190 283.0915527
151.5051575 30.5292206 283.0639648
153.0678253 28.6001740 282.3939819
151.6242523 30.7601891 282.2933350
151.0698395 31.4016113 282.2751465
153.5786743 27.9974213 281.6737061
153.1790619 28.8151760 281.6285706
151.7122955 30.9449558 281.5262451
151.1665039 31.5620556 281.5083923
153.6590118 28.1747761 280.9066772
153.2528076 28.9781723 280.8632202
151.7783661 31.0756912 280.7700806
151.2303009 31.6928444 280.7512512
153.7212830 28.2813568 280.1507568
153.3024902 29.0915470 280.1058044
151.8282928 31.1768723 280.0126343
151.2717590 31.7883205 279.9961243
154.1377563 27.4798813 279.4461060
153.7580872 28.3639793 279.3952637
153.3416138 29.1521320 279.3546448
154.1547699 27.4952507 278.6988831
153.7723083 28.3776226 278.6483765
153.3547516 29.1684418 278.6072083
154.1306610 27.4663067 277.9559021
154.0845032 27.3820114 277.2185059
154.0230255 27.2366695 276.4844666
153.6288147 28.1612778 276.4347229
153.2125244 28.9708290 276.3922729
153.9263458 27.0619583 275.7551270
153.5299072 27.9780636 275.7098999
153.1166382 28.7781982 275.6655579
153.4010010 27.7294827 274.9854431
152.9852142 28.5582104 274.9464417
151.5328217 30.6871719 274.8561707
150.9845428 31.3010597 274.8318481
153.2507019 27.4499454 274.2683105
152.8417664 28.2736740 274.2247925
151.4039307 30.4371510 274.1328125
153.0800323 27.1214752 273.5488586
152.6712646 27.9646969 273.5139160
152.2460022 28.7370930 273.4757080
151.7697449 29.4540806 273.4441833
151.2536163 30.1509991 273.4160767
152.4669952 27.5863495 272.8024902
152.0439911 28.3632889 272.7676697
151.5797272 29.0720043 272.7297974
152.2322998 27.1332245 272.0939331
151.8072205 27.9210968 272.0621338
151.3462219 28.6649857 272.0320435
151.5456390 27.4139824 271.3634338
151.0820313 28.1765690 271.3269958
151.2359924 26.8143063 270.6699219
151.2739258 27.4767685 235.4737549
150.8328552 28.2960701 235.4602966
151.9865570 27.2405148 234.7171173
151.5701294 28.0402203 234.7036438
151.1089783 28.8124466 234.6953125
152.2447968 27.7764950 233.9438171
151.8240967 28.5285587 233.9329071
151.3390961 29.2755222 233.9225311
152.8769531 27.3294449 233.2029419
152.4760895 28.1598206 233.1876221
152.0325165 28.9235058 233.1768341
151.5386505 29.6622791 233.1592102
151.0091858 30.3516560 233.1635132
153.0648804 27.7063770 232.4339905
152.6554108 28.5250740 232.4222260
152.2089844 29.2611198 232.4171143
151.7122498 29.9778366 232.4057312
151.1698608 30.6641216 232.4029541
153.6094513 27.1258545 231.6980133
153.2224884 28.0046444 231.6805725
152.8042755 28.8124771 231.6682434
151.2897797 30.9072933 231.6495361
153.7329102 27.3997974 230.9357758
153.3504181 28.2484665 230.9256287
152.9246674 29.0429115 230.9150848
151.3883362 31.1030197 230.8952789
153.8381958 27.5874729 230.1852570
151.4727631 31.2687397 230.1437073
154.2706146 26.8177452 229.4486237
153.9122314 27.7485924 229.4320984
151.5394592 31.3905010 229.3971710
153.9704285 27.8302555 228.6858521
151.5742645 31.4701309 228.6495667
153.9947662 27.8789654 227.9362335
151.5777130 31.4813137 227.9061737
153.9817047 27.8607235 227.1923370
152.6416931 30.1432858 227.1708984
152.1239166 30.8078747 227.1657410
151.5582886 31.4569588 227.1626129
153.9346313 27.7527790 226.4481506
152.6011963 30.0401173 226.4255066
152.0730438 30.7406502 226.4246063
151.5268250 31.4056339 226.4211884
154.2383118 26.7305737 225.7154236
153.8572845 27.6369190 225.7055817
151.4650269 31.2989445 225.6809540
154.1479492 26.5685253 224.9730530
153.7739410 27.4739933 224.9660034
151.3671417 31.1485596 224.9431000
153.6587830 27.2531033 224.2243042
153.2625122 28.1164017 224.2165375
152.8248901 28.8936234 224.2101593
151.2589111 30.9381828 224.1990204
153.5163879 26.9877701 223.4828796
153.1257324 27.8694744 223.4769440
152.6931458 28.6618671 223.4718170
151.1338959 30.7129021 223.4617310
152.9564514 27.5668793 222.7395172
152.5327454 28.3597393 222.7329559
152.0797729 29.0579338 222.7227631
151.5497589 29.7777348 222.7292023
150.9922791 30.4415112 222.7181854
152.7636261 27.1395645 221.9909668
152.3388824 27.9905930 221.9951477
151.8897247 28.7486477 221.9902649
151.3830109 29.4526577 221.9857941
150.8295288 30.1221619 221.9769592
152.1098633 27.5802765 221.2572174
151.6706085 28.3430653 221.2530518
151.1760864 29.0799122 221.2514343
151.8498840 27.0612469 220.5034027
151.4098053 27.8501492 220.5179138
150.9263916 28.6132488 220.5175323
151.1041565 27.2741909 219.7794189
151.5144196 26.8765583 184.6181335
151.0832672 27.6694870 184.6369019
151.8040924 27.4122639 183.8905334
151.3629608 28.1985455 183.9045868
150.8596802 28.9337692 183.9293671
152.4633026 27.0670605 183.1379700
152.0549469 27.8772831 183.1604004
151.5985870 28.6482353 183.1707306
151.0779724 29.3223019 183.2026978
152.6781006 27.4587708 182.4072113
152.2562256 28.2812042 182.4260712
151.7897034 29.0169334 182.4394226
151.2607727 29.6990032 182.4592590
153.2494965 26.9535789 181.6522522
152.8475952 27.8185368 181.6714172
152.4190826 28.6113396 181.6947937
151.9581146 29.3194809 181.7117462
151.4269562 30.0196743 181.7263641
153.4080963 27.2718544 180.9127808
152.0997467 29.5939255 180.9750061
151.5761719 30.2769394 180.9922638
151.0141296 30.9346981 181.0106812
153.5379944 27.4994373 180.1771698
152.2138824 29.8375072 180.2386322
151.6866455 30.5076523 180.2541809
151.1257324 31.1306572 180.2705383
153.6273499 27.6972599 179.4377594
153.2247620 28.5234489 179.4602509
152.7879181 29.2931137 179.4816284
151.2171478 31.2908859 179.5355682
153.7078400 27.8371925 178.6978455
153.2912292 28.6514854 178.7212067
152.8468170 29.4013634 178.7424469
151.2675018 31.4204369 178.7921295
153.7455750 27.9341736 177.9549255
151.2890930 31.4726677 178.0511780
154.1368561 27.0948467 177.1841125
153.7592468 27.9597435 177.2109985
151.2974548 31.4952774 177.3079224
153.7434082 27.9611588 176.4656525
151.2960052 31.4879780 176.5625000
153.7078552 27.8788776 175.7156982
151.2629852 31.4514294 175.8186035
153.6430969 27.7617207 174.9652100
151.2025757 31.3324318 175.0670929
153.5697479 27.6221523 174.2134247
151.1226196 31.1812286 174.3115540
153.4695892 27.3819275 173.4467773
153.0601044 28.2348671 173.4871979
152.6147308 29.0040684 173.5065918
152.1298981 29.7135468 173.5269012
151.5987091 30.3901596 173.5495453
151.0392303 31.0129623 173.5575562
152.9001617 27.9488525 172.7241364
152.4724579 28.7272587 172.7452850
151.9978485 29.4736195 172.7738342
151.4782104 30.1664009 172.7962494
150.9156036 30.7969780 172.8043213
152.7219391 27.6034966 171.9609833
152.3018036 28.4047871 171.9822693
151.8477173 29.1467304 172.0061340
151.3225708 29.8668060 172.0314941
152.5273743 27.2147198 171.1856079
152.0992126 28.0425377 171.2255402
151.6493988 28.8011475 171.2487946
151.1370850 29.5320740 171.2763977
151.8660126 27.5730629 170.4448547
151.4166107 28.3514080 170.4763184
151.1414032 27.8413029 169.7079010
151.0849609 26.3782597 134.4504395
150.6519012 27.1613197 134.5088501
151.4094543 26.9703617 133.7705231
150.9507904 27.7480717 133.8222656
152.1205902 26.7093487 133.0304413
151.6826477 27.5147057 133.0769653
151.2099609 28.2442760 133.1294250
152.3706665 27.1588364 132.3383179
151.9149933 27.9623833 132.3836975
151.4309082 28.6829987 132.4257660
150.9157715 29.3717937 132.4711914
152.9878998 26.7618389 131.5737610
152.5649261 27.5723019 131.6256866
152.1150360 28.3283062 131.6763153
151.6278229 29.0481968 131.7205811
151.1019592 29.7300358 131.7630463
153.1532288 27.0733528 130.8674622
152.7326202 27.8204613 130.9192963
152.2712555 28.6123714 130.9643402
151.7878113 29.3660145 131.0053253
151.2608490 30.0333099 131.0501709
153.2959442 27.3600807 130.1487427
152.8674469 28.1054745 130.2045898
152.4159851 28.8489094 130.2518158
151.9172058 29.6272316 130.2904816
151.3862305 30.2964344 130.3303375
153.4462891 27.6301899 129.4313812
152.9987793 28.3840370 129.4809723
152.5391693 29.0756683 129.5360718
152.0337219 29.8179893 129.5724640
151.4945068 30.5161514 129.6095428
153.5597076 27.8319969 128.7110901
153.1097412 28.6106091 128.7596283
152.6257172 29.3117104 128.8062592
152.1350250 29.9898567 128.8526459
151.5912781 30.6863251 128.8875122
151.0426636 31.3023338 128.9217224
154.0033417 27.1278896 127.9190292
153.6366577 27.9588146 127.9816895
153.1865234 28.7356625 128.0341644
152.7024689 29.4539871 128.0777130
152.1953278 30.1598911 128.1205597
151.6590271 30.8235970 128.1588287
151.1007538 31.4217186 128.1910706
154.3913879 26.2983627 127.1129150
154.0603790 27.2305756 127.1861801
153.6667328 28.0397263 127.2452011
153.2015991 28.7951031 127.2951813
152.7381897 29.4983482 127.3387222
152.2417603 30.2400913 127.3871078
151.7205353 30.9075565 127.4261856
151.1628418 31.5147667 127.4581757
154.4325409 26.3363209 126.3730774
154.0807800 27.2792416 126.4459915
153.6775208 28.0721855 126.5007401
153.2262421 28.8180561 126.5519028
152.7642365 29.5558815 126.6009674
152.2689056 30.3079109 126.6513290
151.7439728 30.9817162 126.6903229
151.1953583 31.5859261 126.7209091
154.4346771 26.3273220 125.6243134
154.0723267 27.2779179 125.7011337
153.6788177 28.1019001 125.7601013
151.2002716 31.5866489 125.9760590
154.0420532 27.2128582 124.9456482
153.6696625 28.0512962 125.0100937
151.1758423 31.5754433 125.2308121
153.9664764 27.1371727 124.1936493
153.6221619 27.9626827 124.2523422
151.1477051 31.5007267 124.4778595
153.9198303 26.9529095 123.4194641
153.5397339 27.8348389 123.4936066
151.0796051 31.3871212 123.7180023
153.4402771 27.5995312 122.7134857
153.0242310 28.4524651 122.7835922
152.5708160 29.2324352 122.8367157
152.0767365 29.9233456 122.8806000
151.5320587 30.5934334 122.9206161
150.9889984 31.2113400 122.9524384
153.3074036 27.3356571 121.9300995
152.8906250 28.1992893 122.0074615
152.4501343 28.9859371 122.0617065
151.9597778 29.6908360 122.1046295
151.4142761 30.3743649 122.1457062
152.7258606 27.8678989 121.2169495
152.2858582 28.6901989 121.2810822
151.8137054 29.4221954 121.3321228
151.2795868 30.1179447 121.3782349
152.5244598 27.4609795 120.4052277
152.0847931 28.3088856 120.4892807
151.6278534 29.0647831 120.5425644
151.1105499 29.7754421 120.5830688
151.8599701 27.8519459 119.6763687
151.3997955 28.6363182 119.7393265
150.8944702 29.3893719 119.7962036
151.1352234 28.1288471 118.9201813
151.1387939 24.9871998 82.6269226
150.7343750 25.8278027 82.7255936
151.4210815 25.5402508 81.9749985
151.0207672 26.3628540 82.0715485
152.0463257 25.1066208 81.2157059
151.6672058 25.9921055 81.3147736
151.2473907 26.8185978 81.4041061
150.7998657 27.5652142 81.4854660
152.2757568 25.5078068 80.5435944
151.8837433 26.3902855 80.6453934
151.4517670 27.1869640 80.7279587
150.9840546 27.9302197 80.8026428
152.4690704 25.8866634 79.8629303
152.0626678 26.7657776 79.9601517
151.6319733 27.5182018 80.0433350
151.1464233 28.2542610 80.1140747
152.6245728 26.1892223 79.1736221
151.2847748 28.5181427 79.4171753
153.1219177 25.5404110 78.3676071
152.7540436 26.4428215 78.4728012
151.4127197 28.7139130 78.7120056
150.8878326 29.4278374 78.7775116
152.8590546 26.6351871 77.7630005
151.5055542 28.9151573 77.9998245
150.9847412 29.6083050 78.0668869
153.4725342 24.6028900 76.7565536
153.2794647 25.8630772 76.9318008
152.9330597 26.7866211 77.0441666
151.5844727 29.0634365 77.2841568
151.0640717 29.7357903 77.3461304
153.3341217 25.9671097 76.2042007
152.9916077 26.8684978 76.3145523
153.3772583 26.0293159 75.4692307
153.0124207 26.9216385 75.5784531
153.3963165 26.0396004 74.7237701
153.0144043 26.9054222 74.8275146
152.6050720 27.7407131 74.9225235
152.1614227 28.5221176 75.0097885
152.9851990 26.8858414 74.0780487
152.5864868 27.7339859 74.1777878
152.1516876 28.5128212 74.2606888
152.9499664 26.7799034 73.3087082
152.5516968 27.6480122 73.4160538
152.1226349 28.4410095 73.5047607
151.6363983 29.1607361 73.5780029
151.1132355 29.8371811 73.6330414
152.8757477 26.6253796 72.5305710
152.4713745 27.4920769 72.6371765
152.0444946 28.2945404 72.7284698
151.5688934 29.0255318 72.8081131
151.0605621 29.7235909 72.8694458
152.3567810 27.2805138 71.8506927
151.9353790 28.0871964 71.9376831
151.4699707 28.8171043 72.0097809
150.9645081 29.5586452 72.0931931
152.2223206 26.9985638 71.0498199
151.8050842 27.8582077 71.1589584
151.3532562 28.6085701 71.2310562
150.8629761 29.3597832 71.3000412
152.0450592 26.6345081 70.2190475
151.6409607 27.5114250 70.3373642
151.2031403 28.3003807 70.4222488
151.4333344 27.1277275 69.5105133
150.9998627 27.9308815 69.6070328
150.7702789 27.4908314 68.7599640
152.8040771 29.5744247 331.1595154
153.6724396 28.1100464 329.7984009
152.8507843 29.6744118 329.6519470
152.8041077 29.6107616 328.1731262
152.6697388 29.3937817 326.7221069
152.4479675 29.0144367 325.2976990
152.4517365 29.7921600 281.9587708
152.5947723 30.0903969 280.4363403
152.6497955 30.2280254 278.9319153
151.5728302 31.5371647 278.8833618
153.5167999 28.7217598 277.5157471
152.6171722 30.1907578 277.4466553
151.5440979 31.5067825 277.3975525
152.4802094 29.9505863 275.9814453
151.4225769 31.2820950 275.9320679
152.2442932 29.5204487 274.5345764
152.1533966 29.9980354 231.2800751
153.2641907 28.9077206 229.7928467
152.3256989 30.3390465 229.7782745
153.3479004 29.0648518 228.2970428
152.3970490 30.4906597 228.2841644
153.3184967 29.0151463 226.8078613
153.1863861 28.7754955 225.3232422
152.2278290 30.1910686 225.3133087
152.0201721 29.8098068 223.8321686
152.8492584 28.6047192 180.5783081
152.0737762 30.3983021 179.1391296
153.1123047 29.1136150 177.6174316
152.1324615 30.5255890 177.6556702
153.0867920 29.0830231 176.1249695
152.1094360 30.4918633 176.1655273
152.9778748 28.8867874 174.6259155
151.9992981 30.2951946 174.6662140
153.0035400 29.2213116 125.4626465
152.0123901 30.6260242 125.5516815
152.9356079 29.0868435 123.9571533
151.9334564 30.4952087 124.0476227
152.0592804 27.5298595 78.9560852
152.2538452 27.8989677 77.5331421
152.3630066 28.1124115 76.0822372
151.3786011 29.5218544 76.2192154
151.4030151 29.5616817 74.7353592
