-114.9580612 -22.4519100 288.7739868
-114.4150391 -23.0500221 288.8147583
-113.7973480 -23.6315060 288.8450928
-113.0245667 -24.1550598 288.9049377
-112.1193085 -24.6227646 289.0177002
-116.9739304 -16.7542934 288.1109009
-117.0654984 -17.5904617 288.0596924
-117.1110458 -18.3935375 288.0298157
-117.1235962 -19.2040367 287.9788818
-117.0070190 -19.9800415 287.9690552
-116.8466263 -20.7217007 287.9549561
-116.6360474 -21.4554329 287.9320374
-116.2728958 -22.1528416 287.9443054
-115.8550949 -22.7836246 287.9603882
-115.3934784 -23.3999310 287.9780579
-114.8513641 -24.0205212 287.9963989
-113.3910370 -25.0877857 288.0981140
-112.4594879 -25.5703087 288.1889648
-117.6701355 -16.1996117 287.3200989
-117.8020096 -17.0804863 287.2603149
-117.8801270 -17.9037838 287.2188416
-117.9107056 -18.6941948 287.1889648
-117.8880081 -19.5028152 287.1502075
-117.7611923 -20.2560959 287.1434631
-117.5945663 -21.0019665 287.1254578
-117.3591080 -21.7324944 287.1094360
-117.0014801 -22.4197178 287.1238098
-116.5915298 -23.0543518 287.1538086
-116.1675491 -23.6908073 287.1566467
-115.6349792 -24.3064747 287.1966248
-115.0486755 -24.8896389 287.2268066
-114.3871918 -25.4389648 287.2542419
-113.5373001 -25.9518223 287.3121033
-118.2132034 -15.5625067 286.5540466
-118.3972855 -16.4767227 286.4921570
-118.5038757 -17.3457985 286.4588318
-118.5667953 -18.1729927 286.4114380
-118.5613708 -18.9364262 286.3920593
-118.5077820 -19.7344742 286.3555298
-118.3629150 -20.4791260 286.3526306
-117.5819244 -22.6233673 286.3496704
-117.2549515 -23.2986336 286.3235779
-115.7513428 -25.1398716 286.4147949
-115.1220627 -25.6974411 286.4501648
-114.3375549 -26.2401848 286.5043030
-113.4710083 -26.7388840 286.5656128
-118.8307266 -15.8082218 285.7546082
-118.9970627 -16.6988277 285.7037354
-119.1018448 -17.5773258 285.6547241
-119.1307526 -18.3811474 285.6249084
-119.1173172 -19.1622772 285.5911560
-119.0392532 -19.9347134 285.5639038
-118.9018555 -20.6829453 285.5421753
-118.1016388 -22.8240204 285.5438843
-117.7672653 -23.4843407 285.5500793
-116.3115692 -25.3479195 285.6219482
-115.7154160 -25.9298820 285.6492920
-115.0126724 -26.4795380 285.6871643
-114.1589813 -26.9935513 285.7604980
-113.2638855 -27.4655399 285.8289185
-112.2057419 -27.9042873 285.9334106
-119.1555862 -15.1037388 285.0283203
-119.3547668 -15.9958448 284.9702759
-119.5219193 -16.9069557 284.9051514
-119.6000748 -17.7712460 284.8689880
-119.6080322 -18.5597706 284.8362427
-119.5525665 -19.3227692 284.8095093
-119.4407272 -20.0849171 284.8071594
-119.3241348 -20.8312225 284.7698975
-119.0983124 -21.5620575 284.7835388
-118.8295593 -22.2741146 284.7822876
-118.5368576 -22.9819374 284.7749634
-118.2053757 -23.6416073 284.7734680
-116.7823792 -25.5204639 284.8419189
-116.2061157 -26.1052952 284.8723450
-115.5139389 -26.6846027 284.9130859
-114.7579269 -27.2076721 284.9639282
-113.8949127 -27.6858997 285.0245667
-112.9117508 -28.1219101 285.0994568
-119.6357346 -15.3120489 284.2304382
-119.8151474 -16.1853447 284.1812439
-119.9472198 -17.0618000 284.1386414
-120.0005417 -17.9196224 284.0992737
-119.9707642 -18.6888409 284.0779724
-119.8988266 -19.4490185 284.0512695
-119.7910233 -20.2142239 284.0396423
-119.6668167 -20.9638901 284.0134583
-119.4889603 -21.7082787 283.9851074
-119.2294159 -22.4270535 283.9906311
-118.9258270 -23.1301765 283.9914856
-118.5748596 -23.7811260 284.0041199
-117.1868286 -25.6625404 284.0561829
-116.6203232 -26.2557945 284.0942688
-115.9638443 -26.8375454 284.1353760
-115.2409821 -27.3768673 284.1820068
-114.4213943 -27.8725834 284.2396240
-113.5055008 -28.3281498 284.3028870
-112.3941345 -28.7604351 284.4007263
-119.8353271 -14.5844507 283.5137329
-120.0343933 -15.4584150 283.4660034
-120.2097778 -16.3454800 283.4106445
-120.3322220 -17.2170506 283.3609924
-120.3533554 -18.0378304 283.3366699
-120.3116226 -18.8233891 283.3039856
-120.2268219 -19.5946522 283.2743225
-119.2325516 -23.2464466 283.2327271
-118.8657913 -23.9015102 283.2468567
-118.4420929 -24.5350437 283.2673035
-117.9914017 -25.1582851 283.2814026
-116.3198700 -26.9642143 283.3638916
-115.5982742 -27.5133648 283.4164429
-114.8262405 -28.0213795 283.4685059
-113.9611816 -28.4964771 283.5269470
-112.9306412 -28.9352474 283.6044617
-119.9468307 -13.8511667 282.8005066
-120.2084351 -14.7509766 282.7350159
-120.3973694 -15.6076860 282.6945801
-120.5619583 -16.4782696 282.6409302
-120.6660690 -17.3479252 282.5914917
-120.6687164 -18.1857986 282.5610657
-120.5991745 -18.9462013 282.5470886
-120.4883118 -19.6931000 282.5207214
-119.4813538 -23.3314667 282.4777222
-119.1078033 -23.9783802 282.4895935
-118.6991196 -24.6105366 282.5038147
-118.2582321 -25.2523098 282.5157471
-116.5982056 -27.0609818 282.6068420
-115.9041367 -27.6241646 282.6527710
-115.1725082 -28.1443253 282.6960449
-114.3187408 -28.6351929 282.7622375
-113.3440781 -29.0775681 282.8288269
-112.2124710 -29.4764309 282.9228821
-119.8681259 -13.0519209 282.1076050
-120.6916733 -15.7357817 281.9261780
-120.8227921 -16.5781555 281.8858337
-120.8026352 -19.0323410 281.7942505
-120.6779556 -19.7618809 281.7853394
-119.6682663 -23.4076195 281.7305603
-119.2973022 -24.0520782 281.7504272
-115.4331360 -28.2421589 281.9408569
-114.6113892 -28.7334366 281.9984436
-113.6651917 -29.1931686 282.0651550
-112.5624466 -29.6101189 282.1528320
-120.0971375 -13.1482906 281.3506470
-120.8673706 -15.8047132 281.1792297
-120.9880905 -16.6466942 281.1382141
-120.9583664 -19.1020775 281.0458374
-120.8399506 -19.8276520 281.0305481
-119.8244629 -23.4658184 280.9846497
-119.4652710 -24.1179085 280.9927063
-115.6043396 -28.3073483 281.1950989
-114.7962646 -28.8035469 281.2526550
-113.8880005 -29.2770500 281.3164063
-112.8230133 -29.7095165 281.3952026
-119.7833786 -12.2061224 280.6817017
-120.2659988 -13.2184248 280.5989380
-117.1075821 -27.2479820 280.3702698
-116.4446945 -27.8237896 280.4074097
-115.7214127 -28.3561840 280.4513855
-114.9207153 -28.8600140 280.5108337
-114.0395584 -29.3426552 280.5705566
-113.0079041 -29.7782269 280.6451111
-111.7633209 -30.1891708 280.7477722
-119.9028168 -12.2508507 279.9397888
-120.3721313 -13.2563086 279.8605347
-117.2056503 -27.2702618 279.6284180
-116.5164185 -27.8465862 279.6726990
-115.7971802 -28.3700352 279.7172852
-115.0206909 -28.8936672 279.7670288
-114.1590042 -29.3836040 279.8268433
-113.1171417 -29.8330402 279.9046936
-111.8895950 -30.2406063 280.0029907
-119.9854202 -12.2870522 279.1959534
-120.4391861 -13.2865858 279.1198425
-120.9588699 -20.6856785 278.8051758
-120.8023148 -21.4142857 278.7926636
-117.2354202 -27.2913284 278.8973694
-116.5183640 -27.8649883 278.9454651
-115.8197784 -28.3934879 278.9864807
-115.0601349 -28.9140015 279.0346069
-111.9714508 -30.2585335 279.2611694
-119.2989120 -11.1144705 278.5681152
-119.9969330 -12.2837334 278.4643250
-120.4378891 -13.2746696 278.3902283
-120.9493790 -20.6793003 278.0803833
-120.7787552 -21.4048405 278.0696106
-117.2217178 -27.2952614 278.1719666
-116.5359650 -27.8651905 278.2113953
-115.8252869 -28.3991947 278.2556763
-115.0236740 -28.9246521 278.3091736
-111.9963608 -30.2541695 278.5276184
-119.9350281 -12.2583055 277.7393188
-120.3893433 -13.2772427 277.6633606
-111.9350433 -30.2330360 277.8034973
-119.8082047 -12.2106371 277.0204163
-120.2635651 -13.2203484 276.9449463
-111.7966537 -30.1983261 277.0847778
-118.9346542 -10.9739590 276.4062195
-119.6349487 -12.1521721 276.3056335
-120.0995789 -13.1716204 276.2312927
-120.4205170 -14.0672331 276.1721191
-120.6578598 -14.9426699 276.1213989
-115.4759216 -28.3060646 276.1010132
-114.7229614 -28.8086910 276.1510620
-113.8464508 -29.2907085 276.2098694
-112.8267441 -29.7259026 276.2816162
-111.6115265 -30.1336956 276.3710632
-119.8935776 -13.0770092 275.5188293
-120.2155838 -13.9899120 275.4619446
-120.4618607 -14.8781548 275.4115906
-115.3142700 -28.2319202 275.3902588
-114.5311966 -28.7363319 275.4414063
-113.5980453 -29.2104435 275.5013733
-112.5787888 -29.6359959 275.5755615
-111.3592529 -30.0286236 275.6669922
-119.9755783 -13.9136829 274.7550964
-120.2094269 -14.7780275 274.7041626
-120.5605545 -17.3135891 274.5917358
-120.5484085 -18.1483402 274.5611267
-120.4984818 -18.9474564 274.5403137
-120.4029541 -19.6796379 274.5206604
-113.3290024 -29.0991879 274.7972717
-112.2882080 -29.5236073 274.8723755
-119.6625748 -13.7863169 274.0531311
-119.9009094 -14.6736164 274.0061951
-120.2713470 -17.2017536 273.8870239
-120.2680054 -18.0432301 273.8539124
-120.2309570 -18.8472347 273.8372498
-120.1480560 -19.5999527 273.8187866
-113.0002975 -28.9831581 274.0997925
-111.9162674 -29.3929634 274.1780090
-110.5777740 -29.7661209 274.2673340
-119.2902451 -13.6424990 273.3548584
-119.5300674 -14.5106602 273.3098145
-119.9565201 -17.0724983 273.1941528
-119.9665985 -17.9273777 273.1618958
-115.8642349 -26.8030300 273.2003174
-115.1646194 -27.3801308 273.2463379
-114.3849640 -27.9035149 273.2841492
-113.5466385 -28.3919811 273.3410339
-112.5933990 -28.8383160 273.4095154
-111.4613266 -29.2239418 273.4909058
-119.1250229 -14.3715782 272.6194458
-119.5692825 -16.9258537 272.4932251
-119.6015625 -17.7855892 272.4603271
-115.4674149 -26.6624928 272.5098877
-114.7439880 -27.2315540 272.5522766
-113.9688034 -27.7415562 272.6029968
-113.0894012 -28.2240143 272.6576843
-112.0630569 -28.6500435 272.7271423
-110.8319016 -29.0255184 272.8048401
-118.6173172 -14.1612101 271.9319458
-118.8581314 -15.0515995 271.8933716
-119.0176086 -15.8980598 271.8452454
-117.1919632 -24.1155739 271.7274780
-116.7411804 -24.7464275 271.7388611
-115.0115967 -26.4989796 271.8258362
-114.2566452 -27.0442429 271.8668823
-113.4275284 -27.5529957 271.9142151
-112.5035706 -28.0217915 271.9756775
-111.4219437 -28.4272213 272.0520935
-118.2426605 -14.8224993 271.2072449
-118.4714050 -15.7052679 271.1630859
-116.7229996 -23.9368248 271.0392761
-116.2422104 -24.5686264 271.0523987
-114.4674759 -26.3077583 271.1442871
-113.6479263 -26.8370171 271.1831055
-112.8150253 -27.3342133 271.2523499
-111.8416290 -27.7754650 271.3112488
-117.6551895 -14.5896349 270.5361633
-117.8784332 -15.4634829 270.4866333
-118.0356216 -16.3456974 270.4480591
-118.1332169 -17.2413292 270.4134216
-116.9890671 -22.4406796 270.3376465
-116.5986938 -23.1047802 270.3406677
-116.1852722 -23.7414112 270.3624268
-115.6700439 -24.3563519 270.3805542
-115.1283112 -24.9322929 270.3994141
-114.5649796 -25.5172825 270.4353943
-113.8415680 -26.0722561 270.4734497
-112.9540176 -26.6007767 270.5128784
-112.0593796 -27.0782566 270.5774231
-111.0070419 -27.4901085 270.6447754
-117.1953049 -15.1942797 269.8078918
-117.3532333 -16.0805798 269.7765503
-117.4878998 -16.9953384 269.7438049
-116.3683472 -22.2206650 269.6674805
-115.9730301 -22.8805199 269.6770325
-115.5252533 -23.5152302 269.6992493
-114.9754486 -24.1120987 269.7012329
-114.4592514 -24.6883945 269.7313843
-113.8633270 -25.2595196 269.7639465
-113.0987930 -25.8087444 269.8081970
-112.2144241 -26.3156128 269.8620911
-116.5573730 -15.7751818 269.1033325
-116.7207184 -16.7156391 269.0780334
-116.7797241 -17.5673428 269.0437012
-116.7512741 -18.3518791 269.0196533
-116.2686310 -20.5032978 268.9847412
-115.9978561 -21.2245922 268.9895020
-115.6101990 -21.9553051 268.9816589
-115.1893768 -22.6156864 268.9859619
-114.7444229 -23.2358475 269.0201416
-114.2254486 -23.8296146 269.0391541
-113.6857986 -24.4027367 269.0774536
-113.0227203 -24.9495697 269.1047363
-111.1775360 -25.9419250 269.2138977
-115.8188858 -16.3597832 268.4168701
-115.8948059 -17.2302532 268.3919983
-115.9260254 -18.0415497 268.3699036
-115.4732513 -20.2001781 268.3320313
-115.1922226 -20.9204044 268.3251343
-114.8355255 -21.6520596 268.3429260
-114.4041519 -22.3140488 268.3557129
-113.9027481 -22.9250698 268.3716736
-113.3760681 -23.4995899 268.3972473
-112.7393188 -24.0571404 268.4149780
-114.6991348 -15.9257288 267.7479553
-114.8312912 -16.8393345 267.7391663
-114.9144592 -17.6576214 267.7275085
-114.8674011 -18.4121323 267.7088318
-114.7158966 -19.1279926 267.6874695
-114.5094223 -19.8426838 267.6822205
-114.2208252 -20.5730724 267.6871338
-113.8529892 -21.2773495 267.6932373
-113.4017792 -21.9477158 267.7000427
-112.8786926 -22.5431595 267.7032166
-113.3424988 -19.3889580 267.0420227
-113.0130081 -20.1016750 267.0197449
132.7769775 15.6520500 284.4383545
133.5430450 14.8544464 284.4826355
134.3947754 14.1087513 284.5004272
135.3587189 13.3911066 284.5581360
136.4105682 12.6947088 284.5993652
137.7451935 12.0649023 284.6994629
131.0802155 27.3069992 283.6697693
130.6154327 26.1321239 283.6071167
130.3105927 25.0023499 283.5571899
130.1192017 23.9385910 283.5186768
130.0068207 22.9030342 283.4729309
130.0331268 21.9123974 283.4593811
130.1320953 20.8920135 283.4326172
131.3354645 17.1988602 283.4042969
131.7939453 16.3719616 283.4260864
132.3516083 15.5129766 283.4284973
133.0538788 14.7011995 283.4646606
133.8399811 13.9335747 283.4875488
134.7535095 13.1893597 283.5429688
135.7632751 12.4930573 283.5840149
137.0420074 11.8649111 283.6598206
130.5964050 27.1378040 282.6622314
130.1853638 25.9774475 282.6009827
129.9207764 24.8745728 282.5543518
129.7475586 23.7935619 282.5105591
129.6733246 22.7841949 282.4769287
129.7201385 21.7901039 282.4601746
129.8183289 20.7827873 282.4211731
130.0145264 19.8271332 282.4224548
130.2691193 18.8906574 282.4104919
130.6101685 17.9789886 282.4150696
130.9998474 17.0994568 282.4124451
131.4581757 16.2458744 282.4296570
131.9915924 15.4130135 282.4383240
132.6711884 14.5941591 282.4575806
133.4579010 13.8011427 282.5086975
134.3033752 13.0596132 282.5406494
135.2961884 12.3476763 282.5902405
136.4969177 11.7045059 282.6549988
137.8859406 11.1310225 282.7276306
131.6829834 29.6459064 281.8428345
130.8359222 28.2923717 281.7486877
130.2536774 27.0288467 281.6708069
129.4609375 23.7068882 281.5249329
129.3921204 22.6914082 281.4836121
129.4505463 21.7007236 281.4729919
129.5762482 20.7037678 281.4513855
129.7532043 19.7340355 281.4355164
130.0112915 18.7960453 281.4237671
131.2134094 16.1715889 281.4427795
131.7876129 15.3330574 281.4620972
132.4427948 14.5056028 281.4895935
133.1632843 13.7103796 281.5076294
136.0836639 11.5830107 281.6511230
137.4565430 10.9782553 281.7287598
131.3343506 29.5115376 280.8396606
130.5397797 28.1765194 280.7515259
130.0233154 26.9657936 280.6871338
129.2569275 23.6443443 280.5434570
129.2220459 22.6312141 280.5119934
129.3132935 21.6526470 280.4935303
129.4466553 20.6615562 280.4795532
129.5895386 19.6770096 280.4575500
129.8437347 18.7425461 280.4521484
131.0599670 16.1245861 280.4671631
131.6106415 15.2926865 280.4811707
132.2345886 14.4514332 280.4956055
132.9600677 13.6390514 280.5308533
135.8567352 11.4872341 280.6734314
137.1505432 10.8791857 280.7392273
131.1493835 29.4671078 279.8588867
130.3544769 28.0952168 279.7656555
129.8623810 26.8959122 279.7046204
129.5101166 25.7622852 279.6508484
129.2788239 24.6692734 279.6040039
129.1460724 23.6033306 279.5650940
129.1429138 22.6183815 279.5411682
129.2322845 21.6314812 279.5228577
129.3452148 20.6196899 279.5050354
129.4939880 19.6127529 279.4818420
129.7468414 18.7083359 279.4787292
130.0724792 17.8045006 279.4783325
130.4641724 16.9259129 279.4805298
130.9425049 16.0882473 279.4935608
131.4938202 15.2508020 279.5089111
132.1389923 14.3993206 279.5323792
132.8363647 13.6167164 279.5519104
133.6810913 12.8481436 279.5945129
134.6051483 12.1227913 279.6354370
135.6938934 11.4409246 279.6921997
136.9745026 10.8194361 279.7607117
132.2420502 30.9074001 278.9989624
131.0765991 29.4444237 278.8811951
130.3315582 28.1334972 278.7981567
129.7996826 26.8654766 278.7285156
129.4621277 25.7371502 278.6749268
129.2550049 24.6752224 278.6365356
129.1267395 23.5903358 278.5988464
129.1050110 22.6014786 278.5720215
129.1571045 21.6000195 278.5468445
129.2808533 20.6088219 278.5318298
129.4659729 19.6247520 278.5199585
129.7220612 18.6918468 278.5122681
130.0254974 17.7736721 278.5065002
130.4194183 16.8984356 278.5119629
130.9021912 16.0596600 278.5191345
131.4608307 15.2332220 278.5393677
132.0967407 14.3989058 278.5590210
132.8376465 13.5984955 278.5892944
133.6560516 12.8442545 278.6254578
134.5617371 12.1100912 278.6663208
135.6336823 11.4279146 278.7210388
136.9346313 10.7988682 278.7914124
138.6378174 10.1925697 278.8916016
132.3261871 30.9510403 278.0332947
131.1203461 29.4440651 277.9149475
130.3725128 28.1146069 277.8304749
129.8661957 26.8964329 277.7657471
130.0955048 17.7974663 277.5482788
130.4981689 16.9173508 277.5523987
130.9662628 16.0832539 277.5627441
131.5095062 15.2420855 277.5774231
133.6722717 12.8603363 277.6606445
134.5958405 12.1211176 277.7030334
135.6752472 11.4390984 277.7568665
137.0045319 10.8067102 277.8291321
131.2765350 29.4944820 276.9576721
130.5093536 28.1469193 276.8734741
130.0065613 26.9346313 276.8069153
130.2350769 17.8346462 276.5953369
130.6331940 16.9565048 276.5963135
131.0876465 16.1145287 276.6060791
131.6144562 15.2775383 276.6217651
133.8105774 12.9003878 276.7064514
134.7658234 12.1723919 276.7468567
135.8234100 11.4947176 276.8026733
137.1380463 10.8586597 276.8710022
130.7617798 28.2424564 275.9236755
130.2468414 27.0279274 275.8569946
129.8908997 25.8794117 275.8032532
129.6595154 24.7792568 275.7624207
129.5336151 23.7185764 275.7301636
129.4981995 22.7284718 275.6974182
129.5371094 21.7131786 275.6823425
129.6757355 20.7229748 275.6596985
129.8788300 19.7467804 275.6547241
130.1337738 18.8223515 275.6436462
130.4362488 17.8971786 275.6472778
130.8258820 17.0317478 275.6491699
131.2888794 16.1857758 275.6560974
131.8204041 15.3377800 275.6687622
134.0540314 12.9612017 275.7545776
135.0081024 12.2453346 275.7973938
136.0959015 11.5604830 275.8500366
131.0772552 28.3642941 274.9703979
130.5589294 27.1173954 274.9141846
130.1720886 25.9568691 274.8604126
129.9416046 24.8798409 274.8149414
129.8188019 23.8218937 274.7841187
129.7719269 22.8046913 274.7558289
129.8136444 21.7922440 274.7346497
129.9416962 20.8016567 274.7190552
130.1497345 19.8314056 274.7142029
130.4217224 18.9003582 274.6946716
130.7327423 17.9822025 274.6998901
131.1345673 17.1169147 274.7083435
131.5974274 16.2866669 274.7104187
132.1072083 15.4219809 274.7297058
134.3413391 13.0618448 274.8108826
135.3174744 12.3394938 274.8553467
136.4685822 11.6728840 274.9071655
137.8319092 11.0796289 274.9877930
130.9839478 27.2538624 273.9775085
130.5708923 26.0809193 273.9217529
130.3216248 24.9981861 273.8727417
130.1902008 23.9403725 273.8408203
130.1313782 22.9169903 273.8173523
130.1702271 21.9238300 273.7848511
130.2899933 20.9081440 273.7754211
130.4992676 19.9578400 273.7585144
130.7548523 19.0168991 273.7607422
131.0749512 18.0994453 273.7575073
131.4987793 17.2343063 273.7636719
132.4657135 15.5392265 273.7882690
134.7421265 13.1656008 273.8712769
135.7327728 12.4727983 273.9167786
136.9468842 11.8295050 273.9727173
138.3686371 11.2506580 274.0576782
131.5363007 27.4467888 273.0395203
131.1072388 26.2726593 272.9886475
130.8031616 25.1447124 272.9450378
130.6511078 24.0843697 272.9085693
130.5877228 23.0796928 272.8711243
130.5768585 22.0400314 272.8668823
130.6903534 21.0386372 272.8403931
130.8911591 20.0713749 272.8296204
131.1444550 19.1365910 272.8206482
131.4873810 18.2334461 272.8245239
131.9013672 17.3673973 272.8277893
132.3565521 16.5200157 272.8316956
132.9313049 15.6816053 272.8538208
135.2388916 13.3271389 272.9389954
136.2978821 12.6441221 272.9867859
137.5237579 12.0311384 273.0549622
132.1799774 27.6249447 272.1174622
131.7443237 26.4664745 272.0704956
131.3968506 25.3290634 272.0128174
131.2058105 24.2702198 271.9769287
131.1181488 23.2650833 271.9430237
131.1094666 22.2303925 271.9173889
131.2276001 21.2049294 271.9038391
131.4101715 20.2380505 271.8965454
131.6637421 19.3165169 271.8887939
132.0149994 18.4002247 271.8851929
132.4043121 17.5221367 271.8944702
132.8828735 16.6852112 271.9047852
133.4995422 15.8610563 271.9158936
134.2232819 15.0439816 271.9351196
134.9707947 14.2613316 271.9799805
135.8977814 13.5351400 272.0155334
137.0020905 12.8738022 272.0706787
138.2898102 12.2638540 272.1346741
132.5169525 26.7157936 271.1541443
132.1089325 25.5581532 271.1022339
131.8599091 24.4885788 271.0565186
131.7395172 23.4604969 271.0209961
131.7415314 22.4413509 271.0061646
131.8694458 21.4143982 270.9687500
132.0205383 20.4228592 270.9744568
132.2856140 19.4961090 270.9646301
132.6151581 18.6000652 270.9628906
133.0085449 17.7326832 270.9787292
133.5213776 16.9071903 270.9756775
134.1310425 16.0867863 271.0061035
134.8750000 15.2548981 271.0256042
135.6986542 14.4955349 271.0619202
136.7207031 13.8059139 271.1033936
137.8949585 13.1600971 271.1630249
132.9811707 25.8439274 270.1956482
132.6763000 24.7362633 270.1500244
132.5092926 23.6949234 270.1174622
132.5174408 22.6949539 270.0721741
132.5675507 21.6290703 270.0693665
132.7554779 20.6657772 270.0476685
133.0134277 19.7332516 270.0518494
133.3624115 18.8388920 270.0388184
133.7787323 17.9731026 270.0475769
134.2716370 17.1606579 270.0664978
134.9421692 16.3369503 270.0740967
135.6876526 15.5198488 270.1249695
136.6758881 14.7800245 270.1487427
137.7427063 14.1156893 270.1952820
133.5144806 24.0136127 269.2223511
133.4393158 22.9898338 269.1758118
133.4626465 21.9302979 269.1646729
133.6759644 20.9802628 269.1332703
133.9164429 20.0282536 269.1373291
134.2551117 19.1393185 269.1316223
134.6750336 18.2632904 269.1502075
135.2318878 17.4512215 269.1621399
135.9537964 16.6536160 269.1822205
136.7687683 15.8633585 269.2236023
134.7393951 24.4411736 268.3300781
134.6174469 23.3780384 268.2958679
134.6284943 22.3239269 268.2760620
134.7914124 21.3452263 268.2441711
134.9989319 20.3930149 268.2491150
135.3733063 19.5045643 268.2333069
135.8344879 18.6406536 268.2615356
136.5004425 17.8755493 268.2729187
137.2860413 17.0829334 268.2920837
138.1190491 16.2761478 268.3219299
136.0909119 22.8104801 267.3818665
136.1997375 21.7794857 267.3913574
136.4176788 20.8470078 267.3747864
137.3628998 19.1483955 267.3749695
-114.3637390 -20.0065365 239.0602264
-114.0314484 -20.6939869 239.0747070
-113.6204224 -21.3761520 239.0706024
-113.1528015 -22.0022774 239.0998230
-112.5786819 -22.5940800 239.1372986
-115.9044266 -18.1726856 238.3057861
-115.8573608 -18.9506187 238.3004456
-115.7459259 -19.7188110 238.2936401
-115.5240936 -20.4304523 238.3070679
-115.2337494 -21.1427708 238.2949677
-114.8483887 -21.8287792 238.2992401
-114.4249954 -22.4845295 238.3081207
-113.9554138 -23.0777683 238.3038635
-113.3023911 -23.6523876 238.3223419
-112.5296097 -24.1667118 238.3576660
-111.6513443 -24.6705246 238.4204559
-116.8513031 -17.7390118 237.5450439
-116.8744965 -18.5189304 237.5339355
-116.8218079 -19.2984028 237.5298920
-116.6922607 -20.0703754 237.5197296
-116.4745026 -20.7854881 237.5153351
-116.1579666 -21.4920807 237.5313721
-115.8103638 -22.1859131 237.5321808
-115.3905716 -22.8287659 237.5449829
-114.8898010 -23.4328461 237.5639648
-114.3355408 -24.0225620 237.5735321
-113.7065430 -24.5937347 237.5696869
-112.8860474 -25.1091499 237.6075897
-112.0026779 -25.6000118 237.6311798
-117.6174698 -17.2309418 236.7924500
-117.6684189 -18.0526028 236.7923431
-117.6682358 -18.8080711 236.7772522
-117.5924759 -19.5908203 236.7529602
-117.3823395 -20.3187027 236.7770233
-117.1646194 -21.0391541 236.7684021
-116.9128189 -21.7542953 236.7655029
-116.5806351 -22.4645653 236.7698212
-116.1881485 -23.1127205 236.7757721
-115.7225113 -23.7229366 236.7887726
-115.2018814 -24.3300438 236.7913208
-114.5931931 -24.9275169 236.8075104
-113.9252167 -25.4749241 236.8189697
-113.0823898 -25.9838829 236.8459015
-118.0636978 -15.7412271 236.0549774
-118.2437668 -16.6228352 236.0497437
-118.3801117 -17.5227222 236.0199127
-118.3940125 -18.3262215 236.0221100
-118.3410950 -19.0741520 236.0145874
-118.1960144 -19.8137665 236.0159607
-117.9921494 -20.5442085 236.0259705
-117.8085861 -21.2812214 236.0044403
-117.5592499 -22.0025997 236.0053253
-117.2321701 -22.7084961 236.0155792
-116.8682785 -23.3634644 236.0067596
-116.3952179 -23.9748459 236.0225372
-115.8572083 -24.5646591 236.0496826
-115.2946854 -25.1674614 236.0558014
-114.6699677 -25.7472534 236.0698090
-113.9372025 -26.2966652 236.0764465
-113.0486526 -26.8000660 236.1133270
-112.0706635 -27.2382946 236.1539001
-118.7544861 -16.0015583 235.3029633
-118.8996887 -16.8769455 235.2887878
-118.9818726 -17.7485561 235.2751465
-118.3876801 -21.4898872 235.2555237
-118.1087570 -22.2000923 235.2610779
-117.7685623 -22.9055882 235.2553406
-117.3684311 -23.5636463 235.2650299
-116.9226913 -24.1760845 235.2865295
-116.4389801 -24.7887669 235.2896729
-115.8865891 -25.3870773 235.3069153
-115.2785263 -25.9744453 235.3190918
-114.5813065 -26.5453548 235.3415985
-113.8022919 -27.0657177 235.3486328
-112.8785706 -27.5223751 235.3701935
-111.8054504 -27.9507465 235.4288177
-119.1239853 -15.3400183 234.5682983
-119.3135757 -16.2202911 234.5501404
-119.4304123 -17.0801449 234.5363617
-119.4833527 -17.9389400 234.5258026
-118.8688278 -21.6819515 234.5037689
-118.5673981 -22.3744621 234.5043030
-118.1850739 -23.0596771 234.5238037
-117.8213120 -23.7182198 234.5201416
-117.4422684 -24.3699894 234.5138245
-116.9748764 -24.9788570 234.5288544
-116.4178848 -25.5827961 234.5507355
-115.8321686 -26.1771736 234.5599518
-115.1600723 -26.7550468 234.5737305
-114.3835144 -27.2835541 234.6032410
-113.5277710 -27.7572060 234.6247253
-112.5606384 -28.1960850 234.6450653
-119.5925980 -15.5177298 233.8184052
-119.7594986 -16.3923454 233.8022461
-119.2739029 -21.8318672 233.7580566
-118.9475021 -22.5260258 233.7638550
-118.5808334 -23.2078056 233.7824097
-118.2383575 -23.8720875 233.7776947
-117.8470993 -24.5056705 233.7781830
-117.3728409 -25.1379490 233.7919464
-115.6226730 -26.9207573 233.8360291
-114.8743286 -27.4632492 233.8533478
-114.0693893 -27.9624481 233.8733368
-113.1510620 -28.4190693 233.8974152
-112.0712204 -28.8452072 233.9324493
-119.7678528 -14.7845621 233.0890503
-119.9873428 -15.6656532 233.0735321
-120.1312485 -16.5193214 233.0605011
-119.6110535 -21.9637413 233.0202942
-119.3056030 -22.6607761 233.0195770
-118.9711151 -23.3473587 233.0234375
-118.5988235 -24.0041790 233.0348663
-118.1748505 -24.6429596 233.0541382
-117.7320786 -25.2727833 233.0529175
-116.0299454 -27.0576363 233.0854034
-115.2920532 -27.6180534 233.1103363
-114.5308990 -28.1246471 233.1252289
-113.6382370 -28.6039219 233.1529388
-112.6191177 -29.0281277 233.1765900
-111.3934250 -29.4391365 233.2343292
-119.8722534 -14.0522318 232.3628387
-120.1374359 -14.9278259 232.3443146
-118.5013885 -24.7604771 232.2912903
-118.0617981 -25.3878670 232.3096619
-114.8705444 -28.2463512 232.3831635
-114.0230789 -28.7340393 232.4037018
-113.0551071 -29.1812572 232.4274139
-120.1897354 -14.1787500 231.6192474
-120.4440918 -15.0500269 231.6027679
-118.7498932 -24.8513985 231.5679779
-118.3178940 -25.4812412 231.5671997
-115.0882874 -28.3446198 231.6564331
-114.2688293 -28.8311787 231.6742859
-113.3410568 -29.2922096 231.6960754
-112.2824478 -29.7510777 231.7331696
-120.4360580 -14.2638474 230.8821564
-120.6865845 -15.1434851 230.8653107
-119.6934433 -23.6297684 230.8193665
-119.3398285 -24.2806931 230.8245239
-118.9545593 -24.9282455 230.8302612
-118.4824371 -25.5552940 230.8424988
-116.7724228 -27.3240833 230.8746796
-116.0794678 -27.8901348 230.8914795
-115.3319778 -28.4226246 230.9064026
-114.5190964 -28.9191666 230.9335480
-113.6197739 -29.3908920 230.9523621
-112.5891190 -29.8448505 230.9842987
-120.3123169 -13.4589176 230.1620789
-120.6255798 -14.3466806 230.1428375
-120.8622284 -15.2019243 230.1302948
-119.8424988 -23.6801376 230.0878448
-119.5023041 -24.3471031 230.0907135
-119.1008224 -24.9856625 230.0973358
-118.6065216 -25.5952511 230.1066742
-116.9057541 -27.3725700 230.1447296
-116.2387238 -27.9523716 230.1580048
-115.5227661 -28.4928932 230.1739960
-114.7271576 -29.0033569 230.1947937
-113.8415298 -29.4787331 230.2174225
-112.8315277 -29.9165745 230.2437439
-120.4409790 -13.5043831 229.4272614
-119.9576340 -23.7261162 229.3557739
-119.6053085 -24.3942432 229.3600464
-119.1845016 -25.0199127 229.3672028
-118.6831284 -25.6277485 229.3800812
-118.1726227 -26.2203560 229.3892670
-117.6302490 -26.8165684 229.4005280
-114.0000381 -29.5396118 229.4828491
-113.0160599 -29.9735050 229.5057526
-111.7547073 -30.4122524 229.5458374
-119.4213867 -11.3851299 228.7429352
-120.0918121 -12.5285940 228.7138824
-120.5262070 -13.5412874 228.6926575
-120.0088501 -23.7501907 228.6277618
-119.6373444 -24.4147892 228.6334839
-119.2229080 -25.0414543 228.6405182
-118.7641144 -25.6473446 228.6473389
-118.2699585 -26.2527885 228.6561127
-117.7291412 -26.8407669 228.6670837
-114.1124115 -29.5757389 228.7497711
-113.1308365 -30.0109329 228.7728729
-111.8825378 -30.4389973 228.8067017
-119.4606628 -11.4152336 228.0081177
-120.1236191 -12.5581093 227.9810028
-120.5479126 -13.5455894 227.9620209
-120.0122681 -23.7414837 227.9011383
-119.6518555 -24.4075451 227.9059448
-118.2944107 -26.2558670 227.9299316
-117.7455521 -26.8440151 227.9408264
-111.9259415 -30.4524155 228.0737762
-119.4144363 -11.3892164 227.2776794
-120.0795364 -12.5271502 227.2514648
-120.5255814 -13.5379381 227.2323303
-119.9822998 -23.7282524 227.1755981
-119.6390381 -24.4018230 227.1799316
-118.2679977 -26.2331905 227.2036438
-117.7199554 -26.8426399 227.2138214
-111.9015961 -30.4469070 227.3426666
-120.0054779 -12.4849520 226.5216827
-120.4607544 -13.5306196 226.5054169
-119.9291306 -23.7089138 226.4499512
-119.5902405 -24.3819656 226.4560394
-119.1635818 -25.0182629 226.4606934
-118.6934128 -25.6297607 226.4682312
-118.2040405 -26.2283630 226.4779053
-117.6931534 -26.8282528 226.4868774
-117.1035995 -27.4440002 226.4980927
-116.4413910 -28.0328522 226.5112000
-114.0654755 -29.5603371 226.5625458
-113.0816727 -29.9877663 226.5864868
-111.8411789 -30.4156628 226.6127014
-120.3298035 -13.4677362 225.7763977
-119.8255920 -23.6926289 225.7328796
-119.4795990 -24.3456688 225.7291870
-119.0686111 -24.9702263 225.7382965
-118.5913086 -25.5829163 225.7451782
-118.1033630 -26.1995335 225.7522278
-117.6068802 -26.8000984 225.7635345
-117.0033188 -27.4100494 225.7723541
-116.3181076 -27.9993477 225.7861023
-113.9437943 -29.5126572 225.8354340
-112.9278717 -29.9481850 225.8592682
-120.1462479 -13.3806562 225.0452271
-120.4589539 -14.3074541 225.0387878
-120.6956100 -15.1719398 225.0281677
-120.2807617 -22.2031784 224.9990692
-119.9813156 -22.9049892 224.9968872
-119.6450119 -23.6170025 224.9989471
-119.3074265 -24.2757225 225.0124359
-118.8986511 -24.9020920 225.0205688
-118.4224472 -25.5218372 225.0197754
-117.9602966 -26.1382637 225.0304871
-117.4582291 -26.7554340 225.0385895
-116.8420486 -27.3565483 225.0507050
-116.1300659 -27.9330750 225.0615082
-115.4261703 -28.4657478 225.0794983
-114.6270523 -28.9888248 225.0914459
-113.7535934 -29.4561043 225.1114502
-112.7446442 -29.8806629 225.1348572
-120.2372742 -14.2442198 224.3174438
-120.4620361 -15.0820370 224.3028870
-120.0849075 -22.1185684 224.2753754
-119.7816925 -22.8352985 224.2761688
-119.4421310 -23.5579338 224.2771606
-119.0869751 -24.2320461 224.2800293
-118.6928253 -24.8478031 224.2866364
-118.2467651 -25.4678078 224.2951050
-117.7923660 -26.0819817 224.3056793
-117.2734070 -26.6796093 224.3222961
-116.5785751 -27.2753010 224.3274384
-115.8669968 -27.8567715 224.3362122
-115.2048645 -28.3958321 224.3550262
-114.4156952 -28.9072552 224.3698883
-113.5134735 -29.3678284 224.3898773
-112.4687805 -29.7947159 224.4077301
-119.9440994 -14.0977068 223.5859680
-120.1971588 -14.9972639 223.5833435
-120.2844391 -20.6468124 223.5511017
-120.0899506 -21.3531399 223.5524292
-119.2515030 -23.4698372 223.5637512
-118.9006271 -24.1415043 223.5656586
-118.5036087 -24.7817707 223.5734406
-118.0580521 -25.3953915 223.5760193
-117.5758514 -26.0046711 223.5832825
-116.9831314 -26.6048985 223.5882111
-116.3079834 -27.1922779 223.5990143
-115.6681976 -27.7625790 223.6182098
-114.9460602 -28.3131733 223.6353455
-114.1060867 -28.8105717 223.6466675
-113.1781158 -29.2530937 223.6679382
-112.1180344 -29.6619873 223.6867371
-119.8771133 -14.8709097 222.8613434
-119.9908447 -20.5379925 222.8255157
-119.8149261 -21.2529411 222.8363495
-118.9886703 -23.3751335 222.8402557
-118.6334839 -24.0506420 222.8369446
-118.2351303 -24.6929951 222.8483582
-117.7849655 -25.3049412 222.8515472
-117.3014221 -25.9005451 222.8694611
-116.7261658 -26.4902420 222.8762817
-116.0888901 -27.0820656 222.8899078
-115.3645248 -27.6634636 222.8914337
-114.5993576 -28.1847954 222.9119263
-113.7282639 -28.6684017 222.9232635
-112.7644958 -29.0987186 222.9422607
-111.6587982 -29.4958611 222.9636688
-119.4840317 -14.7109804 222.1327057
-119.7164230 -15.5995464 222.1318207
-119.8752213 -16.4425869 222.1238556
-119.9628906 -17.2924004 222.1182556
-119.9721832 -18.1411972 222.1086578
-115.7231750 -26.9548321 222.1635132
-114.9681625 -27.5310364 222.1703186
-114.1668472 -28.0466118 222.1874084
-113.2936401 -28.5092564 222.2078705
-112.2777481 -28.9223194 222.2266998
-119.2694778 -15.4099398 221.4086151
-119.4395370 -16.2750549 221.4013062
-119.5379944 -17.1207542 221.3955078
-119.5712128 -17.9793625 221.3920135
-115.3020248 -26.8041687 221.4406891
-114.5311432 -27.3653164 221.4573364
-113.6872787 -27.8718395 221.4720459
-112.7490387 -28.3212528 221.4906921
-111.6564178 -28.7219486 221.5009460
-118.7531204 -15.2114124 220.6827545
-118.9314499 -16.0791378 220.6831055
-119.0425262 -16.9257412 220.6701355
-119.1114197 -17.8105984 220.6717987
-119.1011429 -18.6330929 220.6669312
-119.0190887 -19.4065514 220.6721802
-117.0375366 -24.2742329 220.6861572
-116.5828171 -24.8924980 220.6956787
-116.0879822 -25.4720573 220.7045288
-115.5113144 -26.0489349 220.7156982
-114.7983017 -26.6219444 220.7203674
-113.9730911 -27.1679020 220.7368164
-113.0659332 -27.6492577 220.7493896
-118.3579636 -15.8430338 219.9638214
-118.4895554 -16.7084904 219.9619141
-118.5842514 -17.6093044 219.9597778
-118.5738831 -18.4340363 219.9502716
-118.4776154 -19.2076550 219.9417725
-116.5203705 -24.0956688 219.9762726
-116.0468140 -24.6965370 219.9787598
-115.5233307 -25.2695065 219.9814911
-114.9282379 -25.8388100 219.9983368
-114.1933594 -26.4043427 220.0088959
-113.2898407 -26.9252319 220.0150452
-112.3154297 -27.3819809 220.0300751
-117.7949753 -16.4356995 219.2289276
-117.9167252 -17.3610611 219.2339325
-117.9359131 -18.2016907 219.2308350
-117.8572006 -18.9720364 219.2222443
-115.8742828 -23.8692513 219.2286072
-115.4098587 -24.4596634 219.2518463
-114.8595505 -25.0298195 219.2618866
-114.2136230 -25.5852623 219.2620239
-113.4527054 -26.1363964 219.2897797
-112.5145416 -26.6370506 219.3077393
-111.4465637 -27.0835533 219.3031158
-117.0152817 -16.1432915 218.5045929
-117.1583405 -17.0784321 218.5222778
-117.2199020 -17.9251919 218.5198517
-117.1692886 -18.7123737 218.5158997
-115.2066650 -23.6142559 218.5508728
-114.6753235 -24.1837482 218.5383148
-114.1146393 -24.7431526 218.5493317
-113.4430542 -25.2843418 218.5604401
-112.5849991 -25.8057213 218.5753784
-116.2710037 -16.7146339 217.7878265
-116.3647461 -17.6062717 217.8034821
-116.3325577 -18.4021511 217.8012848
-116.2083206 -19.1273365 217.7812042
-116.0732498 -19.8440151 217.7877197
-115.8956375 -20.5573940 217.8006592
-115.6211472 -21.2687187 217.8046417
-115.2410889 -22.0030193 217.8019409
-114.7991562 -22.6738205 217.8052368
-114.2887573 -23.2878456 217.8114624
-113.7722778 -23.8483219 217.8231354
-113.1933899 -24.4064369 217.8465118
-112.4368973 -24.9192657 217.8428192
-115.1173019 -19.4689865 217.0863647
-114.9353027 -20.1912994 217.0827942
-114.6603241 -20.9081688 217.0811310
-114.3001022 -21.6565266 217.0924225
-112.6819077 -23.4599628 217.0966949
-111.9771118 -23.9713955 217.0948486
-113.8891449 -19.0319786 216.3859253
-113.4439240 -20.4389229 216.3526917
11.1034393 1.8426905 213.8077698
11.2254820 0.9462382 213.7966309
9.5625086 2.2220283 212.9097748
9.5954647 1.3110054 212.9109192
9.7851801 0.4543630 212.9234009
10.0759163 -0.3717587 212.9217529
10.4598045 -1.1463801 212.9222717
10.9029093 -1.8688173 212.9154510
11.5260057 -2.5776725 212.9386597
12.2016563 -3.2671916 212.9480286
8.5025215 3.6651592 212.0645294
8.4038687 2.7331102 212.0618896
8.4004517 1.8204327 212.0688782
8.4855032 0.9430079 212.0638275
8.7097540 0.0832757 212.0853424
8.9642763 -0.7680913 212.0624695
9.3446026 -1.5309480 212.0829010
9.7651815 -2.2850788 212.0758972
10.3121576 -2.9841576 212.0847931
10.9776211 -3.6660178 212.0857391
11.7574186 -4.3299618 212.0956879
12.7193537 -4.9512753 212.1468964
7.7145023 4.2874274 211.2062378
7.5187001 3.3165798 211.2026978
7.4617968 2.4182205 211.2037506
7.5098586 1.5274607 211.2109528
7.6155601 0.6532944 211.2117004
9.3441572 -3.3238525 211.2342224
9.9632015 -4.0170608 211.2388916
10.6728077 -4.6778350 211.2332611
11.5335941 -5.3173528 211.2374573
12.5189180 -5.9407516 211.2744141
7.0735345 4.9694161 210.3401794
6.8434343 3.9736073 210.3479614
6.7337456 3.0485718 210.3562317
6.7190533 2.1611013 210.3576660
6.7784996 1.2816032 210.3572388
6.9074039 0.4175342 210.3721771
8.5583830 -3.5827219 210.3770752
9.1385164 -4.2970948 210.3884277
9.8026905 -4.9772038 210.3884888
10.5858278 -5.6361880 210.3810272
11.5283499 -6.2534823 210.3939362
12.5500669 -6.8199949 210.4234772
6.6619663 5.7758675 209.4937744
6.3371792 4.7163510 209.4911041
6.1478567 3.7356524 209.4974518
6.0626836 2.8116200 209.4965668
6.0673552 1.9223303 209.5011749
6.1454930 1.0499947 209.5040436
6.2886720 0.1897051 209.5122986
6.4808950 -0.6770162 209.5158234
6.7475204 -1.5353575 209.5136566
7.9656596 -3.7956452 209.5415039
8.4825325 -4.5063882 209.5275421
9.1378927 -5.2059784 209.5445557
9.9037180 -5.8843117 209.5524292
10.7489862 -6.5222931 209.5493469
11.6582003 -7.1019230 209.5504608
6.0218015 5.5574307 208.6398163
5.7372756 4.5097709 208.6461334
5.5912228 3.5377653 208.6502991
5.5381675 2.6366017 208.6494293
5.5454712 1.7411461 208.6486206
5.6288605 0.8654732 208.6472931
5.7800117 0.0158597 208.6664886
5.9656706 -0.8628177 208.6616821
6.2426138 -1.7110095 208.6679840
7.4236612 -3.9640763 208.6800842
7.9479384 -4.6963263 208.6902008
8.5492105 -5.3895478 208.6878662
9.3051987 -6.0903168 208.7030640
10.1014528 -6.7481065 208.6961823
10.9923773 -7.3295732 208.7028809
11.9875078 -7.8781319 208.7042694
5.8497305 6.4055381 207.7840424
5.4859309 5.3690076 207.7883453
5.2507277 4.3220296 207.7874146
5.1824789 3.3771946 207.7969513
5.1724696 2.4980335 207.8029327
5.2022734 1.6131333 207.8034515
5.5553622 -1.0129825 207.8072815
5.8372936 -1.8420846 207.8225250
6.1884174 -2.6300366 207.8371887
6.5550566 -3.3817396 207.8304291
6.9670258 -4.1145663 207.8290100
7.4872284 -4.8451977 207.8343658
8.1052256 -5.5533190 207.8408966
8.8180532 -6.2549701 207.8465576
9.5801563 -6.9280591 207.8472748
10.4612722 -7.5217037 207.8609161
11.4370842 -8.0681286 207.8552246
12.6399746 -8.6291351 207.8812408
5.4012809 6.2535391 206.9334106
5.0670304 5.2144003 206.9378815
4.9287710 4.2058468 206.9460144
4.8968258 3.2670233 206.9554443
4.8821239 2.3881097 206.9560394
4.9073520 1.5293592 206.9540558
5.2534995 -1.1049563 206.9686737
5.5083466 -1.9598466 206.9702759
5.8351130 -2.7541137 206.9786987
6.1938863 -3.5128880 206.9851227
6.6102886 -4.2400923 206.9805756
7.1452608 -4.9613032 206.9936676
7.7484622 -5.6674099 206.9935303
8.4530840 -6.3890595 207.0005798
9.1728497 -7.0634999 207.0031281
9.9957380 -7.6637259 207.0032654
10.9676037 -8.2356615 207.0112457
12.0798712 -8.7864084 207.0108643
5.0306244 6.1253610 206.0848083
4.7673864 5.1054296 206.0874023
4.6795840 4.1349030 206.1084747
4.6092515 3.1437044 206.0950317
4.5882626 2.2953806 206.1079865
4.6166883 1.4487218 206.1181641
4.6901727 0.5478225 206.1124878
4.8158174 -0.3247559 206.1196289
4.9958606 -1.1923168 206.1269531
5.2230945 -2.0637486 206.1218109
5.5187693 -2.8524721 206.1292114
5.8911014 -3.5993488 206.1363831
6.3427954 -4.3363843 206.1452942
6.8567433 -5.0562477 206.1403503
7.4641857 -5.7723317 206.1500549
8.1546030 -6.4962997 206.1571198
8.8560076 -7.1743641 206.1517792
9.6823921 -7.7911582 206.1645355
10.5958395 -8.3688869 206.1680450
11.6631479 -8.9261389 206.1629181
13.0058699 -9.4787283 206.1831665
5.1376042 7.0744252 205.2272644
4.7655864 6.0412126 205.2389221
4.5404310 5.0110369 205.2414246
4.4231153 4.0081000 205.2465515
4.3439474 3.0595069 205.2559509
4.3177962 2.1705093 205.2532654
4.3512683 1.3255805 205.2597351
4.4373293 0.4685908 205.2673187
4.5771227 -0.4029030 205.2723389
4.7713666 -1.2769697 205.2795715
5.0170116 -2.1439428 205.2842560
5.3147144 -2.9334633 205.2856750
5.6801543 -3.6829178 205.2880554
6.1194372 -4.4067588 205.2970581
6.6290359 -5.1342316 205.2960815
7.2507091 -5.8556824 205.3060913
7.9140434 -6.5718455 205.3094635
8.5966177 -7.2661643 205.3082275
9.3662510 -7.8887949 205.3103027
10.2612591 -8.4844942 205.3153534
11.3187523 -9.0440445 205.3162537
12.6164465 -9.5781164 205.3216248
6.2140603 9.3294048 204.3690033
5.4390759 8.1210585 204.3766937
4.9240632 7.0051675 204.3833313
4.5733323 5.9561877 204.3889160
4.3656282 4.9394217 204.3959503
4.2229700 3.9156768 204.4003906
4.1454453 2.9761856 204.4067841
4.1363344 2.1260865 204.4144135
4.1737313 1.2804806 204.4173279
4.6020060 -1.3487374 204.4307861
4.8671198 -2.2118378 204.4405975
8.4110718 -7.3444934 204.4621124
9.1451349 -7.9686160 204.4659271
10.0270004 -8.5689039 204.4697723
11.0633240 -9.1322832 204.4709625
12.3321915 -9.6569977 204.4735413
7.1310840 10.5843544 203.5090637
6.0469642 9.2663918 203.5171356
5.2979579 8.0828762 203.5264893
4.7925396 6.9660664 203.5345764
4.4684529 5.9330692 203.5420380
4.2522855 4.9143267 203.5491791
4.1066794 3.8841593 203.5548553
4.0450377 2.9449792 203.5609589
4.0304422 2.0786161 203.5652466
4.0583220 1.2260395 203.5716248
4.4685779 -1.4048179 203.5838776
4.7325406 -2.2501323 203.5900116
8.2848873 -7.3856373 203.6162872
9.0369425 -8.0249882 203.6218109
9.8815060 -8.6158228 203.6226349
10.8749771 -9.1876316 203.6226959
12.1326427 -9.7268076 203.6233215
5.9386878 9.2453108 202.6654205
4.3852468 5.9047289 202.6928864
4.1554980 4.8780737 202.7010803
4.0431271 3.8616984 202.7083893
3.9944441 2.9189138 202.7136688
3.9569435 2.0573795 202.7204132
3.9669089 1.1958381 202.7237549
4.0409174 0.3274761 202.7303619
4.1848488 -0.5341694 202.7364349
4.3996148 -1.4310515 202.7412109
4.6593347 -2.2705612 202.7463684
6.8460770 -5.9765158 202.7628784
7.5015349 -6.7100334 202.7690430
8.2043447 -7.4096122 202.7706299
8.9612017 -8.0438843 202.7727203
9.8009253 -8.6453047 202.7755890
10.7868586 -9.2247562 202.7762146
12.0229139 -9.7479753 202.7764282
7.0422106 10.5725574 201.8004150
5.9669299 9.2497635 201.8161774
4.3391857 5.8815598 201.8449249
4.1053042 4.8378077 201.8517151
3.9760718 2.9115472 201.8672638
3.9361260 2.0450511 201.8736420
3.9472845 1.1871966 201.8788147
4.0245228 0.3131244 201.8844604
4.1787267 -0.5429367 201.8895721
4.3848848 -1.4177824 201.8953247
4.6319790 -2.2848172 201.9003448
6.8186564 -5.9986210 201.9199066
7.4527125 -6.7236433 201.9218140
8.1955309 -7.4191589 201.9245453
8.9474068 -8.0431604 201.9261322
9.7947083 -8.6523228 201.9274292
10.7688789 -9.2176790 201.9292450
12.0262365 -9.7447414 201.9279175
13.5258865 -10.2562466 201.9252930
7.1402912 10.5719681 200.9498596
6.0677934 9.2803106 200.9653015
5.2964816 8.0829659 200.9767609
4.7830420 6.9816909 200.9859772
4.4073081 5.9120970 200.9950562
4.1724544 4.8744507 201.0060272
4.0755744 3.8787367 201.0093079
4.0156693 2.9391444 201.0180664
4.0027680 2.0728912 201.0234375
4.0112553 1.1954118 201.0335999
4.0768647 0.3323737 201.0399933
4.2323728 -0.5313197 201.0446930
4.4335222 -1.4134794 201.0501251
4.6708469 -2.2690492 201.0550232
5.8015184 -4.5190320 201.0655518
6.3086448 -5.2511454 201.0696716
6.8480463 -5.9935141 201.0733948
7.4751215 -6.7085981 201.0773468
12.0966444 -9.7217798 201.0793762
7.2974324 10.6587257 200.0916901
6.2234745 9.3487358 200.1075897
5.4677725 8.1290369 200.1266937
4.9384818 7.0006680 200.1379395
4.5589657 5.9504504 200.1474152
4.3079557 4.9272084 200.1561432
4.1480260 3.8924809 200.1661530
4.1027784 2.9560354 200.1697235
4.1124487 2.0931056 200.1764526
4.1263771 1.2266600 200.1889191
4.1972990 0.3769714 200.1918793
4.3514795 -0.4869334 200.1942139
4.5431728 -1.3575383 200.2029877
4.7801065 -2.2353222 200.2124329
5.8981333 -4.4886031 200.2191315
6.3952699 -5.2198396 200.2247620
6.9433122 -5.9665203 200.2284241
7.5974302 -6.6806636 200.2300873
12.2370958 -9.6713810 200.2307434
5.1997342 7.0814099 199.2939758
4.7930222 6.0338955 199.2980499
4.5032434 4.9984050 199.3026733
4.3030396 3.9405005 199.3182983
4.2469230 2.9975188 199.3244476
4.2546263 2.1470041 199.3248291
4.2730770 1.3056617 199.3308105
4.3498425 0.4273747 199.3426056
4.5012784 -0.4334694 199.3515930
4.6956139 -1.3071012 199.3505554
4.9301143 -2.1845608 199.3611298
5.2347045 -2.9755781 199.3650970
5.6157413 -3.7192194 199.3703461
7.1223841 -5.8979092 199.3753662
7.7961931 -6.6162457 199.3763428
10.2069921 -8.5186739 199.3808289
11.2539005 -9.0769606 199.3779144
12.5070677 -9.6017056 199.3747406
5.0659857 6.1114292 198.4510956
4.7434630 5.0622177 198.4578247
4.5590191 4.0620255 198.4632263
4.4603152 3.0812893 198.4740448
4.4175501 2.1898584 198.4833679
4.4360971 1.3251425 198.4910278
4.5369883 0.4755669 198.5007477
4.6989064 -0.3667408 198.5000458
4.8817019 -1.2507050 198.5120850
5.1304579 -2.1235094 198.5104675
5.4484100 -2.9075913 198.5235443
5.8514380 -3.6455958 198.5212402
7.3526936 -5.8212395 198.5362091
8.0389099 -6.5345879 198.5327606
10.4860678 -8.4198618 198.5334015
11.5619354 -8.9646101 198.5301208
5.4269228 6.2460585 197.5951843
5.0799694 5.1914964 197.6082611
4.8845191 4.1635900 197.6100311
4.7544570 3.1949799 197.6235352
4.6818180 2.2868454 197.6347198
4.7133160 1.4307369 197.6407623
4.8254375 0.5777543 197.6370239
4.9594455 -0.2783117 197.6477661
5.1387482 -1.1671239 197.6686401
5.4175944 -2.0124452 197.6709137
6.5851688 -4.2894788 197.6777039
7.0742331 -5.0065484 197.6802368
9.1207771 -7.1087532 197.6811371
9.9426680 -7.7283106 197.6821899
10.9097481 -8.3038397 197.6749725
11.9971828 -8.8285122 197.6812592
5.8515692 6.4100404 196.7355499
5.5101147 5.3498955 196.7574921
5.2845345 4.3186340 196.7552490
5.1292639 3.3165627 196.7654724
5.0624514 2.4130630 196.7805023
5.0866685 1.5513225 196.7933044
5.1666989 0.6855678 196.7982178
5.3018317 -0.1668997 196.8037262
5.5335474 -1.0083665 196.7915955
5.8111401 -1.8792641 196.8028564
6.9405098 -4.1662369 196.8319397
7.4630713 -4.8790860 196.8244934
9.5212116 -6.9762235 196.8318787
10.3934565 -7.5718927 196.8294830
11.4039230 -8.1314573 196.8179626
12.5670767 -8.6430387 196.8211060
6.0364089 5.5421271 195.8908539
5.7456188 4.4555779 195.9184113
5.5838547 3.4809384 195.9165955
5.6021676 0.8356385 195.9457092
5.7497625 -0.0052008 195.9461212
5.9432697 -0.8753919 195.9605713
6.2039361 -1.7404445 195.9670715
6.5475450 -2.5279467 195.9637909
6.9535751 -3.2783425 195.9669800
7.3936629 -4.0118804 195.9786987
7.9223394 -4.7232738 195.9717712
8.4977541 -5.4295287 195.9787903
9.2048292 -6.1343684 195.9730225
10.0312271 -6.7951226 195.9813690
11.0089579 -7.3872576 195.9629211
12.0051546 -7.9209023 195.9821472
13.2913837 -8.4194975 195.9586945
6.6350622 5.7648597 195.0274200
6.3422971 4.6841297 195.0555573
6.1486988 3.6820021 195.0588684
6.1277771 1.0250163 195.0885315
6.2445374 0.1632030 195.0951538
6.4225326 -0.7108317 195.1056824
6.6921754 -1.5543602 195.1122894
7.0474520 -2.3440971 195.1203918
7.4839191 -3.0943904 195.1065674
7.9451737 -3.8316855 195.1230469
8.4714270 -4.5456686 195.1165314
9.0479822 -5.2482376 195.1314087
9.8086891 -5.9305787 195.1186523
10.6933918 -6.5700779 195.1186523
11.7488165 -7.1495109 195.1032257
7.0861101 4.9414129 194.1959381
6.8454065 3.9210749 194.2065430
6.7186375 2.9847369 194.2178650
6.7028317 2.0949709 194.2171173
6.7255807 1.2239442 194.2352295
6.8412504 0.3706275 194.2346954
7.0348558 -0.4842119 194.2420959
7.3170705 -1.3329723 194.2429962
7.6664505 -2.1375268 194.2539520
8.0966015 -2.8854356 194.2559509
8.5833311 -3.6149485 194.2561340
9.1055031 -4.3183956 194.2626190
9.7461720 -5.0038252 194.2570953
10.5411425 -5.6692753 194.2609558
11.4770327 -6.2959738 194.2682190
12.6212206 -6.8520708 194.2516632
7.9861102 5.2881575 193.3000183
7.6959572 4.2274094 193.3402863
7.5338254 3.2734823 193.3546295
