-17.2067699 -9.9010534 334.0982971
-16.6028938 -10.5266600 334.0627136
-14.5811663 -12.0296574 334.0394897
-13.8482685 -12.4120913 334.0501099
-13.0804787 -12.7609653 334.0632935
-12.2538033 -13.0752964 334.0854797
-11.3858128 -13.3143396 334.1152649
-10.4549274 -13.4594011 334.1870422
-9.5161810 -13.5695944 334.2318420
-8.5086412 -13.5719805 334.3020630
-7.4055576 -13.4419870 334.4049377
-6.2061534 -13.2247324 334.5322876
35.8439445 1.3931236 339.6461182
37.1290016 0.1149864 339.5662231
37.8618355 -0.3280317 339.5727234
38.6810417 -0.6633608 339.6068115
-119.6864929 -22.0533943 323.8566895
-119.2783890 -22.9009037 323.7778320
-117.8341751 -25.0360966 323.6179504
-117.2704391 -25.6545696 323.5801697
-114.1626358 -28.0069790 323.5171204
-113.4627838 -28.3329964 323.5296631
-112.7093353 -28.6260033 323.5469055
-111.9513321 -28.8888283 323.5740356
-107.7685776 -29.3890667 323.8354492
-106.7697983 -29.2799683 323.9205322
-105.7652893 -29.1004009 324.0272217
-104.6553574 -28.7735958 324.1537170
-71.0620346 -12.7841616 328.7745361
-70.7288132 -13.8010769 328.6694641
-70.3675842 -14.7513037 328.5758362
-66.7016754 -19.5677299 328.2427979
-66.0701828 -20.0832157 328.2252197
-54.7748375 -22.0102921 328.8460388
-53.3731918 -21.4721756 329.0230713
-20.1265430 -5.2269158 333.6517639
-19.8087921 -6.2424479 333.5455627
-19.4325676 -7.1593332 333.4659729
-18.9963093 -8.0498304 333.3781738
-18.5233479 -8.8322859 333.3093262
-17.9847927 -9.5219240 333.2615662
-14.7772579 -12.2928352 333.1560669
-14.0515251 -12.6794376 333.1654663
-13.2853012 -13.0500984 333.1650391
-12.4286013 -13.3570976 333.2151184
-11.5796986 -13.6016865 333.2322083
-10.6997061 -13.7844429 333.2797852
-9.7569895 -13.9033270 333.3362732
-8.7200203 -13.9175911 333.4242249
-7.6940813 -13.8500977 333.4960632
-6.4998426 -13.6318283 333.6218872
34.0571327 1.9039094 338.7158203
34.5408440 1.0854723 338.6411133
35.1005211 0.3839334 338.6085205
35.7173729 -0.2834820 338.5646362
36.4190102 -0.8306674 338.5597534
37.1666946 -1.2695686 338.5639343
37.9364433 -1.6583601 338.5573120
39.7282600 -2.1936681 338.6347656
40.7732162 -2.3175018 338.7107239
-119.4567490 -21.6556110 323.1564941
-119.0477066 -22.5145950 323.0827332
-117.6226959 -24.6629581 322.9122009
-117.0693359 -25.3076553 322.8811035
-113.9500732 -27.6503315 322.8176270
-113.2425995 -27.9552097 322.8247070
-112.5051346 -28.2631512 322.8435669
-111.7506104 -28.5451088 322.8722839
-107.5386505 -28.9971695 323.1351318
-106.5426254 -28.8759480 323.2271118
-105.4735107 -28.6373634 323.3339844
-104.3357391 -28.2644348 323.4692993
-71.0177460 -12.7261086 327.9870605
-70.6770935 -13.7475004 327.8830261
-70.3129654 -14.6810856 327.7920532
-66.6357727 -19.4642944 327.4651794
-66.0122986 -19.9973259 327.4460754
-54.7008820 -21.9106579 328.0669556
-53.3389626 -21.4049854 328.2336121
-20.3309059 -5.5550208 332.7631836
-19.9988689 -6.5222006 332.6665039
-19.6047993 -7.4494033 332.5753174
-19.1548138 -8.2960243 332.5066528
-18.6576099 -9.0269451 332.4518127
-18.1188622 -9.7131386 332.4054871
-14.9135351 -12.4960899 332.3023071
-14.1855469 -12.8946781 332.3100281
-13.4211206 -13.2586651 332.3178101
-12.5855045 -13.5625534 332.3420410
-11.7251434 -13.8166628 332.3799133
-10.8619633 -14.0198650 332.4109497
-9.9003887 -14.1274586 332.4798889
-8.9201813 -14.1759920 332.5388794
-7.8853855 -14.1425056 332.6243286
-6.7293973 -13.9653215 332.7352295
32.6328430 2.9280837 337.9062195
32.9975204 1.9337265 337.7801208
33.4393196 1.0957187 337.7190247
33.9682808 0.3271106 337.6599731
34.5396156 -0.3479415 337.6255798
35.1691551 -1.0096165 337.5791931
35.8815231 -1.5420597 337.5672607
36.6043396 -1.9849985 337.5674438
37.3775215 -2.4021184 337.5727844
38.2039185 -2.7623348 337.5744629
39.1254005 -3.0114651 337.6217346
40.0876656 -3.1911285 337.6533508
41.1918221 -3.2678435 337.7527466
-118.7882996 -22.0310078 322.3919983
-118.3436890 -22.8489628 322.3202515
-117.8750687 -23.5680847 322.2669373
-116.2392502 -25.4570770 322.1585693
-115.6317749 -25.9564953 322.1299133
-112.2739410 -27.8840580 322.1521912
-111.5098953 -28.1548424 322.1767578
-110.7266541 -28.3520260 322.2051697
-109.9111404 -28.4970989 322.2488403
-107.2535706 -28.5213776 322.4450378
-106.2409439 -28.3745403 322.5432739
-105.1606522 -28.1118546 322.6611633
-70.5980148 -13.6185904 327.1080322
-70.2316513 -14.5595531 327.0168762
-67.7363815 -18.2542362 326.7413330
-67.1601639 -18.7933216 326.7148132
-66.5462036 -19.3405914 326.6928101
-65.9256516 -19.8634167 326.6760559
-65.2744141 -20.3150902 326.6711121
-64.5685883 -20.7389412 326.6677856
-63.8383942 -21.1125717 326.6763611
-63.0814362 -21.4265709 326.6910095
-56.8958054 -22.2369308 327.0613708
-55.7904434 -22.0658722 327.1663513
-54.6011009 -21.7565670 327.2966614
-53.2170372 -21.2467098 327.4618530
-20.4937000 -5.7819271 331.8996887
-20.1471157 -6.7441964 331.8064575
-19.7411518 -7.6335015 331.7229919
-19.2620983 -8.4383831 331.6631470
-18.7638683 -9.1693811 331.6094971
-18.2302799 -9.8972521 331.5503540
-17.6552372 -10.5864840 331.5101318
-17.0494099 -11.2024555 331.4727478
-10.0003624 -14.2915745 331.6258850
-9.0277357 -14.3597794 331.6880798
-8.0260611 -14.3560791 331.7632446
-6.9125056 -14.2343960 331.8556213
-5.6459775 -14.0002699 331.9902954
32.0942230 2.1823032 336.8846436
32.4906883 1.2706403 336.8074646
32.9691010 0.4384827 336.7304077
33.5210762 -0.2511625 336.7046509
34.1115913 -0.9507287 336.6435242
34.7490387 -1.5919518 336.6061096
35.4368896 -2.1279757 336.5971069
36.1626968 -2.5867860 336.6098328
36.9283180 -3.0040572 336.6065063
37.7542343 -3.3735936 336.6188354
38.6253128 -3.6619644 336.6471252
39.5947800 -3.8669014 336.7015381
40.6078186 -4.0066495 336.7420959
41.7072487 -3.9908049 336.8287048
42.8937302 -3.8514025 336.9725952
-118.4766846 -21.4924717 321.7153931
-118.0492096 -22.3309288 321.6465759
-117.5894012 -23.0637817 321.5780334
-115.9586258 -24.9777241 321.4639587
-115.3573380 -25.5098381 321.4458313
-112.0026398 -27.4156532 321.4536438
-111.2223053 -27.6840744 321.4822693
-110.4464035 -27.8812523 321.5214844
-109.6232452 -28.0078297 321.5702820
-106.9328003 -27.9683342 321.7757874
-105.8919525 -27.7834854 321.8773804
-104.7626572 -27.4580479 321.9970093
-70.4714813 -13.4282207 326.3431702
-70.1173477 -14.3629904 326.2513428
-67.6316147 -18.0693874 325.9785156
-67.0558472 -18.6302662 325.9480896
-66.4417267 -19.1870766 325.9258728
-65.8051834 -19.6784534 325.9091797
-65.1438828 -20.1290932 325.8994141
-64.4585648 -20.5761948 325.9032288
-63.7374573 -20.9579792 325.9085999
-62.9725304 -21.2538204 325.9286194
-56.7196770 -22.0363235 326.2987061
-55.6594582 -21.8710594 326.4029236
-54.4539108 -21.5335140 326.5361938
-20.9166107 -4.8983140 331.1455688
-20.6148243 -5.9890604 331.0295105
-20.2578678 -6.9272947 330.9400024
-19.8322697 -7.7969837 330.8631592
-19.3583221 -8.5873623 330.8028870
-18.8565102 -9.3451281 330.7402344
-18.3243999 -10.0443773 330.6972046
-17.7329750 -10.7154951 330.6562805
-17.1154518 -11.3011761 330.6379700
-10.1073694 -14.4221945 330.7684937
-9.1337509 -14.5055265 330.8332520
-8.1194630 -14.5112963 330.9099426
-7.0271773 -14.4093962 331.0039978
-5.7931714 -14.1840820 331.1224365
31.0086231 3.6493387 336.1413574
31.3161182 2.5690322 336.0191040
31.6632595 1.6084739 335.9230652
32.0908813 0.7190415 335.8506165
32.5962944 -0.0761332 335.7844238
33.1611176 -0.7541275 335.7450256
33.7915688 -1.4040219 335.7349854
34.4261208 -2.0573950 335.6766052
35.0813370 -2.6173141 335.6560669
35.7874908 -3.1028249 335.6388245
36.5598869 -3.4979737 335.6542053
37.4017143 -3.8569176 335.6986694
38.2457809 -4.1841273 335.7006836
39.1791077 -4.4292397 335.7329102
40.1700783 -4.5856872 335.7936707
41.2209091 -4.6266608 335.8563843
42.3527832 -4.5330820 335.9583130
43.6137161 -4.3259039 336.1037903
-118.1174011 -20.8669701 321.0418701
-117.7063828 -21.7386551 320.9779358
-117.2690735 -22.5098896 320.9132996
-116.7771606 -23.1795864 320.8572693
-116.2443008 -23.8379879 320.8175049
-114.4479828 -25.4837303 320.7542114
-113.8108826 -25.9118137 320.7489929
-111.6973419 -26.9095230 320.7796021
-110.9301834 -27.1647720 320.8117676
-108.4006653 -27.4659462 320.9576111
-107.5046844 -27.4333725 321.0288391
-106.5331802 -27.3125286 321.1143494
-105.4719620 -27.0757923 321.2265625
-70.3235168 -13.1594734 325.5899048
-69.9621353 -14.1418619 325.4965515
-69.5604477 -15.0094376 325.4160461
-69.1131134 -15.7846060 325.3513184
-68.6126480 -16.5385208 325.2992554
-68.0644760 -17.2231483 325.2519836
-67.5071716 -17.8536854 325.2143555
-66.9308167 -18.4405994 325.1876831
-66.3131866 -18.9796734 325.1685486
-65.6651840 -19.4709072 325.1546326
-65.0163040 -19.9356709 325.1476746
-64.3302155 -20.3692970 325.1402893
-63.5974579 -20.7411728 325.1546631
-62.8158989 -21.0324860 325.1726379
-58.5814552 -21.9008675 325.3824158
-57.5880699 -21.8848572 325.4591370
-56.5817566 -21.7958851 325.5458679
-55.4779930 -21.5997372 325.6533203
-54.2622719 -21.2390118 325.7895508
-20.9935551 -5.0177131 330.2961426
-20.6855659 -6.0876303 330.1885071
-20.3107052 -7.0412331 330.0961304
-19.8902779 -7.8841586 330.0231628
-19.4107456 -8.6844826 329.9592285
-18.9044151 -9.4015388 329.9097900
-18.3600502 -10.0911932 329.8652039
-17.7610264 -10.7546272 329.8250732
-17.1373100 -11.3375015 329.8005066
-16.5132732 -11.8753119 329.7812805
-15.8399277 -12.3787842 329.7683716
-5.8848476 -14.3032703 330.2708435
30.6110268 3.1090972 335.1724548
30.9431095 2.0553014 335.0671082
31.3220577 1.1365291 334.9885254
31.7707405 0.2796626 334.9085083
32.2972908 -0.4968796 334.8489075
32.8584480 -1.1897103 334.7989197
33.4651260 -1.8436587 334.7694092
34.1120338 -2.4657800 334.7403259
34.7967758 -3.0170112 334.7244263
35.5162697 -3.4825423 334.7246704
36.2677422 -3.9047911 334.7215576
37.0730438 -4.2894707 334.7306519
37.9393311 -4.5894418 334.7716675
38.8595238 -4.8375959 334.8117981
39.8436317 -5.0392160 334.8511658
40.8524780 -5.1283336 334.9187012
41.9145622 -5.1025743 334.9873352
43.1378822 -4.9168286 335.1015930
44.5355644 -4.6031756 335.2767944
87.4798660 8.9923077 340.1687622
88.2352448 8.4400787 340.1540222
-116.8908615 -21.8345356 320.2531128
-116.4166794 -22.5403118 320.1948853
-115.8882370 -23.2563286 320.1536255
-114.0931168 -24.8620090 320.0780640
-113.4628983 -25.3077087 320.0770569
-111.3534241 -26.3171768 320.1128540
-110.5573502 -26.5381393 320.1386414
-107.9966888 -26.7892838 320.2959595
-107.0700912 -26.7102242 320.3735657
-106.0946655 -26.5536327 320.4804688
-70.1264496 -12.8628168 324.8438721
-69.7731628 -13.8415184 324.7500610
-69.3810730 -14.7218513 324.6689148
-68.9367447 -15.5144691 324.6014404
-68.4389877 -16.2780361 324.5471191
-67.8976135 -16.9899921 324.5013428
-67.3596420 -17.6132755 324.4624939
-66.7699661 -18.1873989 324.4315491
-66.1484680 -18.7079010 324.4132996
-65.5020905 -19.2130470 324.3984375
-64.8508301 -19.6721516 324.3925476
-64.1481094 -20.0868626 324.3913574
-63.4022560 -20.4541836 324.4005737
-62.6431351 -20.7623558 324.4257813
-58.3815498 -21.5964661 324.6363831
-57.3619843 -21.5569229 324.7131958
-56.3738899 -21.4662361 324.8060913
-55.2590866 -21.2590313 324.9160156
-54.0108032 -20.8620491 325.0558167
-21.2886143 -3.8381655 329.5950317
-21.0229626 -5.0549235 329.4614563
-20.7063713 -6.1084623 329.3574219
-20.3286114 -7.0588303 329.2666016
-19.9056740 -7.9005637 329.1948853
-19.4213219 -8.6950684 329.1316528
-18.9126167 -9.3826447 329.0880127
-18.3426876 -10.0874157 329.0393677
-17.7417355 -10.7481146 329.0035400
-17.1485920 -11.3410597 328.9781799
-16.5224800 -11.9170856 328.9474182
-15.8561783 -12.4078064 328.9371643
-5.9004493 -14.3425369 329.4398193
-4.5429945 -13.9892273 329.5864868
30.0194130 3.8246944 334.3639832
30.2941399 2.6784003 334.2312012
30.6442814 1.6562350 334.1387634
31.0440998 0.7508470 334.0540161
31.5175934 -0.0544465 333.9923706
32.0621948 -0.8097897 333.9444275
32.6253166 -1.5198392 333.8931274
33.2251740 -2.1669748 333.8580627
33.8906059 -2.7650902 333.8351746
34.5950127 -3.2874789 333.8340454
35.3067780 -3.7627950 333.8224182
36.0530396 -4.2093925 333.8213501
36.8456726 -4.5953312 333.8194275
37.6971359 -4.9010510 333.8527832
38.6197090 -5.1617045 333.8908691
39.5760956 -5.3639417 333.9347839
40.5855865 -5.4793253 334.0014343
41.6286163 -5.5012183 334.0730896
42.7923012 -5.3911271 334.1666260
44.0946770 -5.1430373 334.2944946
84.4194489 10.9518023 339.3082275
84.8208160 10.0215101 339.2027588
85.3379517 9.2075272 339.1329651
85.9249268 8.4973059 339.0800781
86.6385269 7.9188695 339.0802307
87.3932037 7.3651400 339.0480957
88.2053146 6.9448290 339.0686340
89.0256958 6.5762706 339.0703430
89.9973145 6.3276043 339.1108093
91.0606537 6.1942692 339.1997375
-115.9866486 -21.8155746 319.5647888
-115.4834213 -22.5399609 319.5047302
-114.9278641 -23.1737080 319.4686890
-114.3200226 -23.6999950 319.4407043
-110.9511948 -25.6247330 319.4586182
-110.1501160 -25.8254032 319.4904480
-109.3205948 -25.9637146 319.5359192
-108.4650803 -26.0416660 319.5992737
-107.5504074 -26.0057793 319.6681519
-106.5878906 -25.8669624 319.7560425
-105.5341187 -25.6145306 319.8550720
-69.8903580 -12.4595108 324.1071472
-69.5469131 -13.4686718 324.0142822
-69.1581879 -14.3805323 323.9308472
-68.7211380 -15.1917248 323.8603210
-67.1555634 -17.3152771 323.7219849
-66.5693512 -17.8817062 323.6925964
-56.1012726 -21.0683899 324.0709534
-54.9592667 -20.8249702 324.1837463
-53.6777687 -20.3733196 324.3400879
-21.2855816 -3.8395162 328.7643433
-21.0117416 -5.0592022 328.6327209
-18.8682461 -9.3761272 328.2633057
-18.3269768 -10.0404911 328.2224731
-17.7404366 -10.7127552 328.1832581
-17.1310215 -11.3475351 328.1492310
-16.5064182 -11.9025288 328.1276550
-15.8303375 -12.3732729 328.1204529
-13.6308022 -13.5749178 328.1349487
-12.7887907 -13.8895969 328.1609497
-11.9461260 -14.1526175 328.1897888
-11.0911036 -14.3717251 328.2251892
-10.1634941 -14.5293465 328.2750244
-9.1977625 -14.6069956 328.3373108
-5.9015498 -14.3338470 328.6138306
-4.5433359 -13.9932804 328.7568970
29.7648239 3.4366603 333.4303284
30.0554047 2.3561919 333.3248291
30.4278793 1.3445555 333.2259521
30.8401375 0.4825742 333.1491089
31.3301601 -0.3252351 333.0870667
31.8772888 -1.0850564 333.0372009
38.4117050 -5.4278951 332.9875793
39.3787460 -5.6364312 333.0357361
42.5063210 -5.7641344 333.2438660
43.7575150 -5.5718765 333.3546448
83.2925644 10.9243164 338.2913513
83.6474457 9.9745102 338.2044067
84.1244659 9.1423130 338.1458130
84.6871567 8.3753395 338.0995789
85.3235168 7.7107892 338.0761108
85.9919357 7.1070986 338.0499573
86.7108994 6.5309949 338.0195923
87.4985580 6.0565305 338.0173950
88.3117371 5.6779604 338.0366211
89.2354126 5.3905253 338.0603333
90.2779388 5.2151814 338.1327209
-115.4612808 -20.8931942 318.9446411
-114.9879227 -21.6591702 318.8806763
-114.4523010 -22.3435001 318.8349915
-113.8624496 -22.9180088 318.8051758
-110.4989166 -24.8365421 318.8278809
-109.6653595 -25.0016708 318.8560181
-108.8142242 -25.0949764 318.9023132
-107.9195480 -25.1119099 318.9734497
-106.9583511 -25.0138664 319.0625916
-105.9701538 -24.8103657 319.1534729
-69.2803040 -13.0500097 323.2857361
-68.9091339 -13.9470644 323.2011719
-68.4843597 -14.7943029 323.1299744
-66.9167404 -16.9228764 322.9822693
-66.3363571 -17.5071201 322.9541016
-55.7957077 -20.6072578 323.3537598
-54.6689568 -20.3337231 323.4783325
-53.2985344 -19.8098927 323.6289673
-21.2471161 -3.7949858 327.9425354
-20.9685993 -4.9830484 327.8178406
-18.8315048 -9.3064327 327.4477844
-18.2788563 -9.9993811 327.4042358
-17.6954842 -10.6516113 327.3680725
-17.0889797 -11.2579899 327.3378601
-16.4520226 -11.8123960 327.3179321
-15.7704172 -12.2906170 327.3098145
-13.5725174 -13.4915924 327.3248901
-12.7435656 -13.7989397 327.3493042
-11.8969603 -14.0708017 327.3783875
-11.0295391 -14.2918205 327.4148865
-10.1054125 -14.4395456 327.4646912
-9.1308813 -14.5189495 327.5263977
-5.8548808 -14.2627430 327.7984619
-4.4781551 -13.9045820 327.9425964
29.3094635 4.3299103 332.6519165
29.5597000 3.1743958 332.5246277
29.8806190 2.0947428 332.4139099
30.2660294 1.1348393 332.3311157
30.6829681 0.2593545 332.2530212
31.1657715 -0.5574071 332.1838989
31.7170734 -1.2979870 332.1387024
38.2477951 -5.6482878 332.0862732
39.1935425 -5.8647909 332.1279602
42.3047638 -6.0313683 332.3375854
43.5427628 -5.8741407 332.4448242
82.6679459 10.1919804 337.2918091
83.0925369 9.2922459 337.2100525
83.6245651 8.4914532 337.1706543
84.1713104 7.7014041 337.0814514
84.7956696 7.0488720 337.0608826
85.4567719 6.4337378 337.0281677
86.1841049 5.8750243 337.0130005
86.9616852 5.3998046 337.0181274
87.7816238 4.9942627 337.0320129
88.6778183 4.6728787 337.0561218
89.6496735 4.4316778 337.0861206
90.7184143 4.3010669 337.1560364
91.8741760 4.2708759 337.2339783
-114.4163895 -20.6450844 318.2725830
-113.8845901 -21.3883896 318.2393799
-113.3217468 -21.9689980 318.1936340
-112.7240829 -22.5223103 318.1772156
-112.0987701 -22.9533558 318.1625366
-111.4349518 -23.2961617 318.1617432
-110.7114716 -23.6033459 318.1775208
-109.9352341 -23.8479481 318.2095337
-109.1004715 -24.0089779 318.2513428
-108.2239532 -24.0891457 318.3027344
-107.2676010 -24.0190258 318.3619080
-68.9773560 -12.5422430 322.5659180
-68.6040726 -13.4835510 322.4844360
-68.1972733 -14.3402634 322.4100647
-67.7241440 -15.1169643 322.3481445
-67.1916962 -15.8591375 322.3025818
-61.1397476 -19.9084644 322.2507019
-60.2970886 -20.0918427 322.2884216
-59.4238701 -20.2129536 322.3273010
-58.5427361 -20.3136425 322.3979797
-57.5531502 -20.3250580 322.4666443
-56.5242195 -20.2371979 322.5525208
-55.4300461 -20.0361233 322.6537781
-54.2367439 -19.6978607 322.7800903
-21.1539707 -3.6661799 327.1348877
-20.8783531 -4.8388562 327.0134888
-18.7490482 -9.2034178 326.6411743
-18.1973991 -9.8744659 326.5999756
-17.6021500 -10.5169392 326.5640259
-16.9900970 -11.1490602 326.5357666
-13.4797659 -13.3409204 326.5233765
-12.6451597 -13.6508589 326.5470276
-10.0021944 -14.3060141 326.6619873
-9.0357113 -14.3888760 326.7232056
-8.0449963 -14.4001207 326.7943726
-6.9643059 -14.3344860 326.8818970
-5.7386661 -14.1148577 326.9976196
-4.3510971 -13.7304688 327.1450195
29.1579762 4.0994492 331.7460938
29.4142933 2.9782259 331.6330566
29.7581825 1.9012226 331.5244141
30.1482697 0.9533640 331.4400330
30.5735054 0.0850055 331.3646545
32.1980972 -2.0997663 331.2281189
32.8125763 -2.7498939 331.1808167
42.1678963 -6.2085724 331.4499512
43.3911705 -6.0782795 331.5523071
44.7951393 -5.7766552 331.6950684
81.5310669 11.6882439 336.4896545
81.8091278 10.5596790 336.3681641
82.1781845 9.5622721 336.2728882
85.0469742 5.9092011 336.0537415
85.7741928 5.3504357 336.0408325
86.5277328 4.8628473 336.0307922
87.3251038 4.4492068 336.0394592
88.2025146 4.1008744 336.0584106
89.1766663 3.8418043 336.1007080
90.1957397 3.6700535 336.1473389
91.3229675 3.6028082 336.2172241
92.5411835 3.6481714 336.3129883
-113.1890182 -20.1602440 317.6423340
-112.6505356 -20.8232307 317.6186218
-112.0607452 -21.3314991 317.5982056
-111.4422073 -21.8227196 317.5892639
-110.7908783 -22.1874580 317.5899963
-110.0649643 -22.4587021 317.6079102
-109.2693024 -22.6811275 317.6428833
-108.3716049 -22.7954483 317.6673889
-68.2460251 -12.9313974 321.7880249
-67.8520050 -13.7931910 321.7070923
-67.3953400 -14.5747499 321.6346436
-66.8781662 -15.3424807 321.5807190
-60.8278198 -19.4194126 321.5364075
-59.9783173 -19.5907688 321.5784607
-59.1111450 -19.7106438 321.6286621
-58.1830330 -19.7582188 321.6827393
-57.1592369 -19.7132225 321.7610779
-56.0745277 -19.5700836 321.8545837
-54.9806175 -19.3450146 321.9702148
-20.7587395 -4.6644778 326.2152710
-18.6360035 -9.0341892 325.8435059
-18.0869427 -9.6924992 325.8026733
-17.4925594 -10.3487310 325.7666626
-16.8763294 -10.9821777 325.7370911
-13.3673458 -13.1896105 325.7278137
-12.5382013 -13.5023642 325.7498474
-9.8964233 -14.1324625 325.8672485
-8.9132643 -14.1959677 325.9298401
-7.9123626 -14.1974850 326.0040588
-6.8301654 -14.1282396 326.0905762
-5.5930901 -13.9048557 326.2057495
-4.2139139 -13.5000772 326.3547363
29.0579052 3.9545305 330.8635559
29.3279324 2.8198767 330.7438049
29.6777382 1.8118943 330.6551514
30.0760612 0.8583348 330.5669556
30.5117722 0.0112482 330.4976501
32.1382828 -2.2036624 330.3424988
32.7513847 -2.8163536 330.3244019
42.1080437 -6.3103662 330.5795288
43.3134232 -6.1966653 330.6769714
44.6894302 -5.9137053 330.8122864
80.8384781 12.2810402 335.6220398
81.0754471 11.1176510 335.4956970
81.3953476 10.0646143 335.4040222
81.8007431 9.0830374 335.3005981
84.7097626 5.4770041 335.0804443
85.4392776 4.9273577 335.0691528
86.2011871 4.4575973 335.0769958
86.9990768 4.0372362 335.0776367
87.8777695 3.6684337 335.0928040
88.8166275 3.3933792 335.1349182
89.8249588 3.2004411 335.1814575
90.9132919 3.0908260 335.2459106
92.1021118 3.1003404 335.3298645
93.3804626 3.2564394 335.4476624
138.1873169 17.2533722 340.3912048
138.9900513 16.7534523 340.4222107
-109.9300919 -20.6642170 317.0372314
-67.8309097 -12.2664242 321.0974731
-67.4593506 -13.1391687 321.0100098
-67.0177689 -13.9869843 320.9426880
-66.5208282 -14.7816486 320.8833313
-65.9951096 -15.4585037 320.8367615
-65.4195251 -16.0843430 320.8039551
-60.4686127 -18.8575954 320.8295593
-59.6049232 -19.0145550 320.8673096
-58.7288437 -19.1169510 320.9266052
-57.7767982 -19.1201038 320.9866943
-56.7332153 -19.0446358 321.0739136
-55.6222763 -18.8611069 321.1764832
-20.5871983 -4.4451022 325.4268188
-20.2738380 -5.5075455 325.3201904
-19.9007702 -6.4384708 325.2358093
-16.0944309 -11.2935104 324.9279785
-15.4136820 -11.7938776 324.9188538
-11.5401134 -13.5692129 324.9865112
-10.6518564 -13.7682648 325.0286865
-7.7123833 -13.9308300 325.2146301
-6.6356483 -13.8578749 325.3053894
-5.3932948 -13.6213436 325.4258728
-3.9745188 -13.1956635 325.5746460
28.8009510 5.1684170 330.1321106
28.9971447 3.8637748 329.9869995
30.9892120 -0.8139154 329.5747986
31.5287704 -1.5592973 329.5240173
32.1109505 -2.2253284 329.4859314
32.7385216 -2.8484457 329.4576416
34.7808533 -4.4371281 329.4172974
35.5521927 -4.8790083 329.4209595
44.6073990 -5.9908824 329.9362793
80.4554443 11.7672920 334.6334839
80.7216034 10.6645479 334.5291748
81.0680466 9.6142969 334.4218750
81.5017548 8.7243280 334.3512573
82.0206146 7.9458604 334.3120117
82.5732880 7.1706553 334.2569580
83.1387558 6.4090953 334.1899414
83.7592239 5.7553320 334.1638489
85.9342728 4.1238170 334.1264648
86.7305603 3.7187591 334.1292725
87.6049652 3.3467860 334.1614075
88.5192261 3.0254354 334.1677551
89.5355072 2.8235483 334.2409058
90.5800934 2.6837742 334.2857666
91.7301254 2.6479790 334.3625793
92.9128647 2.7314408 334.4439087
94.3012466 2.9792581 334.5922546
135.8442993 17.3013973 339.2827759
136.4441528 16.5760651 339.2341309
137.1175842 16.0099201 339.2241821
137.9058990 15.4878950 339.2050781
138.8076019 15.0697422 339.2283325
139.7627563 14.7496319 339.2962341
-67.3961258 -11.5139465 320.3867188
-67.0220718 -12.4339685 320.3226624
-66.5867691 -13.2914171 320.2593079
-66.1006165 -14.1005316 320.1910706
-65.5854568 -14.8271322 320.1416931
-65.0336151 -15.4698219 320.1065674
-60.0661392 -18.2184563 320.1325378
-59.1912003 -18.3649464 320.1806335
-58.2892761 -18.4370422 320.2374268
-57.3328094 -18.4327106 320.3127747
-56.2775269 -18.3169899 320.4060059
-20.6387844 -2.8799241 324.7673950
-20.3728256 -4.1141024 324.6499329
-20.0621681 -5.2092214 324.5403137
-19.7029533 -6.1555824 324.4547424
-15.9115143 -11.0406122 324.1488037
-15.2287264 -11.5153446 324.1445618
-11.3570728 -13.3138762 324.2055359
-10.4404459 -13.4879236 324.2444153
-7.5094361 -13.6393661 324.4416504
-6.4119334 -13.5359354 324.5328979
-5.1447568 -13.2638683 324.6609497
28.8011417 5.1177602 329.2621155
29.0011158 3.8501828 329.1268005
31.0019951 -0.8022329 328.7200317
31.5466194 -1.5392848 328.6709900
32.1234055 -2.1886778 328.6369629
32.7539406 -2.8368759 328.6074524
34.7997551 -4.4298019 328.5620728
35.5560722 -4.8529100 328.5643616
44.6115189 -5.9949279 329.0784607
79.9548264 12.6299181 333.8246155
80.1565094 11.3958483 333.6797180
80.4446411 10.3094139 333.5764160
80.8174896 9.2981014 333.4799805
81.2795029 8.4219694 333.4100952
81.7966919 7.6304326 333.3385315
82.3589249 6.8853831 333.3206177
82.9366074 6.1543074 333.2564087
83.5661469 5.4970131 333.2261353
85.7334442 3.8772733 333.1945190
86.5386734 3.4781098 333.2097473
87.4051590 3.0842128 333.2181091
88.3003998 2.7528403 333.2406311
89.2690811 2.5188084 333.2882080
90.3265457 2.3662808 333.3398743
91.4531021 2.3140130 333.4191589
92.6201553 2.3463869 333.5038147
93.9160538 2.5317349 333.6143188
133.6038818 19.0930920 338.4170837
134.0154724 18.1223965 338.3448792
134.5095520 17.2280941 338.2896118
135.0672760 16.3968773 338.2080078
135.6902924 15.7298012 338.1858826
136.3623199 15.1205330 338.1456604
137.1590118 14.6019831 338.1499634
138.0093231 14.1451740 338.1378479
138.9451141 13.8064260 338.1750183
139.9708405 13.5161076 338.2051697
141.1325073 13.3872662 338.2982178
-66.0917130 -12.4907455 319.5804443
-65.6151428 -13.3445797 319.5232544
-63.9836311 -15.3183069 319.3990479
-63.3707008 -15.8430719 319.3865662
-62.7093925 -16.2755070 319.3749695
-61.9791069 -16.6667805 319.3723755
-61.2309036 -17.0314426 319.3926392
-60.4253769 -17.2984409 319.4168396
-59.5880013 -17.4869614 319.4626160
-58.6907082 -17.5825310 319.5136108
-57.7650261 -17.6156635 319.5740051
-56.7723961 -17.5652256 319.6556702
-20.1233387 -3.7315772 323.8806763
-19.8171158 -4.8420081 323.7759399
-19.4604893 -5.8086815 323.6867065
-19.0476189 -6.6703582 323.6113892
-18.5941200 -7.4882479 323.5497437
-16.9676933 -9.5961094 323.4185181
-16.3456688 -10.1868629 323.3927002
-15.6812363 -10.7184591 323.3775635
-14.9970207 -11.1847172 323.3655396
-14.2870407 -11.6325655 323.3666687
-13.5680666 -12.0288868 323.3694458
-12.7967691 -12.3759995 323.3882751
-11.9768801 -12.7180309 323.4090881
-11.1279516 -12.9905787 323.4372253
-10.2156572 -13.1615868 323.4783630
-7.2667203 -13.2913418 323.6731262
-6.1461973 -13.1422615 323.7720947
-4.8193364 -12.8197956 323.9017029
28.7285175 6.7764144 328.5922546
28.8439178 5.1950641 328.4137878
29.0601158 3.9463763 328.2824097
29.3568401 2.8571906 328.1756287
29.6998653 1.8416035 328.0810242
31.0517769 -0.7461196 327.8729248
31.5921192 -1.4775170 327.8251648
32.1779823 -2.1597323 327.7860718
32.7966995 -2.7895269 327.7563477
34.8558083 -4.3527474 327.7197876
35.6217728 -4.7712445 327.7248840
44.6750679 -5.9232678 328.2338867
79.7020111 12.2822361 332.8626404
79.9322510 11.1110487 332.7437134
80.2496719 10.0615234 332.6452026
80.6535645 9.0932560 332.5547485
81.1395569 8.2351704 332.4888916
81.6525116 7.4559627 332.4332581
82.2181396 6.7052736 332.3896179
84.1080551 4.7268615 332.2947388
84.8270874 4.1622109 332.2683716
85.5808411 3.6969678 332.2797546
86.3797073 3.2785802 332.2799683
87.2447281 2.8952010 332.2986755
88.1462631 2.5501516 332.3226318
89.0971527 2.3035762 332.3580933
90.1591797 2.1519399 332.4234009
91.2574921 2.0700674 332.4939270
92.3684769 2.0552869 332.5613708
93.6539307 2.2087715 332.6677246
132.5786285 19.3658447 337.4615479
132.9421082 18.2981396 337.3566589
133.3788452 17.3482170 337.2772522
133.8804016 16.4694023 337.1961670
134.4761047 15.7124386 337.1678772
138.3087769 13.0636024 337.1225281
139.2967377 12.7441463 337.1523438
140.3881226 12.5464764 337.1954651
141.5266266 12.4836464 337.2665405
-65.0654449 -12.4467163 318.8365784
-63.4434547 -14.4769917 318.7333374
-62.8403816 -15.0153217 318.7162781
-62.1850815 -15.4602385 318.7071228
-61.4779396 -15.8760509 318.7161865
-60.7039566 -16.2078075 318.7285156
-59.8873634 -16.4406376 318.7617493
-59.0063324 -16.5631866 318.8041077
-58.0753860 -16.6189117 318.8571472
-57.1443253 -16.6347904 318.9378357
-19.8291531 -3.2551067 323.1127930
-19.5231037 -4.4113030 323.0197449
-19.1780109 -5.3705440 322.9281311
-18.7760963 -6.2591729 322.8501892
-18.3234921 -7.1071620 322.7894287
-16.7007999 -9.2245808 322.6531982
-16.0785904 -9.8144693 322.6258545
-15.4335766 -10.3521423 322.6083984
-14.7555342 -10.8540277 322.6011963
-14.0629683 -11.2964649 322.5988464
-13.3135338 -11.6687288 322.6133423
-12.5173435 -11.9934244 322.6154175
-11.7062292 -12.3244209 322.6413269
-10.8538284 -12.5855961 322.6782837
-9.9308748 -12.7514467 322.7165222
-6.9615684 -12.8513603 322.9179993
-5.7748652 -12.6464405 323.0214539
28.9281425 5.3069835 327.5738831
29.1485233 4.0276122 327.4385681
29.4320583 2.9476941 327.3318481
29.7724781 1.9117268 327.2355957
31.1142998 -0.6429878 327.0319519
31.6689339 -1.4000384 326.9841614
32.2514992 -2.0542431 326.9483948
32.8829002 -2.6784110 326.9205627
34.9569588 -4.2252793 326.8853149
35.7085075 -4.6479182 326.8901062
44.7812805 -5.7900767 327.3980408
79.5153427 12.0455723 331.9324951
79.7778397 10.9241047 331.8220520
80.1287994 9.8885479 331.7257996
80.5569382 8.9620686 331.6513062
81.5493393 7.3086963 331.5220642
82.1120529 6.5797796 331.4934692
84.0126114 4.5859804 331.3786316
84.7309113 4.0413251 331.3717651
85.4740143 3.5461619 331.3613586
86.2659149 3.1377964 331.3744507
87.1321335 2.7576900 331.3900452
88.0365067 2.4161172 331.4148560
88.9908752 2.1656108 331.4507141
90.0024567 1.9919071 331.4992065
91.0917206 1.8776475 331.5671387
92.2146759 1.8562814 331.6414490
93.4940948 1.9933764 331.7442322
94.9944687 2.2512097 331.8946838
131.7317963 19.7900295 336.5296021
132.0421600 18.7157059 336.4341431
132.4138489 17.6786690 336.3294067
132.8714294 16.7549896 336.2510681
133.4076233 15.9284306 336.2047729
134.0100708 15.1470709 336.1376038
137.8227081 12.4770222 336.1119995
138.7583160 12.1191092 336.1204529
139.8160400 11.8899450 336.1704102
140.9154053 11.7778349 336.2229004
142.1372070 11.8108158 336.3312378
-63.9128304 -12.1462326 318.1427002
-63.3879662 -12.8222599 318.1356812
-62.8214111 -13.4591694 318.1086731
-62.2055016 -13.9959183 318.0832520
-61.5611458 -14.4606237 318.0778503
-60.8365326 -14.8624735 318.0802002
-60.0490227 -15.1791296 318.0993347
-59.2323494 -15.3909073 318.1347656
-58.3520470 -15.5174656 318.1784058
-19.1888733 -3.8851616 322.2616882
-18.8378353 -4.8764195 322.1831055
-18.4505424 -5.7846313 322.0959473
-18.0135536 -6.6448460 322.0271301
-17.5313301 -7.4209127 321.9756775
-16.9878216 -8.1214981 321.9303284
-16.3989124 -8.7890034 321.8930664
-15.7823954 -9.4015198 321.8607178
-15.1506100 -9.9573994 321.8462830
-14.4798851 -10.4480696 321.8328552
-13.7718468 -10.8784275 321.8427429
-13.0123901 -11.2293482 321.8409729
-12.2366982 -11.5812845 321.8717346
-11.3956995 -11.8836575 321.8946228
-8.6422491 -12.3798952 322.0226440
-7.6474061 -12.4049416 322.0920410
-6.5874190 -12.3151455 322.1807861
-5.3993778 -12.0852337 322.2936096
29.0684624 5.4915228 326.7438354
29.2615414 4.2062311 326.6067200
31.2248344 -0.5207512 326.2009583
31.7699184 -1.2421902 326.1507263
33.6575203 -3.0950322 326.0702209
34.3492203 -3.6133840 326.0564270
35.0618706 -4.0769057 326.0555725
35.8214684 -4.5030303 326.0583496
40.2821617 -5.8798285 326.2092590
41.2819405 -5.9742122 326.2712402
42.3318901 -5.9927082 326.3453674
43.5648270 -5.8804669 326.4426880
44.9078712 -5.5982547 326.5718079
46.6190796 -5.0590096 326.7459717
79.1977768 13.1683121 331.1525269
79.3957520 11.8773508 331.0126343
79.6790619 10.7901382 330.9084473
80.0491104 9.7883940 330.8195496
80.4789734 8.8365631 330.7360535
80.9378052 7.9681320 330.6638489
81.4532623 7.1889863 330.6154480
82.0215454 6.4581528 330.5628357
85.3973312 3.4549093 330.4556885
86.2060242 3.0486569 330.4691772
88.9057846 2.0726674 330.5457764
89.9175262 1.8743155 330.5948181
93.3770447 1.8551542 330.8337097
94.8385010 2.0893576 330.9658813
131.0144806 20.3384838 335.6081238
131.2417908 19.2227898 335.5007935
131.5787659 18.1502361 335.4020081
131.9936981 17.1606045 335.3149719
132.4710083 16.2938957 335.2553406
134.2868652 14.0518351 335.1126404
134.9774628 13.4708252 335.0972595
135.7581482 12.9679441 335.1103210
136.5774384 12.4794016 335.1016846
137.4528656 12.0390892 335.1142883
138.4093781 11.6743422 335.1370239
139.4388733 11.4278374 335.1885986
140.4685211 11.2485809 335.2259216
142.9510345 11.2932377 335.4162903
-60.0457458 -13.5877113 317.4686584
-59.2101974 -13.8494167 317.4827881
-18.4476051 -4.3089066 321.4440613
-18.0802345 -5.2694893 321.3630981
-17.6617184 -6.1544123 321.2895508
-17.1853180 -6.9112353 321.2282410
-16.6541157 -7.6228905 321.1837769
-16.0832253 -8.3224001 321.1541138
-15.4728575 -8.9464827 321.1176147
-14.8362312 -9.4966879 321.1039429
-14.1475229 -9.9652681 321.0878296
-13.4231758 -10.3822861 321.0942993
-12.6921129 -10.7606888 321.1008911
-11.9170732 -11.1010370 321.1185913
-11.0115280 -11.3391743 321.1378784
-8.2453909 -11.8221502 321.2923279
-7.2332354 -11.8035841 321.3610535
-6.1198034 -11.6524382 321.4564819
-4.8605089 -11.3473473 321.5658569
29.2377567 5.7518921 325.9225159
29.4301605 4.4219432 325.7845459
31.3680668 -0.2671332 325.3757324
31.9253960 -1.0433511 325.3351440
33.8150406 -2.9066200 325.2480469
34.4967537 -3.4253848 325.2327576
35.2044411 -3.8880699 325.2342529
35.9690208 -4.3142476 325.2346497
40.4317322 -5.6663957 325.3887024
41.4458656 -5.7412410 325.4545288
42.5555077 -5.7331800 325.5292358
43.7607269 -5.6181092 325.6296387
45.1443329 -5.3123527 325.7610474
79.1424408 13.0725622 330.2435303
79.3381271 11.7992687 330.1103210
79.6402206 10.7038670 330.0053711
80.0184479 9.7230568 329.9201050
80.4348679 8.8042345 329.8452148
80.9056931 7.9185705 329.7716064
81.4096069 7.1521215 329.7230225
81.9864807 6.4153957 329.6772461
85.3962860 3.4336081 329.5742798
86.1881943 3.0202672 329.5808716
88.8870239 2.0357203 329.6564941
89.8842621 1.8294196 329.7003174
93.3234863 1.7773374 329.9328003
94.7839203 2.0261328 330.0645752
130.6007843 19.8556232 334.6074219
130.8663940 18.7611446 334.5054016
131.2173004 17.7433300 334.4100342
131.6682587 16.8104782 334.3480225
132.1739655 15.9339190 334.2778931
134.0017700 13.7175350 334.1374512
134.6937256 13.1495399 334.1221619
135.4727173 12.6072121 334.1088867
136.2790680 12.1299438 334.1270142
137.1490021 11.6891956 334.1301880
138.0781860 11.3218613 334.1504211
139.0839996 11.0391750 334.1840210
140.1479187 10.8448906 334.2522888
141.2411194 10.7378683 334.3001709
142.5202026 10.7955666 334.3913879
144.0079346 10.9925346 334.5398560
-18.0243301 -3.6768317 320.7026062
-17.6592388 -4.6238461 320.6301270
-17.2453995 -5.5462918 320.5590820
-16.7919464 -6.3237438 320.4939880
-16.2724438 -7.0724506 320.4438171
-15.7031012 -7.7785287 320.4003906
-15.0987215 -8.4066544 320.3754578
-14.4587460 -8.9457741 320.3681030
-13.7630873 -9.4114561 320.3563843
-13.0490074 -9.8276768 320.3535156
-12.3197355 -10.2108564 320.3607788
-11.5318708 -10.5373583 320.3886719
-10.6431351 -10.7707453 320.4204712
-9.6841240 -10.9620361 320.4450684
-8.7784319 -11.1194725 320.5074768
-7.7636185 -11.1534271 320.5634155
-6.7352247 -11.0898685 320.6545715
-5.5841756 -10.8686724 320.7525330
29.4368172 6.0280242 325.1036072
29.6458721 4.7116041 324.9758606
29.9003544 3.5864899 324.8584595
30.2336617 2.5483608 324.7648621
30.6508789 1.6186243 324.6901855
31.0962353 0.7907501 324.6227112
31.5821209 -0.0147798 324.5671082
32.1294250 -0.7722048 324.5181274
36.9738770 -4.4520292 324.4312439
37.8186760 -4.7745204 324.4530029
38.7396851 -5.0487270 324.4868774
39.6961899 -5.2575264 324.5307007
40.6431198 -5.4014883 324.5809021
41.6715622 -5.4466190 324.6390991
42.7745781 -5.4206586 324.7240295
44.0192070 -5.2825675 324.8272705
45.4501572 -4.9286246 324.9635620
79.1341248 13.0602045 329.3500977
79.3401718 11.8071861 329.2220154
80.4392090 8.8185377 328.9576721
80.9109802 7.9482951 328.8909302
81.4300995 7.1669288 328.8367310
82.0130615 6.4605951 328.7979736
82.6381073 5.7615142 328.7612610
83.2664795 5.1044455 328.7311096
85.4051437 3.4564464 328.6879272
86.2034683 3.0253744 328.6962280
88.8942642 2.0524063 328.7700500
89.9139786 1.8531632 328.8187866
90.9797668 1.7387816 328.8799744
92.0896606 1.7046195 328.9526367
93.3168488 1.7693175 329.0430908
94.7840195 2.0397153 329.1759644
130.0844727 20.6626759 333.7356262
130.2909546 19.4867573 333.6318665
130.5829010 18.4091797 333.5214539
130.9541931 17.4083519 333.4309692
131.4116516 16.4747295 333.3561096
131.9232483 15.6094799 333.2953186
132.4961548 14.8244724 333.2408447
133.1381989 14.1178837 333.2149658
133.7917786 13.4824114 333.1935120
134.4775696 12.8899565 333.1750488
135.2397614 12.3312979 333.1607361
136.0301819 11.8328037 333.1418152
136.9047089 11.4018564 333.1726379
137.8157043 11.0310841 333.1765137
138.8175049 10.7445536 333.2199707
139.8380280 10.5375547 333.2623901
140.9797516 10.4140959 333.3402405
143.6005859 10.5541735 333.5182495
-17.1728287 -3.9312103 319.9040833
-16.7740746 -4.8577094 319.8437500
-16.3325272 -5.6736026 319.7677002
-15.8308420 -6.4386601 319.7215576
-15.2666416 -7.1271110 319.6766968
-14.6508408 -7.7277875 319.6436768
-13.9752007 -8.2576542 319.6241150
-13.3040800 -8.7568417 319.6328735
-12.5887470 -9.1836662 319.6288147
-11.8564606 -9.5551147 319.6475525
-11.0428181 -9.8546190 319.6491089
-10.1898394 -10.1226892 319.6947327
-9.2477884 -10.3031111 319.7344971
-8.2910862 -10.4088125 319.7916565
-7.2497840 -10.3835783 319.8641052
-6.1210628 -10.2171650 319.9514465
29.9247780 5.1009254 324.1773987
30.1688347 3.9335067 324.0628662
30.4976330 2.9028540 323.9607239
30.8951645 1.9790344 323.8784485
31.3330688 1.1047412 323.8179626
31.8107567 0.3303342 323.7589417
32.3649254 -0.4417922 323.7144470
37.2004852 -4.1601949 323.6329956
38.0402184 -4.4778657 323.6553955
38.9660988 -4.7210841 323.6851196
39.9439621 -4.9198675 323.7190857
40.8880539 -5.0689859 323.7818604
41.9287300 -5.0939231 323.8443298
43.0682030 -5.0404997 323.9308777
44.3353004 -4.8645887 324.0416260
79.1715393 13.1009827 328.4662781
79.3839417 11.8682985 328.3412170
80.4895706 8.8632917 328.0768738
80.9663315 8.0197601 328.0138245
81.5026779 7.2529063 327.9652100
82.0815811 6.5270915 327.9212341
82.6918335 5.8125377 327.8825684
83.3246002 5.1634507 327.8523865
85.4514999 3.5171258 327.8136597
86.2424316 3.1000614 327.8193970
88.9668427 2.1326261 327.8976746
89.9682312 1.9470718 327.9458618
91.0735321 1.8337684 328.0081482
92.1696854 1.7883803 328.0790100
93.3751831 1.8527395 328.1704407
94.8571167 2.1289787 328.3024292
129.6816254 21.7186432 332.9150696
129.8114777 20.3531494 332.7678223
130.0498199 19.2192669 332.6650391
130.3750458 18.1559219 332.5628052
130.7632294 17.1865273 332.4816284
131.2132416 16.2652702 332.4039307
131.7429047 15.4054613 332.3431702
132.3510590 14.6346445 332.3034058
132.9763489 13.9343176 332.2615662
133.6123810 13.2568388 332.2184143
134.2889557 12.6558647 332.2043152
135.0436859 12.1082621 332.1937866
135.8507080 11.6262579 332.1963806
136.7172394 11.1946526 332.2051392
137.6593933 10.8329754 332.2363281
138.6524353 10.5449743 332.2728577
139.6539154 10.3159943 332.3077087
140.7292328 10.1608429 332.3647156
141.9288635 10.1051340 332.4387817
143.3194733 10.1933823 332.5567627
-15.7755413 -4.8652806 319.0790710
-15.2991924 -5.6492033 319.0238342
-14.7498178 -6.3516102 318.9760437
-14.1397095 -6.9772367 318.9527588
-13.4764977 -7.5122409 318.9285583
-12.8001900 -8.0193501 318.9217224
-12.0598927 -8.4264965 318.9071960
-11.3109264 -8.7815027 318.9195251
-10.5385246 -9.1116581 318.9545593
-9.6516218 -9.3535767 318.9861145
-8.6952572 -9.4996986 319.0327454
-7.6853671 -9.5368109 319.1000977
30.4989777 4.3966818 323.2740173
30.8037815 3.3016989 323.1764221
31.1815777 2.3256903 323.0919495
31.6064720 1.4739488 323.0202026
33.2172775 -0.7773026 322.8817139
33.8413086 -1.3762203 322.8497925
35.9038124 -2.9537730 322.8233948
36.6630669 -3.4011002 322.8234863
37.4916153 -3.7763622 322.8221741
38.3591194 -4.0737844 322.8501587
39.2763023 -4.3227019 322.8918457
40.2266541 -4.5179100 322.9290771
41.1958618 -4.6468601 322.9925842
42.2743111 -4.6371226 323.0518188
43.4351730 -4.5640535 323.1457520
44.7325478 -4.3460698 323.2615051
79.2581329 13.2230444 327.5962219
79.4676743 11.9720421 327.4680481
79.7723312 10.8928394 327.3669128
80.1451492 9.8881035 327.2802124
81.5906067 7.3821192 327.0957947
82.1694794 6.6311159 327.0535889
85.5564804 3.6512680 326.9482727
86.3488770 3.2354949 326.9575195
87.2333450 2.8704734 326.9755554
88.1425476 2.5356472 327.0003662
89.0833054 2.2706008 327.0339355
90.0965424 2.0837460 327.0831909
93.5459137 2.0238051 327.3114624
94.9931488 2.2779417 327.4390869
129.4524689 21.4638901 331.9511719
129.6141968 20.1067295 331.8022461
129.8745728 18.9862938 331.6987915
130.2180939 17.9895878 331.6126709
130.6363373 17.0259991 331.5308838
133.4884644 13.1290617 331.2889099
134.1576996 12.5305624 331.2665100
134.9288483 11.9805307 331.2578430
135.7569427 11.5034418 331.2643738
136.6101990 11.0669994 331.2699890
137.5404510 10.6856098 331.2911987
140.5736847 9.9868336 331.4205017
141.7523651 9.8963308 331.4848938
143.0660400 9.9554605 331.5776367
-14.6410370 -4.7039752 318.3519897
-14.1139679 -5.4343591 318.3014526
-13.5117636 -6.0737047 318.2603760
-12.8758659 -6.6237512 318.2362671
-12.2073040 -7.1477504 318.2372742
-11.4712563 -7.5852084 318.2342529
-10.7317200 -7.9474983 318.2524719
-9.9141264 -8.2033548 318.2704163
-8.9713154 -8.3647213 318.3071594
-7.9949465 -8.4750204 318.3758545
-6.9321055 -8.4426508 318.4271851
30.8886852 4.9194407 322.5045776
31.1748428 3.8449807 322.3981934
31.5265236 2.8469009 322.3042297
31.9375343 1.9181157 322.2367554
33.5294914 -0.3393479 322.0872498
34.1564713 -0.9646246 322.0644531
36.2416573 -2.5002162 322.0061340
36.9824829 -2.9631090 322.0317078
37.8170586 -3.3368518 322.0500793
38.6960716 -3.6141737 322.0610962
39.5951729 -3.8794706 322.1164551
40.5839653 -4.0551324 322.1473389
41.5821838 -4.1385698 322.2090454
42.6644211 -4.1190615 322.2844849
43.8186531 -4.0231156 322.3835144
79.2899170 14.9182281 326.8871155
79.4148865 13.4221287 326.7375183
79.6128998 12.1332073 326.6076660
79.8974991 11.0523157 326.5034485
80.2542877 10.0680094 326.4172058
81.7136612 7.5148149 326.2348633
82.2871933 6.7763953 326.1889038
85.6979523 3.8373532 326.0931091
86.4995728 3.4240129 326.1005249
87.3792038 3.0471649 326.1167603
88.2789917 2.7098181 326.1426697
89.2317734 2.4532878 326.1791687
90.2566910 2.2746346 326.2294922
93.6924667 2.2287717 326.4566040
95.1659775 2.4823246 326.5839539
129.3110504 21.3089809 331.0014038
129.4900970 19.9516811 330.8595886
129.7685394 18.8562050 330.7571716
130.1198273 17.8821621 330.6763916
130.5518494 16.9426174 330.5967712
133.4175720 13.0427608 330.3538208
134.0893555 12.4400854 330.3336182
134.8658447 11.9081268 330.3273010
135.6865234 11.4304247 330.3328247
136.5307922 10.9767094 330.3360901
137.4529419 10.5762243 330.3591614
140.4768524 9.8690863 330.4854736
141.6743011 9.7913837 330.5555115
142.9991913 9.8532352 330.6508484
-13.3388872 -4.2697949 317.6275024
-12.7864923 -5.0074849 317.6196594
-12.1243954 -5.5396795 317.5781555
-11.4434366 -6.0559154 317.5771179
-10.7173710 -6.4715452 317.5776062
-9.9399824 -6.7850318 317.5909119
-9.1012383 -7.0162783 317.6291809
31.6021061 4.4235168 321.6314697
31.9364510 3.3648655 321.5352478
32.3171616 2.4774055 321.4510193
32.7801247 1.6238838 321.4026794
33.3142242 0.8535984 321.3451843
36.5797691 -2.0526457 321.2543945
37.3463211 -2.4691465 321.2514954
40.0125809 -3.3608696 321.3338623
40.9986267 -3.5072234 321.3830566
42.0233688 -3.5437400 321.4443359
43.1268272 -3.4974983 321.5269470
44.3675385 -3.3246129 321.6273193
79.6214523 13.7167702 325.8908691
79.8196487 12.4038696 325.7608032
80.0880356 11.2642403 325.6503906
80.4366379 10.2477217 325.5625000
80.8747559 9.3434887 325.4917297
81.3594437 8.5045938 325.4284973
81.8662949 7.7332072 325.3753662
82.4324112 6.9784822 325.3322144
84.3878403 5.0681930 325.2554321
85.1196671 4.5370736 325.2402649
85.8715439 4.0564547 325.2413940
86.6661224 3.6414390 325.2475586
87.5323029 3.2573094 325.2679749
88.4468307 2.9407535 325.2916565
89.4271545 2.6992252 325.3320313
90.4675369 2.5201838 325.3805542
91.5223618 2.4068778 325.4410400
92.6676025 2.3973885 325.5131226
93.9028015 2.4959650 325.6130981
95.4290390 2.8091111 325.7477417
129.2436676 21.1777973 330.0568542
129.4448395 19.9035492 329.9320679
129.7235565 18.8042850 329.8317261
130.0701447 17.7877655 329.7352295
130.5053406 16.8855114 329.6699829
131.0062561 15.9864750 329.6019287
131.5403900 15.1765156 329.5488586
132.1514893 14.4099302 329.5068054
132.7715912 13.6831121 329.4694824
133.3851624 12.9969587 329.4315186
134.0656586 12.4080305 329.4135437
134.8466644 11.8739901 329.4066162
135.6602020 11.3870430 329.4096375
136.4934540 10.9347744 329.4129639
137.4049683 10.5306015 329.4273987
138.3761749 10.2134333 329.4596863
139.3729095 9.9852877 329.5025635
140.4261017 9.8226852 329.5522156
141.6365204 9.7553797 329.6276855
142.9699707 9.8174763 329.7250977
32.1081085 5.1120815 320.8819885
32.4104233 4.0603905 320.7790222
32.7769279 3.0875175 320.7043152
33.2233620 2.2484012 320.6322021
33.7434158 1.4388684 320.5784912
36.9886932 -1.4796532 320.4834290
37.7764320 -1.8713102 320.4890137
40.4791832 -2.7301259 320.5693665
41.4775772 -2.8484201 320.6339722
42.5662117 -2.8418026 320.6960449
43.6943855 -2.7467639 320.7985840
80.0650864 12.7508888 324.9213867
80.3227844 11.5919218 324.8109131
80.6726379 10.5673008 324.7244568
81.1109848 9.6596022 324.6481628
81.5739822 8.7855730 324.5871582
82.0729828 7.9745369 324.5346069
82.6275482 7.2237730 324.4872437
84.5892410 5.3193946 324.4079895
85.3128204 4.7854438 324.4046631
86.0834351 4.3155832 324.4057922
86.8901520 3.9090984 324.4059753
87.7590637 3.5338190 324.4249878
88.6921463 3.2300832 324.4526367
89.6667480 2.9947593 324.4897461
90.6916122 2.8102021 324.5418701
91.7736740 2.7074594 324.6023865
92.9102402 2.7205181 324.6795654
94.1918488 2.8488739 324.7816772
95.7573166 3.2029033 324.9177246
129.2317352 21.1881275 329.1371155
129.4341431 19.9063244 329.0097961
129.7114105 18.7677422 328.9021912
130.0802307 17.8130379 328.8235779
130.5259552 16.9397964 328.7580566
131.0177307 16.0332680 328.6938171
131.5598145 15.1804485 328.6326599
132.1589355 14.4174290 328.5898438
132.7731171 13.6885271 328.5508423
133.4004822 13.0311966 328.5198059
134.0994568 12.4502335 328.5028381
134.8650970 11.9032307 328.4937744
135.6643219 11.4147930 328.4934387
136.5275574 10.9725866 328.5052185
137.4525909 10.5704679 328.5212402
138.4081421 10.2484150 328.5499268
139.3934021 10.0166969 328.5899353
140.4717712 9.8557110 328.6451416
141.6871948 9.7946672 328.7191772
142.9877014 9.8543510 328.8122253
144.4881287 10.0483265 328.9338379
33.3377647 3.8741422 319.9667053
33.7508888 2.9794190 319.8828430
34.2392654 2.1004491 319.8392334
34.8127251 1.3977019 319.7819214
35.4145241 0.7273884 319.7600403
36.0734444 0.1190407 319.7473450
36.7856903 -0.3666113 319.7261658
39.1476288 -1.5766566 319.7579956
40.0554199 -1.8344126 319.7872009
41.0411606 -1.9862407 319.8283386
42.0677414 -2.0588086 319.8991394
43.1790009 -2.0155377 319.9763489
44.3891068 -1.8252307 320.0513611
80.1650772 14.4438534 324.2130737
80.3709564 13.1178465 324.0955200
80.6267166 11.9551182 323.9845886
80.9724350 10.9341650 323.8909302
81.3803024 9.9859085 323.8131714
81.8359680 9.0888672 323.7529297
84.8436737 5.6275692 323.5815125
85.5978317 5.1147938 323.5519409
86.3508911 4.6575937 323.5661011
87.1670303 4.2401967 323.5708618
88.0214462 3.8671825 323.5932312
88.9681702 3.5761170 323.6180115
89.9469223 3.3513861 323.6609802
91.0009460 3.1807170 323.7120056
92.0645294 3.0961132 323.7832336
93.2419052 3.1131492 323.8538208
94.5275421 3.2850578 323.9661560
129.2725067 21.2074432 328.2203674
129.4790802 19.9586277 328.0979004
129.7660217 18.8524246 327.9962769
130.1441803 17.8944149 327.9165344
130.5807190 16.9749565 327.8444214
131.0670624 16.0584507 327.7758789
131.6050568 15.2524204 327.7258301
132.2128448 14.4781294 327.6813965
132.8419647 13.7598763 327.6462708
133.4839478 13.1227093 327.6184387
134.1765137 12.5355377 327.6002502
136.5968170 11.0460815 327.5983887
137.5277710 10.6542559 327.6181335
140.5258026 9.9363976 327.7398071
141.7517090 9.8733749 327.8134155
143.0542145 9.9316063 327.9067688
33.9882965 4.7512469 319.2475281
34.3757591 3.7924805 319.1795654
34.8574600 2.9531004 319.1010437
35.3984337 2.1936984 319.0488892
35.9904747 1.5276948 319.0129089
36.6841240 0.9535140 318.9836426
37.3620415 0.4510083 318.9891357
39.7491074 -0.7649865 319.0265503
