83.0352020 -178.0588531 10.7680998
81.8009644 -178.1565094 10.5181904
80.5605392 -178.2609406 10.2308960
75.6388092 -178.7375641 8.8119259
50.1360359 -184.0856323 -11.2623396
48.9289474 -184.5748138 -13.2419147
135.0878448 -180.2321777 -11.6110640
133.5005951 -179.7543945 -9.2550440
104.4997940 -176.3213196 10.0799408
103.2131424 -176.2962036 10.3710823
101.9203110 -176.2767792 10.6213245
91.7610092 -176.3808441 11.5797062
84.2628326 -176.7678680 10.9204350
83.0303268 -176.8568115 10.6946745
81.8119125 -176.9493408 10.4445915
80.5675583 -177.0541229 10.1626167
79.3305511 -177.1582489 9.8661213
78.0915298 -177.2733154 9.5278311
76.8675766 -177.3968201 9.1540613
75.6300278 -177.5315094 8.7411566
50.1187897 -182.8008881 -11.1324844
48.9389000 -183.2730408 -13.0741653
47.7055817 -183.8116455 -15.2681894
135.0851746 -178.9920807 -11.6201334
133.4921417 -178.5206299 -9.2807674
104.4851379 -175.1212769 9.9856853
100.6468811 -175.0793457 10.7366247
93.0111008 -175.1620331 11.4331446
91.7777786 -175.1958618 11.4459438
83.0273819 -175.6537933 10.6151485
81.7917328 -175.7527771 10.3537016
80.5626373 -175.8511810 10.0797329
79.3233871 -175.9584045 9.7760258
78.0771027 -176.0764160 9.4253960
76.8575821 -176.1954803 9.0556698
75.6428299 -176.3212738 8.6524782
50.1220779 -181.5205994 -11.0325689
48.9092331 -182.0017853 -13.0118084
135.0769653 -177.7641449 -11.6856852
133.4904633 -177.3004608 -9.3686056
104.4996262 -173.9375610 9.8519039
93.0203476 -173.9660645 11.3185139
91.7572784 -174.0077209 11.3121099
78.0880127 -174.8780060 9.3130608
50.0982857 -180.2662201 -11.0366936
48.9230614 -180.7182007 -12.9151907
136.7684021 -177.0986633 -14.5259228
135.0879669 -176.5546570 -11.8363047
133.4882660 -176.0900269 -9.5056248
104.5021057 -172.7575073 9.6767063
103.2124329 -172.7260742 10.0019827
90.5143738 -172.8685608 11.1351986
78.0856094 -173.6843567 9.1821346
50.0994339 -179.0138397 -11.0608912
48.8976822 -179.4680634 -12.9529238
136.7626038 -175.8907166 -14.7064486
104.5119629 -171.5836487 9.4778175
103.2122345 -171.5532532 9.7967176
76.8704681 -172.6134796 8.6592846
75.6368637 -172.7414093 8.2483044
50.0961227 -177.7756653 -11.1467104
48.8912163 -178.2253723 -13.0303383
136.8002625 -174.7106018 -15.0224190
104.5309753 -170.4160004 9.2442074
103.2424622 -170.3906250 9.5414495
76.8763809 -171.4317169 8.4646235
75.6334839 -171.5631409 8.0359888
50.0891609 -176.5518799 -11.2982426
48.9087219 -176.9868774 -13.1329308
136.8492737 -173.5461426 -15.4161911
135.1593018 -173.0071869 -12.6854429
133.5594788 -172.5473633 -10.3338861
104.5498352 -169.2556305 8.9757042
103.2630005 -169.2307129 9.2720671
75.6449509 -170.3888245 7.7999039
74.4189911 -170.5194397 7.3682642
73.1916885 -170.6560669 6.9090967
71.9594727 -170.8014069 6.4096580
70.7475357 -170.9529419 5.8788414
69.5248337 -171.1156311 5.2984633
68.2945786 -171.2879333 4.6745806
67.0717545 -171.4671936 4.0178199
65.8460083 -171.6567993 3.3129327
50.0909729 -175.3363037 -11.4919205
48.8870697 -175.7774048 -13.3636179
47.6803627 -176.2489624 -15.3767300
135.1954956 -171.8451080 -13.0722065
133.6136780 -171.3914795 -10.7391577
104.5621872 -168.0977783 8.6934872
103.2717667 -168.0691833 9.0064144
74.4346161 -169.3464355 7.1192870
73.1996536 -169.4833984 6.6557856
71.9714127 -169.6277924 6.1554837
70.7459106 -169.7809753 5.6149817
69.5239563 -169.9422302 5.0358725
68.2999496 -170.1121826 4.4163976
67.0778427 -170.2903748 3.7591300
65.8555756 -170.4776917 3.0586061
50.0976410 -174.1291809 -11.7289858
48.9003029 -174.5648651 -13.5891161
47.6797333 -175.0397491 -15.6329012
135.2517395 -170.7031708 -13.5598421
133.6383820 -170.2397308 -11.1621227
102.0162354 -166.8950195 8.9723387
100.7058105 -166.8858948 9.2102776
80.6128311 -167.6058502 8.6576424
79.3820114 -167.7101746 8.3524914
78.1307373 -167.8164978 8.0194168
74.4305115 -168.1875458 6.8508182
73.2133408 -168.3162231 6.3719950
71.9840393 -168.4605103 5.8675609
70.7603302 -168.6124573 5.3299422
65.8778839 -169.3009644 2.7903759
50.1029053 -172.9316101 -12.0126858
48.9122391 -173.3632050 -13.8664894
47.6902161 -173.8385315 -15.9308090
135.3044434 -169.5746002 -14.1155491
133.7073669 -169.1132202 -11.7159681
102.0182800 -165.7495422 8.6315365
100.7417145 -165.7398376 8.8607330
99.4613800 -165.7362366 9.0637169
85.6031952 -166.1238098 9.2049036
84.3350525 -166.1933136 9.0272884
79.3885727 -166.5537415 8.0263844
78.1469269 -166.6550751 7.7166500
74.4352875 -167.0135498 6.5194473
73.2321014 -167.1564636 6.0543509
72.0028687 -167.2987671 5.5542326
70.7784042 -167.4473724 5.0198345
65.8850174 -168.1322784 2.4817295
50.0975113 -171.7466583 -12.3605251
48.9062195 -172.1786652 -14.2301302
47.7064934 -172.6472168 -16.2779770
135.4075317 -168.4571991 -14.7590466
133.7682800 -167.9909363 -12.2968140
102.0590134 -164.6083374 8.2537766
100.7750092 -164.6010895 8.4788322
88.1140137 -164.8442688 9.0988760
84.3607407 -165.0434723 8.6884642
83.1107864 -165.1243896 8.4751930
79.4114227 -165.3988953 7.6971159
78.1874466 -165.5027466 7.3877668
76.9212036 -165.6156311 7.0024104
75.7023773 -165.7379456 6.6035986
74.4799957 -165.8650208 6.1717467
73.2293243 -166.0002594 5.7001324
72.0215378 -166.1409760 5.2127814
70.7945633 -166.2893829 4.6784687
69.5704651 -166.4459686 4.1116552
68.3378372 -166.6107483 3.4961400
67.1077423 -166.7859497 2.8319111
65.8927231 -166.9721222 2.1227913
50.1299896 -170.5613861 -12.7099018
48.9341507 -170.9935455 -14.5971451
133.8397217 -166.8771973 -12.9307203
102.0850525 -163.4689941 7.8659477
100.8042450 -163.4684448 8.0787306
96.9568405 -163.4628448 8.6244602
95.6931229 -163.4750366 8.7448120
94.4110031 -163.4941101 8.8259573
93.1527023 -163.5218353 8.8733845
91.8893356 -163.5590820 8.8865919
90.6286392 -163.5999908 8.8591347
89.3843002 -163.6476135 8.7954082
88.1309891 -163.7024689 8.7164974
84.3910599 -163.8911438 8.3421249
83.1559448 -163.9788361 8.1152515
81.8840942 -164.0671387 7.8387918
80.6643829 -164.1574554 7.5943909
79.4364929 -164.2498474 7.3325419
78.1834335 -164.3560333 7.0011582
76.9573822 -164.4686279 6.6320314
75.7261963 -164.5893250 6.2303133
74.5034561 -164.7169189 5.8004484
73.2545013 -164.8493347 5.3326221
72.0416565 -164.9889526 4.8418131
70.8095932 -165.1388855 4.2957392
69.5818787 -165.2951660 3.7170038
68.3517151 -165.4600525 3.1037116
67.1320038 -165.6340637 2.4464669
65.9070892 -165.8184052 1.7352469
50.1288948 -169.3991852 -13.1782227
48.9411469 -169.8291321 -15.0643730
133.9268494 -165.7784424 -13.6467772
102.1112061 -162.3329468 7.4552703
100.8224106 -162.3266144 7.6785240
96.9848938 -162.3275146 8.2268629
95.7043762 -162.3404541 8.3516235
91.9204559 -162.4277649 8.4537020
90.6715622 -162.4678802 8.4280710
86.8987122 -162.6208801 8.2191200
85.6514130 -162.6793671 8.0943556
50.1533585 -168.2383423 -13.6595812
48.9459190 -168.6748352 -15.5938606
47.7261810 -169.1410980 -17.6933479
134.0396729 -164.6966553 -14.4725151
102.1452789 -161.2044525 6.9960375
100.8633881 -161.1990356 7.2125816
97.0291977 -161.1990509 7.7689466
95.7449417 -161.2073975 7.8780780
91.9506073 -161.2938843 8.0095615
90.6912689 -161.3308105 7.9988232
86.9432449 -161.4846191 7.7972050
85.6904755 -161.5480957 7.6685081
50.1801567 -167.0884399 -14.1898499
48.9680672 -167.5245361 -16.1428337
134.1458588 -163.6331024 -15.3884172
132.5082397 -163.1997833 -13.0122461
130.9885559 -162.8300629 -11.0015316
102.1738892 -160.0890961 6.4993243
100.8977737 -160.0803223 6.7200079
95.7850647 -160.0929871 7.3936090
91.9894791 -160.1674194 7.5663462
90.7201996 -160.2023621 7.5628352
89.4631653 -160.2447815 7.5437036
88.2035446 -160.2986145 7.4624748
86.9675446 -160.3523865 7.3462043
85.7111435 -160.4154053 7.2080455
50.1878128 -165.9544373 -14.8213577
132.5960083 -162.1326599 -13.8793173
131.0872803 -161.7515259 -11.8388634
102.2334213 -158.9669037 5.9693360
100.9417419 -158.9559937 6.2110338
97.1011658 -158.9541626 6.7751784
95.8205414 -158.9612732 6.8966036
92.0301056 -159.0347900 7.0697799
90.7540207 -159.0769348 7.0703802
89.4978943 -159.1215057 7.0331755
88.2372513 -159.1692810 6.9398594
86.9868317 -159.2271118 6.8500457
85.7430801 -159.2899780 6.6987348
50.2071228 -164.8264313 -15.4850883
132.7331848 -161.0823059 -14.8908014
131.1745911 -160.6899414 -12.7211809
102.2730637 -157.8587189 5.4275970
100.9830856 -157.8412933 5.6812162
99.6910019 -157.8350067 5.9098182
98.4090500 -157.8314819 6.0973377
97.1320190 -157.8377991 6.2484341
95.8504028 -157.8514709 6.3808222
52.6355476 -162.9327850 -12.7111216
51.4407005 -163.3032990 -14.3657503
50.2379875 -163.7040100 -16.1830807
132.8585815 -160.0431366 -15.9393082
131.2921448 -159.6417847 -13.7250919
102.3187408 -156.7468872 4.8478580
101.0256271 -156.7319031 5.1093655
99.7403564 -156.7194366 5.3267274
98.4535904 -156.7206421 5.5215073
97.1766891 -156.7244263 5.6842613
95.9046631 -156.7371979 5.8176999
52.6664162 -161.8183289 -13.4359121
51.4683113 -162.1916199 -15.1278534
133.0113068 -159.0078125 -17.0926075
131.4124908 -158.6114349 -14.8167992
52.7059326 -160.7134247 -14.2095985
51.4973068 -161.0937653 -15.9510460
50.2852554 -161.4948425 -17.8311844
131.5532379 -157.5953217 -16.0089226
52.7385216 -159.6190796 -15.0583649
51.5336075 -160.0014954 -16.8269310
131.7035828 -156.5911255 -17.2810783
130.1407471 -156.2034149 -15.0695000
128.6093140 -155.8537140 -13.1061754
52.7728386 -158.5332031 -15.9746819
131.9247742 -155.6017456 -18.7575264
130.2920837 -155.2075500 -16.3884449
128.7195282 -154.8404694 -14.2703896
52.8122253 -157.4611206 -16.9668941
130.4757690 -154.2305298 -17.8724422
128.8846588 -153.8478241 -15.6280060
52.8693008 -156.4049225 -18.0195313
130.6658630 -153.2644196 -19.4260502
129.0395355 -152.8700256 -17.0376053
52.9029541 -155.3563995 -19.2047291
129.2225800 -151.9073029 -18.5881844
127.6682434 -151.5424805 -16.4607067
126.1622314 -151.2251892 -14.6086044
55.3667107 -153.5787659 -16.8687420
54.1700287 -153.9336243 -18.5478573
52.9670677 -154.3194733 -20.4189148
129.4506683 -150.9617462 -20.3442173
127.8225098 -150.5858917 -18.0062218
126.3054810 -150.2462006 -16.0426960
55.4255219 -152.5432892 -18.0741444
54.2236481 -152.9088593 -19.8323288
53.0273399 -153.2947388 -21.7499275
128.0309753 -149.6511230 -19.7632618
126.4785767 -149.2983246 -17.6450653
55.4785652 -151.5241699 -19.4045219
54.2839851 -151.8985748 -21.2186623
126.6783218 -148.3662720 -19.4043198
55.5445023 -150.5187683 -20.8364830
126.9140701 -147.4605713 -21.3826218
125.4022522 -147.1213684 -19.3076935
123.8662872 -146.8052063 -17.3638821
58.0204506 -148.8286591 -18.9141598
56.8166161 -149.1665955 -20.5586338
55.6109085 -149.5276794 -22.3873425
125.6181641 -146.2180328 -21.2614632
124.0553207 -145.8879700 -19.1772804
58.1017990 -147.8358612 -20.4067249
124.3092346 -144.9899750 -21.2327995
122.7455444 -144.6817932 -19.2471828
121.2510605 -144.4072113 -17.5791550
60.6007156 -146.2313690 -18.8941269
59.3889236 -146.5311584 -20.3922119
58.1848297 -146.8668213 -22.0516148
123.0180435 -143.7641144 -21.3520432
121.4707642 -143.4978333 -19.5159245
60.6661453 -145.2520752 -20.5322514
59.4681702 -145.5719757 -22.0979424
58.2744102 -145.9089813 -23.8514748
-127.4091034 -164.0112915 -97.7857208
-128.7153931 -163.8730164 -96.9713135
-130.0115204 -163.7908478 -96.2912598
-131.3390350 -163.7137909 -95.7409134
-132.6776428 -163.6800079 -95.3310699
-134.0444641 -163.6810455 -95.0626831
-135.4232330 -163.6803589 -94.8894806
-136.8168640 -163.7231750 -94.8811874
-138.2145081 -163.7566223 -94.9290237
-139.6493378 -163.8208160 -95.1524658
121.7235870 -142.5886383 -21.6139202
120.2186279 -142.3500366 -19.8956871
118.7617874 -142.1032410 -18.3626671
63.1854439 -143.7179413 -19.3785648
61.9746246 -143.9946747 -20.7541237
60.7556190 -144.2983856 -22.2948761
59.5649986 -144.6266785 -23.9547253
-121.8549500 -162.5193176 -98.1590805
-123.0987091 -162.3076477 -96.8460693
-124.3589630 -162.1497345 -95.7490921
-125.6323700 -162.0158234 -94.8067780
-126.9338303 -161.9064941 -93.9976120
-128.2486420 -161.8346405 -93.3334198
-137.7444916 -161.7345581 -91.4169083
-139.1671448 -161.8017120 -91.5727539
-140.5800171 -161.8559113 -91.7676086
-142.0218506 -161.9368744 -92.0972900
-143.4773560 -162.0758972 -92.5928345
-144.9630280 -162.2498169 -93.1893311
120.4876480 -141.4690704 -22.1424236
118.9824982 -141.2169037 -20.4230499
63.2719498 -142.7570953 -21.1414299
62.0653839 -143.0516205 -22.5964222
60.8692818 -143.3666840 -24.2106438
-118.9287720 -160.8897095 -97.2657700
-120.1660995 -160.6436462 -95.8060837
-121.4287949 -160.4835358 -94.6021881
-122.7018585 -160.3308563 -93.5357208
-123.9687881 -160.1991730 -92.5995026
-125.2532883 -160.0827332 -91.7784653
-126.5636826 -160.0067139 -91.0924301
-127.8868103 -159.9051819 -90.4383698
-137.3693695 -159.8293762 -88.6262970
-138.7918091 -159.9009094 -88.7476501
-140.1981201 -159.9583282 -88.9145813
-141.6194763 -160.0425262 -89.1898575
-143.0479584 -160.1244507 -89.5421066
-144.5143890 -160.2440491 -90.0321884
-145.9818115 -160.3831329 -90.6131363
-147.4871216 -160.5769348 -91.3291931
-149.0111847 -160.7907867 -92.2084045
-150.5569611 -161.0078583 -93.2671280
119.2515640 -140.3512421 -22.7495193
117.6952667 -140.1022186 -20.9661198
116.2519913 -139.8737946 -19.5517597
65.8167572 -141.2825775 -20.3227329
64.6134262 -141.5416565 -21.5938873
63.4023476 -141.8210449 -23.0235825
-116.1211166 -159.3283997 -96.9491882
-117.3385849 -159.1125183 -95.4395294
-118.5681839 -158.8981018 -94.0465088
-119.8187027 -158.7170105 -92.8268585
-148.5647278 -158.8112793 -89.2565536
-150.0626984 -158.9739075 -90.0874252
-151.6179810 -159.1968079 -91.1264496
119.5579910 -139.5127716 -25.4102249
117.9839859 -139.2287598 -23.4262123
116.4748993 -139.0107727 -21.7840614
65.9192047 -140.3428192 -22.2666130
64.7144394 -140.6197357 -23.6334496
-113.3466644 -157.9342957 -97.3259277
-114.5606384 -157.6485901 -95.5628891
-115.7825317 -157.4337158 -94.0629272
-117.0216446 -157.2216644 -92.6907349
-118.2570572 -157.0388641 -91.4805908
-119.5304413 -156.8904266 -90.4161987
-148.2194366 -156.9859467 -86.7911377
-149.7047119 -157.1403351 -87.5110016
-151.2083740 -157.3295288 -88.3484421
-154.3317261 -157.7881165 -90.4601288
116.7854156 -138.1904144 -24.4299736
115.3073425 -137.9624939 -22.8556976
113.8703079 -137.7454834 -21.4533005
68.4860382 -138.9374390 -21.8132935
67.2723083 -139.1750946 -23.0057049
66.0567780 -139.4425049 -24.3432350
64.8526459 -139.7334137 -25.8582115
-110.6425247 -156.6281738 -98.2155380
-111.8361282 -156.2980042 -96.2539978
-113.0307770 -156.0286865 -94.5208206
-114.2647781 -155.8004456 -92.9876862
-150.8903351 -155.5405884 -86.0938339
-152.3967285 -155.7016449 -86.9345245
-153.9130096 -155.8953552 -87.8990860
-155.4777985 -156.1472473 -89.0395813
115.6162796 -137.1548462 -25.5726509
114.1562958 -136.9332886 -24.0053425
68.6166534 -138.0331421 -23.9398079
67.4063950 -138.2896881 -25.2489452
66.1904297 -138.5736542 -26.7524128
-109.1743698 -155.0268555 -97.4209595
-110.3618164 -154.7078247 -95.4402618
-111.5513535 -154.4545288 -93.7294083
-112.7693481 -154.2334595 -92.2087250
-114.0297546 -154.0115662 -90.8018875
-150.6061554 -153.7911682 -84.1368484
-152.0919495 -153.9527740 -84.8934402
-153.6015625 -154.1311340 -85.7664948
-155.1237488 -154.3299255 -86.7712250
-156.7238770 -154.6090851 -87.9320908
114.4855881 -136.1262360 -26.9865513
112.9437485 -135.9262390 -25.2893429
111.4961700 -135.7110596 -23.9431152
110.0780716 -135.5409698 -22.7400246
108.6864014 -135.3900757 -21.6898689
71.2022400 -136.6892700 -23.9074230
69.9763336 -136.9155731 -25.0624657
68.7666473 -137.1708374 -26.3517551
67.5621338 -137.4464874 -27.8080120
-107.7152405 -153.4929810 -96.9389420
-108.9084625 -153.1794434 -94.9190445
-156.3742828 -152.8050842 -85.8384323
111.8107452 -134.9420166 -26.8981934
110.3520889 -134.7568665 -25.5215473
108.9487152 -134.5795593 -24.3085384
71.3534851 -135.8330688 -26.3984394
70.1450348 -136.0859680 -27.6746902
68.9262314 -136.3442383 -29.1623726
-106.2864609 -152.0155640 -96.6778030
-107.4741592 -151.6963501 -94.6322861
-108.6740570 -151.4400635 -92.8569794
-156.1169128 -151.1094513 -84.0408783
-157.6619568 -151.3257141 -85.0969086
-159.2115173 -151.5554810 -86.2793655
-160.8387451 -151.8383942 -87.6960373
110.7149200 -133.9943237 -28.8106937
109.2724762 -133.8175507 -27.3885288
107.8289413 -133.6498413 -26.1489925
106.3982849 -133.5025482 -25.0861053
105.0039444 -133.3737488 -24.1747913
103.6392593 -133.2707520 -23.3790703
76.4568558 -134.1865997 -24.9015980
75.2267456 -134.3648987 -25.8058910
73.9841080 -134.5678101 -26.8141117
72.7761993 -134.7879486 -27.9218884
71.5491409 -135.0355377 -29.2670383
-103.7367401 -150.9311676 -98.9469070
-104.9031067 -150.5384979 -96.5304565
-106.0711441 -150.2380829 -94.5105286
-158.9372253 -149.8482056 -84.4885712
-160.5228729 -150.0953064 -85.7595062
-162.1449280 -150.3956757 -87.1498642
106.7113647 -132.7852325 -28.2657242
105.2900009 -132.6283569 -27.1966782
103.9168167 -132.4899597 -26.2916603
76.6496048 -133.3645325 -27.6622849
75.4259491 -133.5655518 -28.6674080
-102.3599854 -149.5118408 -99.1816559
-103.5130615 -149.1119995 -96.6481628
-104.6955338 -148.8030701 -94.5364990
-105.8749390 -148.5415039 -92.7174301
-158.7130585 -148.1902771 -82.9381714
-160.2689056 -148.4232330 -84.1097946
-161.8575134 -148.6751404 -85.3871460
105.6717911 -131.9389191 -30.9216518
104.2393570 -131.8084869 -29.6966114
102.8350067 -131.6749420 -28.7142200
101.4450607 -131.5714874 -27.9166145
100.0660477 -131.4785156 -27.2868290
98.7209473 -131.4173737 -26.6848068
97.3839340 -131.3653107 -26.2164574
96.0404968 -131.3437805 -25.8672409
94.7086487 -131.3299866 -25.6731853
93.3948517 -131.3300629 -25.4986382
86.9082718 -131.5373230 -25.8227844
85.6474380 -131.6191101 -26.1009617
84.3676529 -131.7070007 -26.5320892
83.1098404 -131.8226624 -26.9816628
81.8395691 -131.9442902 -27.5545120
80.5871124 -132.0841675 -28.1920624
79.3500824 -132.2412262 -28.9418259
78.1117020 -132.4241028 -29.8689842
76.8845367 -132.6342163 -30.9266796
75.6623535 -132.8337402 -32.1502686
-101.0015869 -148.1305237 -99.5805435
-102.1457596 -147.7394562 -96.9930420
-103.3151855 -147.4060516 -94.7707748
-161.5856934 -147.0000458 -83.8032608
-163.2058105 -147.2735901 -85.1344528
103.2653198 -130.9939880 -32.9025574
101.8154602 -130.8724060 -31.7869835
100.4068604 -130.8018494 -30.9220753
99.0476074 -130.7207031 -30.2181988
97.6893158 -130.6623077 -29.6076984
96.3430099 -130.6250305 -29.2190018
95.0018387 -130.5929565 -28.9106903
93.6810913 -130.5799103 -28.6657906
87.1727295 -130.7807617 -28.9304962
85.9022522 -130.8663635 -29.2323437
84.6277313 -130.9658508 -29.6740131
83.3526154 -131.0903320 -30.2560978
82.1026535 -131.2358398 -30.9228058
-100.8076782 -146.3795624 -97.5087814
-101.9718857 -146.0276794 -95.1654663
-103.1511154 -145.7377319 -93.1505432
-161.3679962 -145.3681488 -82.4112701
-162.9654541 -145.6185913 -83.6955185
-164.5901031 -145.8978729 -85.1276627
-166.2517700 -146.2145691 -86.7336349
94.0271454 -129.9704742 -32.6163216
92.6947250 -129.9618530 -32.4043045
91.3798447 -129.9710388 -32.3105850
90.0754013 -130.0035095 -32.3243866
88.7809219 -130.0588074 -32.5447388
87.4854507 -130.1434021 -32.8123703
83.6885452 -130.4681549 -34.4287491
-99.4844360 -145.0463104 -98.1916046
-100.6269073 -144.7022400 -95.8060303
-101.8102417 -144.3838348 -93.6483231
-103.0158005 -144.0951538 -91.7153244
-164.3350983 -144.2445679 -83.7027359
-165.9920349 -144.5452728 -85.2341232
-100.4805603 -143.0492249 -94.3008347
-101.6806183 -142.7457886 -92.2628021
-102.8889465 -142.4966736 -90.4849396
-164.1542969 -142.6564178 -82.4740677
-165.7475891 -142.9081421 -83.8628845
-167.4046478 -143.2143250 -85.4158325
-101.5494308 -141.1696320 -91.1129837
-102.7682724 -140.9281464 -89.4160461
-167.1873169 -141.5995636 -84.1545181
-100.2073822 -139.8709106 -91.8886948
-101.4547272 -139.5950623 -90.0562744
-102.6715393 -139.3803101 -88.4456787
-166.9908600 -140.0095215 -83.0283508
-168.6488037 -140.3059540 -84.6066284
-100.1307297 -138.2925720 -90.8584900
-166.8303680 -138.4532166 -82.0333862
-168.4581604 -138.7233734 -83.5336609
-98.8292313 -137.0314636 -91.8032379
-100.0651703 -136.7482605 -89.9516678
-166.6955719 -136.9289093 -81.1699371
-168.3050079 -137.1778870 -82.5903397
-169.9446106 -137.4572296 -84.1394348
-98.7473145 -135.4922028 -90.9339828
-99.9761124 -135.2448120 -89.2091064
-108.7104950 -134.0636749 -80.1394958
-109.9793243 -133.9509430 -79.1783524
-111.2342834 -133.8435364 -78.2812576
-112.5320663 -133.7327271 -77.4077988
-169.8088684 -135.9233093 -83.2775955
-171.4996338 -136.2351074 -84.9566040
-97.5373001 -134.1512604 -91.5901794
-98.6809006 -133.9815521 -90.2120819
-99.9179382 -133.7380066 -88.5137634
-108.6580124 -132.6027222 -79.6371231
-109.9239349 -132.4879913 -78.6915588
-111.1915741 -132.3827362 -77.8002167
-112.4768600 -132.2835693 -76.9578171
-169.6590271 -134.3923645 -82.4611969
-171.3054047 -134.6769257 -84.0759506
-97.4233475 -132.6932831 -91.1326981
-106.0778809 -131.4100952 -81.2798157
-107.3432007 -131.2741394 -80.1986237
-108.6056137 -131.1675415 -79.2182236
-111.1571655 -130.9363098 -77.3952866
-112.4354935 -130.8455963 -76.5693970
-169.5383759 -132.8875732 -81.7506638
-171.1801605 -133.1585541 -83.3214493
-106.0296631 -129.9608459 -80.8713226
-107.3068771 -129.8262939 -79.8101273
-111.1120148 -129.5044250 -77.0469360
-112.3896332 -129.4172363 -76.2303238
-169.4482574 -131.4017487 -81.1488113
-171.0702820 -131.6585236 -82.6706696
-97.2982559 -129.7690125 -90.2519302
-105.9967651 -128.5207520 -80.5126877
-107.2669220 -128.3989105 -79.4814758
-111.0768509 -128.0791931 -76.7355194
-112.3625031 -127.9896393 -75.9127731
-169.3487701 -129.9241791 -80.6097107
-170.9693298 -130.1752930 -82.0998459
-172.6387329 -130.4583130 -83.7480621
-97.2699509 -128.3025970 -89.8236008
-105.9636383 -127.0965118 -80.2157364
-107.2412949 -126.9709549 -79.1886215
-109.7831879 -126.7376709 -77.3261566
-111.0497131 -126.6561279 -76.4552765
-112.3356628 -126.5741348 -75.6567764
-169.2922058 -128.4675598 -80.1811447
-170.9016266 -128.7094421 -81.6270752
-172.5432281 -128.9754181 -83.2228317
-97.2459869 -126.8370514 -89.4032364
-105.9339828 -125.6769180 -79.9720688
-107.2132339 -125.5544434 -78.9448853
-108.4856110 -125.4475708 -77.9931946
-109.7511902 -125.3465271 -77.0927963
-172.4600677 -127.5101242 -82.7792892
-174.1481018 -127.8026886 -84.5422516
-175.8860168 -128.1304474 -86.5039444
-95.9703827 -125.6315536 -90.8764420
-97.2001495 -125.4048615 -89.1187210
-105.9193344 -124.2647629 -79.7727585
-107.1824646 -124.1515808 -78.7649155
-108.4569244 -124.0424576 -77.8145523
-109.7310638 -123.9419861 -76.9134903
-172.4099426 -126.0603790 -82.4177780
-174.0569000 -126.3339233 -84.1177902
-175.7798767 -126.6500702 -86.0472717
-95.9521484 -124.1983109 -90.6325378
-97.1871796 -123.9715576 -88.8616180
-172.3530731 -124.6183777 -82.1084747
-173.9936371 -124.8840561 -83.7672119
-95.9552002 -122.7684479 -90.4154358
-97.1648407 -122.5566254 -88.6997528
-172.3168640 -123.1902313 -81.8875732
-173.9637756 -123.4513245 -83.5250702
-95.9338455 -121.3599777 -90.3140335
-97.1616364 -121.1457138 -88.5850449
-129.2501831 -119.1042557 -68.8860474
-130.6001587 -119.1067047 -68.6755753
-131.9331512 -119.1073456 -68.4975739
-133.2632294 -119.1131134 -68.3550949
-134.6026001 -119.1288223 -68.2651825
-135.9777832 -119.1507034 -68.1958389
-137.3184052 -119.1699905 -68.1492310
-138.6862335 -119.2018356 -68.1544037
-140.0506744 -119.2371445 -68.2088623
-141.4158020 -119.2767715 -68.2870865
-142.7972565 -119.3175735 -68.3888702
-144.1727295 -119.3644562 -68.5390472
-145.5797882 -119.4280930 -68.7476120
-146.9621277 -119.4883881 -68.9873428
-172.2822876 -121.7686768 -81.7258759
-173.9149475 -122.0227280 -83.3400650
-94.7239380 -120.1803436 -92.0986176
-95.9362106 -119.9522934 -90.2432404
-97.1491852 -119.7467270 -88.5418701
-129.2523499 -117.7318268 -68.8925247
-130.5858459 -117.7326355 -68.6744308
-131.9243622 -117.7424393 -68.4807129
-137.3185120 -117.8021088 -68.1709671
-138.6835785 -117.8315964 -68.1767349
-140.0547180 -117.8680115 -68.2190170
-141.4115601 -117.9024811 -68.2875900
-142.8025970 -117.9492111 -68.4011841
-144.1783600 -117.9983978 -68.5609207
-145.5718994 -118.0538330 -68.7632599
-146.9609375 -118.1151276 -68.9980087
-172.2720337 -120.3605728 -81.6428528
-173.9109955 -120.6120529 -83.2469330
-175.5984650 -120.8932343 -85.0648956
-93.5124207 -119.0317993 -94.1383591
-94.7232437 -118.7813263 -92.0980072
-126.5996170 -116.3901672 -69.4745865
-127.9259949 -116.3769836 -69.1887817
-129.2552185 -116.3704224 -68.9346313
-130.5899353 -116.3671417 -68.7066498
-137.3415833 -116.4423752 -68.2367783
-138.6864319 -116.4683990 -68.2344971
-140.0507202 -116.5026016 -68.2738953
-145.5796661 -116.6886215 -68.8152008
-146.9678650 -116.7480087 -69.0512924
-175.5876312 -119.4827728 -85.0051422
-92.3336868 -117.9058075 -96.3880768
-93.5067444 -117.6396790 -94.2068329
-94.7252121 -117.3900986 -92.1515198
-126.6165695 -115.0276871 -69.5562668
-130.5936584 -115.0065918 -68.7821808
-135.9863434 -115.0577698 -68.3515091
-137.3409729 -115.0809174 -68.3158112
-138.7007904 -115.1090698 -68.3241882
-140.0731812 -115.1439209 -68.3681488
-145.5962830 -115.3266983 -68.9033051
-146.9865570 -115.3864899 -69.1375198
-175.5762939 -118.0800705 -85.0081177
-177.3324585 -118.3875580 -87.0364685
-91.1706390 -116.8301010 -99.0564575
-92.3424530 -116.5199280 -96.5242310
-126.6325073 -113.6718597 -69.6721039
-138.7121735 -113.7532349 -68.4393005
-140.0718079 -113.7853088 -68.4771347
-141.4493866 -113.8233490 -68.5527496
-142.8371582 -113.8672409 -68.6716537
-144.2161865 -113.9146729 -68.8246613
-145.6113281 -113.9689789 -69.0234680
-147.0049438 -114.0273819 -69.2528839
-175.5747070 -116.6858978 -85.0699615
-177.3189697 -116.9879379 -87.0943604
-90.0607910 -115.7947922 -102.0860291
-91.1903534 -115.4454498 -99.2344818
-92.3519592 -115.1388626 -96.7025909
-126.6482086 -112.3244629 -69.8523636
-127.9640274 -112.3150864 -69.5773468
-131.9621735 -112.2999573 -68.8923874
-138.7355042 -112.4010391 -68.5891342
-142.8420715 -112.5134277 -68.8194580
-144.2369385 -112.5622101 -68.9815674
-145.6257172 -112.6146164 -69.1724777
-147.0167694 -112.6729660 -69.4065247
-175.6119690 -115.3059921 -85.2346191
-177.3393555 -115.6010437 -87.2355194
-90.0875168 -114.4165955 -102.3428497
-126.6760712 -110.9797211 -70.0571899
-127.9906311 -110.9698944 -69.7815704
-131.9909973 -110.9655304 -69.1280670
-137.4105530 -111.0290375 -68.7948303
-138.7671356 -111.0567627 -68.7969131
-142.8733063 -111.1671143 -69.0224152
-144.2570801 -111.2143860 -69.1779251
-172.3224030 -113.4328003 -82.0895844
-173.9632263 -113.6684418 -83.6639938
-175.6456604 -113.9324951 -85.4546509
-177.3799744 -114.2257462 -87.4666901
-179.1846161 -114.5412292 -89.6400681
-90.1218262 -113.0497894 -102.6853561
-126.7038116 -109.6383667 -70.2862701
-128.0271301 -109.6275330 -70.0056000
-132.0246887 -109.6260910 -69.3738556
-133.3766327 -109.6337738 -69.2266006
-134.7259521 -109.6467056 -69.1311340
-136.0760498 -109.6654205 -69.0663147
-137.4303436 -109.6876373 -69.0313721
-138.8073425 -109.7157593 -69.0421448
-140.1698303 -109.7479172 -69.0896683
-141.5292206 -109.7840958 -69.1543198
-142.9202271 -109.8243942 -69.2649231
-144.2922974 -109.8716736 -69.4193802
-172.3628540 -112.0710907 -82.3650055
-174.0034180 -112.3053589 -83.9482880
-90.1567535 -111.6952744 -103.1451340
-126.7419281 -108.2978668 -70.5517273
-128.0483093 -108.2919312 -70.2768707
-129.3889923 -108.2851715 -70.0332336
-130.7322845 -108.2840881 -69.8262939
-172.4295197 -110.7182312 -82.7154007
-174.0645447 -110.9511032 -84.3066788
-90.1794815 -110.3435211 -103.6598129
-126.7680664 -106.9663620 -70.8613205
-128.0942688 -106.9563751 -70.5852737
-129.4221649 -106.9512939 -70.3374252
-130.7663269 -106.9485168 -70.1171112
-172.4724731 -109.3689804 -83.0951004
-174.1221466 -109.6032944 -84.7205811
-175.8309631 -109.8642426 -86.5617752
-90.2300110 -109.0096588 -104.3014221
-91.3994141 -108.6621399 -101.2449493
-92.5301895 -108.3571930 -98.6419449
-172.5695038 -108.0303345 -83.5853119
-174.1875153 -108.2625046 -85.1981506
-90.2862930 -107.6844864 -105.0771103
-91.4495239 -107.3379135 -101.9763184
-92.6060181 -107.0251465 -99.2388000
-172.6538544 -106.6971893 -84.1176453
-174.2786713 -106.9310989 -85.7577057
-91.5205078 -106.0236664 -102.7761002
-92.6767044 -105.7067337 -99.9520950
-172.7480774 -105.3711395 -84.7196808
-174.3888702 -105.6040573 -86.3855438
-91.5926361 -104.7175674 -103.6873856
-92.7421951 -104.4002762 -100.8018112
-172.8419189 -104.0519485 -85.3759079
-174.5257568 -104.2820282 -87.0963211
-91.6733398 -103.4144592 -104.6619110
-92.8262482 -103.0991821 -101.7328491
-169.7143860 -102.3262329 -83.1292953
-171.3221741 -102.5217590 -84.5330658
-172.9532623 -102.7385101 -86.1101379
-92.9230804 -101.8110580 -102.7534332
-169.8060608 -101.0148163 -83.8409271
-171.4269409 -101.2135620 -85.2950439
-173.1143036 -101.4321594 -86.9672699
-93.0333862 -100.5303802 -103.8888550
-94.1762009 -100.2338791 -101.1353912
-95.3443375 -99.9715195 -98.6838379
-169.9519806 -99.7147827 -84.6792908
-171.5852966 -99.9164886 -86.1913300
-93.1134644 -99.2506561 -105.2134857
-94.2956085 -98.9588318 -102.2822189
-95.4468079 -98.6894989 -99.7645569
-170.1066742 -98.4185104 -85.6098175
-171.7408447 -98.6243210 -87.1551590
-173.4356232 -98.8406219 -88.8841324
-94.3813400 -97.6839752 -103.6138840
-95.5654144 -97.4152298 -100.9604645
-170.2597504 -97.1331482 -86.5955658
-171.9032593 -97.3406982 -88.1934052
-95.6945190 -96.1548309 -102.2608795
-170.4487305 -95.8536148 -87.7029037
-172.1065063 -96.0615234 -89.3587112
-95.8217010 -94.9028778 -103.7641296
-96.9781494 -94.6540375 -101.2670898
-98.1646194 -94.4268799 -98.9755859
-167.3725128 -94.2056732 -85.9544983
-168.9873505 -94.3827896 -87.3439026
-170.6224976 -94.5851517 -88.8979492
-95.9387741 -93.6446609 -105.4134903
-97.1249313 -93.4048004 -102.7523804
-98.2992783 -93.1703491 -100.3555222
-167.5688782 -92.9309692 -87.1427307
-169.1745148 -93.1185379 -88.5790024
-97.2708893 -92.1659470 -104.4162216
-98.4512100 -91.9324188 -101.9029617
-167.7635803 -91.6665497 -88.4136658
-169.3957520 -91.8654861 -89.9501801
-98.6239090 -90.7091370 -103.6503677
-167.9870605 -90.4136429 -89.8255157
-169.6533051 -90.6113968 -91.4745789
-98.7660980 -89.4737091 -105.6072540
-99.9682388 -89.2473145 -102.9907532
-101.1333237 -89.0292358 -100.7586365
-164.9977722 -88.8208084 -88.5102768
-166.6043854 -88.9875641 -89.8590164
-168.2324524 -89.1719894 -91.3878174
-169.9266968 -89.3672409 -93.1391144
-100.1483612 -88.0267792 -104.9699554
-101.3145599 -87.8062592 -102.5913010
-165.2562866 -87.5733795 -90.0656128
-166.8612213 -87.7507629 -91.4821014
-101.5014496 -86.5915298 -104.6156387
-102.6869125 -86.3924103 -102.3790894
-103.8763962 -86.2039261 -100.3469543
-162.3084106 -86.0329666 -89.1476288
-163.8953552 -86.1762695 -90.3623886
-165.4913635 -86.3400803 -91.7091064
-167.1383667 -86.5217896 -93.2742081
-102.9106522 -85.1983795 -104.4711838
-104.0625305 -84.9903259 -102.3122940
-162.5636597 -84.7981720 -90.7972717
-164.1631012 -84.9471130 -92.0938873
-103.1316910 -84.0141830 -106.9236450
-104.2945251 -83.8098907 -104.4948502
-105.4923477 -83.6093445 -102.3505096
-106.6917648 -83.4377518 -100.4951477
-159.7171936 -83.2941589 -90.3197250
-161.2870789 -83.4225693 -91.4286728
-162.8465271 -83.5714340 -92.6363525
-164.4866333 -83.7289047 -94.0732574
-104.5493774 -82.6313934 -107.0390472
-105.7328339 -82.4251175 -104.6668472
-106.9235382 -82.2472839 -102.6129990
-159.9984131 -82.0657654 -92.1555328
-161.5805664 -82.2069321 -93.3628769
-163.1757050 -82.3577576 -94.7072525
-107.1686783 -81.0623398 -105.0587921
-108.3703384 -80.8967896 -103.0487213
-109.5692291 -80.7408829 -101.2625351
-157.1890411 -80.5978394 -92.0458603
-158.7246246 -80.7257690 -93.0278625
-160.3001404 -80.8588409 -94.1963043
-161.9121094 -81.0033188 -95.5299149
-107.4404144 -79.8900452 -107.8753815
-108.6407623 -79.7289124 -105.6348953
-109.8228607 -79.5654755 -103.6877899
-157.5148773 -79.3874969 -94.1372223
-159.0615540 -79.5217133 -95.2419891
-108.9366837 -78.5704041 -108.6613083
-110.1315155 -78.4218903 -106.4658661
-111.3149796 -78.2498245 -104.5854340
-112.5353851 -78.1025391 -102.8423996
-113.7662506 -77.9757385 -101.3404694
-115.0078888 -77.8659058 -99.9638214
-154.7549133 -77.9643860 -94.3990479
-156.2928925 -78.0785370 -95.3562775
-157.8413391 -78.2075043 -96.4518738
-159.4414063 -78.3434601 -97.7885971
-110.4546509 -77.2655792 -109.8314972
-111.6480408 -77.1304626 -107.5477753
-112.8508682 -76.9748993 -105.5865021
-114.0597229 -76.8228302 -103.9129105
-115.2834473 -76.6856461 -102.4027557
-155.1141663 -76.7722015 -96.8169403
-156.6603851 -76.8942108 -97.8850250
-115.6042404 -75.5440216 -105.2303238
-116.8194504 -75.4180222 -103.7104645
-118.0817719 -75.3007507 -102.3917007
-149.4294434 -75.2118149 -96.1525726
-150.9026031 -75.3010406 -96.7952881
-152.4281616 -75.3865662 -97.5916214
-153.9454193 -75.4890594 -98.4801025
-155.5068512 -75.6145020 -99.5631866
-115.9796295 -74.4438324 -108.6609573
-117.1866074 -74.3030777 -106.8771210
-118.4248962 -74.1852036 -105.3422165
-149.7999268 -74.0418396 -98.7912827
-151.2985840 -74.1359711 -99.5612564
-118.8076248 -73.0284119 -109.0152588
-120.0401917 -72.9292068 -107.4101563
-121.2993011 -72.8510437 -106.0683289
-122.5611954 -72.7687454 -104.8060913
-123.8392639 -72.6863632 -103.7597504
-125.1385956 -72.6166840 -102.8659592
-126.4348145 -72.5670853 -102.0405579
-141.4253082 -72.5190277 -98.9691696
-142.8716431 -72.5507889 -99.2167053
-144.3012695 -72.6053925 -99.5202026
-145.7435303 -72.6658630 -99.9259949
-147.2274780 -72.7360916 -100.4549026
-148.7158356 -72.8167725 -101.1014633
-150.2253418 -72.8994446 -101.8951569
-151.7625427 -72.9786987 -102.8287201
-122.9816818 -71.6548157 -108.4853821
-124.2539825 -71.5908432 -107.2855377
-125.5355988 -71.5072784 -106.2275314
-126.8249893 -71.4482956 -105.3061676
-141.8306885 -71.3720245 -102.0125046
-143.2775421 -71.4239655 -102.3001175
-144.7449341 -71.4750824 -102.7383804
-146.2040405 -71.5394287 -103.2558136
-147.7002716 -71.5936890 -103.9053879
-127.3063660 -70.3258133 -109.3329773
-128.5938721 -70.2892075 -108.3444366
-129.8931885 -70.2722626 -107.5206299
-131.2289276 -70.2270660 -106.8924484
-132.5753632 -70.1948776 -106.3949432
-133.9205627 -70.1829987 -105.9264069
-135.2790070 -70.1614075 -105.6008453
-136.6510620 -70.1489868 -105.3952789
-138.0526123 -70.1632538 -105.2991409
-139.4652405 -70.1958313 -105.3614655
-140.8854523 -70.2362595 -105.5154266
-142.3060913 -70.2809067 -105.7139130
-143.7988892 -70.2898941 -106.1509399
95.6746063 -225.7992706 -16.7482662
98.7230072 -224.5969696 -15.0765724
98.0509262 -224.5075531 -14.7490149
97.4011230 -224.4856262 -14.5759497
96.7342834 -224.4606476 -14.4391966
96.0760803 -224.4205322 -14.3470688
95.4149780 -224.3682556 -14.2268257
92.1793671 -224.5665894 -14.2544069
91.5451126 -224.6595764 -14.4043179
90.9245758 -224.7585602 -14.6128311
90.3161621 -224.8303528 -14.7830982
89.6898117 -224.8574371 -14.8724852
89.0361938 -224.9868164 -15.1848164
88.4211121 -225.0733795 -15.4383917
87.7916565 -225.2191772 -15.8583126
87.1687469 -225.3509369 -16.3002415
101.9295578 -223.6217499 -14.2549496
99.1196747 -223.3709106 -13.0873175
85.8162918 -224.3716278 -14.8691874
104.4367905 -222.8693390 -14.1519756
103.7396927 -222.7226257 -13.5933828
103.0607147 -222.6027832 -13.1231441
102.3766098 -222.5090485 -12.7282782
101.7036133 -222.4496307 -12.3744631
101.0647430 -222.4071960 -12.0407400
100.4016876 -222.3661957 -11.8225060
99.7003403 -222.2736359 -11.5058041
99.0109634 -222.2309265 -11.3416882
85.5901871 -223.0792389 -12.7869720
84.3564377 -223.3542480 -13.5443077
83.7522278 -223.5586548 -13.9982367
83.1358109 -223.7487183 -14.4685745
107.1133041 -222.2422028 -14.5125008
81.7708969 -222.9611511 -13.6838350
108.2915192 -221.3416138 -13.7155170
107.5882797 -221.1570740 -13.1060238
106.8875961 -220.9947357 -12.5126905
81.6558304 -221.8089905 -11.9967241
81.0404968 -221.9752960 -12.4512529
80.4157410 -222.1717987 -13.0194244
109.5202637 -220.5615234 -13.2585869
80.3051147 -221.0547333 -11.4522791
110.0100098 -219.5620575 -12.1503372
109.2874908 -219.3844452 -11.4978056
80.1878433 -220.0975952 -10.1227427
79.5907898 -220.2246094 -10.5278435
77.7742538 -220.6824799 -12.1478252
77.1807709 -220.9403992 -12.7771854
76.5672607 -221.2003174 -13.4490213
75.2575760 -220.5811920 -13.2990360
112.6633377 -218.2351990 -12.0633059
111.9113846 -218.0238953 -11.3031244
75.1693726 -219.5342712 -11.9213867
74.5675888 -219.7655640 -12.6011267
73.9599457 -220.0126953 -13.3480816
72.7016907 -219.4441071 -13.4132996
115.1982269 -216.9745483 -12.3416433
114.4490356 -216.7249756 -11.4540377
113.7663727 -216.5598602 -10.7372818
113.0738525 -216.4028931 -10.0552473
72.6042862 -218.4272156 -12.0641775
71.2929306 -217.9379730 -12.2955265
71.2579575 -216.9275970 -11.0248699
70.6365128 -217.1866608 -11.7373915
116.9506760 -214.5680542 -10.8175774
116.8357849 -213.6525421 -9.6654453
69.8871841 -215.5494995 -10.3141298
69.2781448 -215.7862701 -11.0706682
68.6803360 -216.0324707 -11.8718414
68.6424484 -215.0618134 -10.8026466
68.1020813 -215.2661896 -11.5997696
120.2929306 -212.9249115 -11.9470549
119.5713806 -212.6721191 -10.9853268
68.5814209 -214.1545715 -9.8381424
120.8781128 -212.2085114 -11.7443895
68.5040817 -213.3076935 -8.9246855
67.2776031 -213.7114716 -10.3597927
121.4779968 -211.5171051 -11.5852833
120.6744766 -211.2256165 -10.5064240
68.4406357 -212.4618683 -8.0413742
67.8411102 -212.6693268 -8.7356939
67.2398453 -212.8851929 -9.4440613
66.6143188 -213.1483459 -10.2029934
122.0907669 -210.8161163 -11.4367609
64.7777252 -212.9766541 -11.6743689
121.9956970 -209.9237823 -10.4226980
64.7423935 -212.0838623 -10.7731199
64.1243210 -212.3610687 -11.6358728
63.4790192 -211.7358704 -11.5551300
123.3678818 -208.6721191 -10.5384197
63.4326363 -210.8630066 -10.7163954
62.1786995 -210.5327454 -11.6362114
124.7187729 -207.4954987 -10.8583288
62.1713562 -209.6551819 -10.8328228
61.6251106 -209.8989258 -11.7641487
125.3134918 -206.8612976 -10.9183969
124.5494385 -206.5912781 -9.8764849
62.1234589 -208.8181152 -10.1024933
124.4398422 -205.7586517 -9.0411558
62.0925217 -208.0009155 -9.3268738
60.2388878 -208.7262115 -12.0173893
59.6032372 -208.2521820 -12.1682463
127.2709579 -205.1203156 -11.7190647
126.4428406 -204.8102570 -10.4729176
125.7158737 -204.5825348 -9.4490366
128.0277100 -204.6195679 -12.2204809
127.1529007 -204.2732239 -10.8633337
59.5304375 -206.6108551 -10.6898127
127.0446777 -203.4323120 -10.0374088
59.5149994 -205.7933807 -10.0336771
58.9081001 -206.0559235 -10.9271393
58.2949333 -206.3302002 -11.8592548
58.2847137 -205.5127869 -11.2019920
57.6579399 -205.8113251 -12.2096539
58.2696953 -204.7046661 -10.5525560
56.9997711 -204.4730072 -11.8764725
129.1824646 -201.1169281 -10.8740988
128.2960052 -200.7970581 -9.6023607
56.9843483 -203.7156372 -11.3371344
56.4224510 -204.0209351 -12.4541588
56.9915428 -202.8708649 -10.6606016
129.7570953 -199.7940674 -10.7248621
129.7007599 -199.0448303 -10.1895304
130.3545990 -198.5132904 -10.6851358
129.5622406 -198.2390747 -9.5319605
56.8666725 -200.6293335 -9.1128902
56.2709618 -200.8639069 -9.9698019
131.0495300 -198.0209808 -11.2785320
56.8306236 -199.8946991 -8.6627321
130.9938049 -197.2795410 -10.7807732
56.8020973 -199.1615143 -8.2187681
55.5632744 -198.1607208 -9.0709133
54.9634819 -198.3976288 -9.9575577
54.3675652 -198.6499023 -10.8717232
53.7475281 -198.9239349 -11.8562660
54.3430138 -197.9229126 -10.4992123
132.2569733 -194.8249969 -11.1021509
54.3212204 -197.1990509 -10.1187963
53.6931419 -197.4677734 -11.0718622
53.0849304 -197.7280579 -12.0222616
132.1948242 -194.0973358 -10.6819868
132.9571228 -193.6620789 -11.4950094
132.1560364 -193.3901978 -10.3150110
53.1014061 -196.2466583 -11.2041292
52.4418411 -196.5493469 -12.2680550
53.0736122 -195.5346527 -10.8663616
52.4734955 -195.7838745 -11.7934008
53.0732231 -194.8075104 -10.4766817
133.6617889 -191.8310394 -11.7189512
51.7843323 -194.6399536 -12.1100359
133.5312500 -191.0872955 -11.2849951
51.7785034 -193.9261932 -11.7980442
51.7528801 -192.5364532 -11.2636757
51.1897392 -192.7707367 -12.1980848
50.5785141 -193.0480042 -13.2589693
49.9706535 -193.3348694 -14.3396082
134.1905365 -187.9427490 -11.1542873
133.3488922 -187.6684265 -9.8981047
50.5379982 -190.9553986 -12.4385262
133.3605652 -187.0137787 -9.7055254
50.5212021 -190.2671051 -12.1748409
50.4839211 -189.5956573 -11.9752464
134.9462433 -186.1908112 -11.8890028
49.2463684 -186.7442474 -13.0999393
48.6067123 -187.0216064 -14.1850157
79.6602097 -179.8498840 10.0692377
77.1845779 -180.0889893 9.3665552
76.5674286 -180.1606903 9.1519203
79.6113892 -179.2592163 10.0413294
76.5803986 -179.5428009 9.1571980
100.9351501 -177.7595062 10.9153986
97.7008438 -177.7789612 11.3260612
95.8679123 -177.7953033 11.5359430
95.2191544 -177.7981720 11.5891886
93.3192825 -177.8346710 11.6648960
92.7004623 -177.8565674 11.6555939
88.3985672 -178.0538788 11.5716877
79.6334229 -178.6413269 10.0220022
76.5710526 -178.9335022 9.1456385
100.9563675 -177.1644135 10.8681593
95.8714066 -177.1910095 11.5187550
92.7047348 -177.2605438 11.6210747
79.6293716 -178.0357208 9.9936399
79.0304260 -178.0834656 9.8504515
78.3984985 -178.1477203 9.6857405
77.7642288 -178.2144165 9.5025167
77.1635590 -178.2707367 9.3134356
76.5545349 -178.3312378 9.1126852
47.9934311 -184.6582031 -14.8448553
47.3916054 -184.9280090 -15.9436598
136.3348236 -180.9574890 -13.6153259
100.9566879 -176.5718079 10.8180666
92.7214584 -176.6582947 11.5787106
90.8233261 -176.7265015 11.5796480
90.1874847 -176.7464905 11.5388870
89.5645981 -176.7783813 11.5020781
88.9432526 -176.8072968 11.4676189
137.2366638 -180.6484680 -15.0930405
136.3715515 -180.3471985 -13.6511469
100.9594955 -175.9740753 10.7598839
100.2973785 -175.9698029 10.8541183
99.7227707 -175.9654846 10.9368563
93.9379044 -176.0291290 11.5018635
93.3285675 -176.0465546 11.5167189
92.7047958 -176.0551605 11.5300703
136.3701935 -179.7204590 -13.6330967
99.7177582 -175.3632355 10.9040403
93.9524307 -175.4355621 11.4472427
85.2140350 -175.8003540 11.0339594
84.5740662 -175.8448944 10.9241991
83.9497147 -175.8885193 10.8117409
48.0081482 -182.7052917 -14.6132460
47.3980064 -182.9688721 -15.6944056
136.3460083 -179.0912628 -13.6110115
99.6865005 -174.7742310 10.9057446
99.0427628 -174.7680664 11.0262794
93.9559784 -174.8300018 11.3891878
83.9673843 -175.2867737 10.7784462
48.0050850 -182.0581818 -14.5391102
136.3446808 -178.4788971 -13.6584063
93.9665070 -174.2370453 11.3349695
90.8323364 -174.3403778 11.3206778
82.0893173 -174.8302002 10.3478794
81.4750595 -174.8793182 10.2133398
79.0300827 -175.0831604 9.6209431
47.9938431 -181.4136505 -14.4840155
137.2147980 -178.1585846 -15.1353292
136.3211212 -177.8602753 -13.6864376
93.9889755 -173.6501312 11.2878408
90.8292313 -173.7461700 11.2500744
79.0097275 -174.4913177 9.5534592
47.9930916 -180.7743988 -14.4434338
92.0898514 -173.1054688 11.2221985
91.4544449 -173.1307068 11.2009630
79.0006561 -173.8969727 9.4835081
47.9686241 -180.1498108 -14.4701672
91.4587021 -172.5366364 11.1298752
79.0095367 -173.2994843 9.4187145
48.0238724 -179.4974976 -14.3901005
47.9801331 -178.8911591 -14.4930515
102.2610016 -171.2454529 9.9477615
47.9476051 -178.2835541 -14.5957384
102.2675781 -170.6658325 9.8145790
47.9538574 -177.6639557 -14.6542473
102.2706146 -170.0856018 9.6832294
79.0275269 -170.9448700 8.9943571
78.4055023 -170.9950256 8.8509693
47.9532204 -177.0523376 -14.7479963
47.3525085 -177.2909851 -15.7630072
102.2518921 -169.5026703 9.5590553
79.0312958 -170.3709717 8.8206711
137.3530731 -172.8277588 -16.5022697
136.4312439 -172.5219269 -14.9500217
79.0354156 -169.1786804 8.6692934
76.5696182 -169.4128876 7.9344673
75.9550781 -169.4772491 7.7226195
75.3483276 -169.5412292 7.5114632
136.5140991 -171.9558716 -15.2345123
89.0027084 -167.9629669 10.0913353
88.3768616 -167.9925232 10.0423460
80.9019928 -168.4503174 8.9614944
80.3102875 -168.4971161 8.8300123
79.6669388 -168.5471344 8.6721077
79.0426102 -168.6021881 8.5085754
78.4235535 -168.6569519 8.3381691
77.7953339 -168.7126617 8.1638021
75.3505783 -168.9556122 7.3804531
136.5376129 -171.3801575 -15.4638491
89.0094070 -167.3859100 9.9385157
88.3712311 -167.4156494 9.8884544
81.5382538 -167.8227844 8.9415941
75.3564301 -168.3719940 7.2437525
69.8379974 -169.0227966 4.9786420
69.2301178 -169.1028442 4.6863375
68.6197662 -169.1868896 4.3801465
68.0016098 -169.2738953 4.0582538
67.3856888 -169.3626556 3.7277985
66.7767944 -169.4536133 3.3894944
136.5665131 -170.8133392 -15.7388687
99.7681503 -166.5772705 9.2615681
99.1596603 -166.5433960 9.3353004
85.8850708 -166.9713745 9.4717464
85.2657776 -166.9990997 9.4108324
84.6588135 -167.0335693 9.3388634
81.5431061 -167.2460480 8.7853632
69.8496933 -168.4372101 4.8382640
66.7756348 -168.8664856 3.2495656
136.5995789 -170.2549286 -16.0580254
83.4124451 -166.5465546 8.9679136
82.7760849 -166.5767975 8.8541384
80.3019943 -166.7660828 8.3376474
75.8766479 -166.8643951 8.6005030
69.8430405 -167.8539886 4.6813836
66.7871017 -168.2791138 3.1090736
46.7862968 -173.3129425 -17.8078518
136.6373901 -169.7047882 -16.4165573
83.4067688 -165.9659119 8.7749920
80.3232117 -166.1911316 8.1704922
77.2204666 -166.4312439 7.3896356
76.6188202 -166.4640350 7.1896176
76.0177765 -166.5015411 6.9815731
75.3612747 -166.5762787 6.7570810
69.8552475 -167.2713013 4.5226321
46.7720566 -172.7256012 -18.0375652
137.5645142 -169.4553223 -18.3449669
136.6731720 -169.1455994 -16.7367039
95.3503876 -164.9156799 9.1971684
94.7392807 -164.9188843 9.2409687
89.0411377 -165.0904694 9.2654209
80.3123398 -165.6133575 7.9877825
48.0315170 -171.6318512 -16.0051498
99.9389954 -164.3497162 8.1222353
96.0152359 -164.3304749 8.9791365
95.3615875 -164.3395538 9.0299931
94.7364960 -164.3462830 9.0755548
94.0853729 -164.3567352 9.1198130
91.5679855 -164.4142456 9.1904984
90.9254837 -164.4366913 9.1844530
89.0633469 -164.5204010 9.0723820
82.1854782 -164.9007111 8.2050943
81.5589981 -164.9501495 8.0656090
80.9462509 -164.9991608 7.9357290
80.3327866 -165.0410309 7.8085761
48.0145493 -171.0482025 -16.2459126
135.0579071 -167.4897308 -14.5590105
99.9519730 -163.8107147 7.9799595
99.5376129 -163.9933014 7.1730075
99.1327667 -164.1730804 6.3829288
48.0198250 -170.4652100 -16.4797497
135.1237030 -166.9368591 -14.9312563
99.9561157 -163.2266846 7.8630934
99.5309525 -163.4048462 7.0797248
99.1066589 -163.5859222 6.3098431
48.0366478 -169.8831482 -16.7215614
47.4142494 -170.1245270 -17.8077736
135.1663055 -166.3879852 -15.2968817
99.9441605 -162.6315765 7.7862954
99.5125656 -162.8581390 7.0558510
135.2555237 -165.8522644 -15.7574062
99.8820877 -162.0501404 7.6954002
99.2659988 -161.9934998 7.7798867
98.5914536 -162.0440826 7.8715067
99.9424057 -161.5099030 7.4669213
97.9099197 -161.4813080 7.7562194
99.9690247 -160.9379730 7.2135177
89.7397079 -161.0731812 7.8894515
89.1080933 -161.0956879 7.8766346
88.4808578 -161.1171417 7.8406115
87.8614731 -161.1490631 7.7827668
48.0470047 -167.5770416 -17.8382969
96.7429886 -160.3642426 7.4284625
49.2819557 -166.5582886 -16.1041374
48.6558266 -166.7841339 -17.1458378
48.0645370 -167.0031281 -18.1426373
99.9546051 -159.8025970 6.7696066
97.3336411 -159.7651978 7.1012354
96.7611237 -159.8031464 7.1838503
49.2822495 -165.9914093 -16.4338360
133.8314972 -162.7264404 -15.4805994
99.9592667 -159.2360687 6.5059052
99.3257523 -159.2077484 6.6025443
98.7037735 -159.1671143 6.6856532
98.0325470 -159.1662445 6.7676044
49.2763290 -165.4239807 -16.7782135
134.7378235 -162.4256744 -17.2635231
133.8445435 -162.1924438 -15.9138832
99.9799881 -158.6764069 6.2594991
99.3409958 -158.6714172 6.3687496
98.6835403 -158.6757660 6.4698057
98.0629272 -158.6704559 6.5460534
49.2846222 -164.8589935 -17.1158638
134.8138123 -161.9051514 -17.8261089
133.9689789 -161.6744843 -16.5170269
134.0335693 -161.1487274 -17.0307236
49.3340225 -163.7324066 -17.8063965
134.0802765 -160.6304474 -17.5465832
50.5483551 -162.7695618 -16.3123131
49.9372215 -162.9745636 -17.2736168
49.3249779 -163.1804047 -18.2509079
134.1831818 -160.1178741 -18.1917458
50.5645828 -162.2148590 -16.7119484
132.6524506 -158.1465607 -17.3335018
