103.2842865 -156.1828766 19.5463333
89.5161743 -156.4228516 20.3158951
80.9223022 -156.9618988 18.8794785
77.2699585 -157.2928162 17.7685795
76.0613174 -157.4148865 17.3347244
50.8388786 -162.2976685 -3.1308193
136.1511841 -158.4460602 -2.3184609
109.7075424 -155.1499939 17.7878571
105.8399658 -155.0354614 18.8998604
104.5617905 -155.0133667 19.1855240
103.2933121 -155.0020294 19.4362507
77.2615814 -156.1020966 17.6826191
76.0459290 -156.2227478 17.2552681
50.8211555 -161.0398407 -3.0561905
136.1385803 -157.2311707 -2.3876584
109.7200012 -153.9740295 17.6550026
105.8496399 -153.8597717 18.7771416
104.5734406 -153.8393860 19.0533695
78.4849701 -154.7984619 17.9685287
77.2601395 -154.9134674 17.5736008
76.0572205 -155.0280151 17.1601391
50.8142281 -159.7916107 -3.0391514
136.1613312 -156.0379639 -2.5659029
109.7183990 -152.7994995 17.4979744
108.4258270 -152.7540741 17.9137001
78.4807663 -153.6155548 17.8430481
77.2696762 -153.7240753 17.4610729
76.0573730 -153.8444824 17.0308361
50.7935905 -158.5602112 -3.1035385
136.1708374 -154.8484497 -2.7685885
109.7210693 -151.6304779 17.3143997
108.4283447 -151.5866089 17.7233276
107.1434250 -151.5491333 18.0952530
76.0472565 -152.6670837 16.8625069
50.7902145 -157.3335266 -3.1982393
136.1672974 -153.6645966 -2.9998078
107.1674423 -150.3917389 17.8558826
105.8745804 -150.3615570 18.1942768
78.5022125 -151.2636261 17.4916801
76.0556488 -151.4931183 16.6692524
50.7884636 -156.1159210 -3.3397627
137.9134369 -152.9802399 -6.0572381
136.2364349 -152.5099030 -3.3921227
107.1883240 -149.2354736 17.6063251
105.8839417 -149.2038116 17.9560890
77.2820358 -150.2090454 16.8675575
76.0676117 -150.3248901 16.4439831
50.8215942 -154.9000397 -3.4946902
136.3050842 -151.3598328 -3.8216705
109.7893829 -148.1590881 16.5660896
105.9093781 -148.0493469 17.6917477
104.6450424 -148.0273743 17.9827061
77.2920990 -149.0460663 16.6141682
76.0815735 -149.1605072 16.1962776
50.8191299 -153.7064972 -3.7639048
49.6307068 -154.1076660 -5.6757669
136.3205872 -150.2134399 -4.2577157
109.8022614 -147.0123291 16.2607613
108.5050125 -146.9665833 16.6813698
107.2212982 -146.9283752 17.0638123
105.9195862 -146.8998108 17.4038334
76.0942917 -148.0004272 15.9220829
50.8341904 -152.5135193 -4.0398889
49.6629219 -152.9124603 -5.9543056
48.4335785 -153.3587952 -8.1273975
136.4154968 -149.0916748 -4.8561201
107.2347412 -145.7884827 16.7317867
102.1136169 -145.7084656 17.8841133
76.1080551 -146.8447876 15.6205873
50.8453026 -151.3310242 -4.3756208
49.6675301 -151.7305145 -6.3117003
136.4853973 -147.9679260 -5.4449329
107.2856140 -144.6504974 16.3412895
105.9845505 -144.6218872 16.6853905
104.7071686 -144.5963440 17.0016212
103.4199371 -144.5792542 17.2831783
102.1597443 -144.5675659 17.5216331
100.8794861 -144.5638733 17.7286911
99.6070404 -144.5631561 17.9166546
82.2201996 -145.1850739 17.0892029
76.1120529 -145.6973572 15.2716370
50.8442345 -150.1636353 -4.7963719
49.6702156 -150.5562439 -6.7158837
136.5676727 -146.8596497 -6.1273098
134.9404144 -146.4560699 -3.7120483
133.3956299 -146.1020203 -1.6010258
104.7294083 -143.4625092 16.6256962
103.4447632 -143.4434662 16.9142570
99.6358337 -143.4324951 17.5142250
89.6313705 -143.6528015 17.7707596
88.4045639 -143.7017365 17.6712189
82.2422714 -144.0503693 16.6991310
81.0210114 -144.1347351 16.4303322
76.1273117 -144.5508728 14.9010344
50.8675690 -148.9980469 -5.2336369
49.6737213 -149.3962860 -7.1991830
135.0234985 -145.3581543 -4.4359493
133.4704895 -144.9989929 -2.2897272
104.7491455 -142.3332062 16.2088890
103.4823151 -142.3107910 16.4975433
89.6473846 -142.5234680 17.3498955
84.7287903 -142.7677460 16.7549973
83.4889374 -142.8385010 16.5498543
82.2688370 -142.9157715 16.3087120
81.0408554 -143.0016937 16.0167503
79.8184814 -143.0947266 15.6814165
78.5893555 -143.1941223 15.3191490
77.3664856 -143.3007813 14.9328594
76.1605530 -143.4100800 14.5226803
50.8774605 -147.8447418 -5.7457285
135.1255951 -144.2711945 -5.2376633
133.5482330 -143.9055939 -3.0220714
102.2437744 -141.1786041 16.2861614
100.9667969 -141.1662598 16.5147381
95.9168472 -141.2072296 17.0479050
94.6560135 -141.2328949 17.0793667
89.6853180 -141.3947144 16.9418507
79.8360138 -141.9615784 15.2555437
78.6117554 -142.0585175 14.8930969
50.9091492 -146.6966248 -6.2850966
49.6928864 -147.0900574 -8.2961388
135.2276611 -143.1943970 -6.1140251
133.6375427 -142.8199615 -3.8260789
102.2736053 -140.0610504 15.7984219
100.9997635 -140.0523682 16.0154839
99.7357941 -140.0490417 16.2028313
98.4788818 -140.0544891 16.3653393
97.2062836 -140.0655212 16.4892120
95.9568634 -140.0806274 16.5725613
94.7008667 -140.1093140 16.6239872
93.4608307 -140.1461945 16.6269054
92.2151031 -140.1781464 16.6000443
90.9519043 -140.2151794 16.5623989
89.7144318 -140.2608032 16.4902306
79.8671036 -140.8287201 14.8140163
78.6434937 -140.9281006 14.4506989
50.9121819 -145.5610352 -6.9299617
133.7545471 -141.7506256 -4.7265058
89.7476349 -139.1362610 16.0198936
86.0368347 -139.3117828 15.6282578
84.8076859 -139.3750458 15.4221373
83.5798416 -139.4537048 15.1824799
82.3528976 -139.5292053 14.9274464
81.1231689 -139.6139832 14.6574383
79.8951111 -139.7002411 14.3300762
78.6778030 -139.7988892 13.9735718
53.3054199 -143.7226868 -4.0255089
52.1446915 -144.0600281 -5.6996956
50.9490356 -144.4305115 -7.5845795
135.5152588 -141.0783691 -8.1728010
133.8831024 -140.6945648 -5.7254696
89.7829971 -138.0190277 15.5173597
88.5506744 -138.0699768 15.4115057
87.3078461 -138.1237183 15.2768211
86.0702209 -138.1891785 15.1226206
84.8411713 -138.2561340 14.9130917
83.6168289 -138.3312378 14.6725750
82.3757629 -138.4008942 14.4120302
81.1527252 -138.4943237 14.1343422
79.9230042 -138.5791168 13.8032112
78.7068024 -138.6805725 13.4562302
53.3416634 -142.5979309 -4.6924057
52.1668282 -142.9401855 -6.4214377
132.4487915 -139.2678375 -4.4899406
130.8834534 -138.9668732 -2.5378184
53.3675690 -141.4830627 -5.4410815
52.1946487 -141.8297272 -7.2042689
51.0094757 -142.2060699 -9.1635866
132.5460205 -138.2132263 -5.5181484
130.9903717 -137.9116058 -3.5160336
53.4145317 -140.3749237 -6.2189784
52.2475624 -140.7241821 -8.0143709
132.6958466 -137.1953735 -6.7301841
131.1208649 -136.8729553 -4.6208682
53.4476089 -139.2782135 -7.0958691
52.2570419 -139.6362305 -8.9747076
132.8743286 -136.1689301 -8.0197878
131.2549133 -135.8451233 -5.8062077
53.4878693 -138.1932068 -8.0415096
52.3040314 -138.5544739 -9.9632635
131.4110718 -134.8298187 -7.0784645
53.5490685 -137.1147766 -9.0341320
52.3509674 -137.4774017 -11.0268507
131.5973511 -133.8249207 -8.5115252
53.5705414 -136.0549011 -10.1924744
131.8000336 -132.8318176 -10.0496197
130.2203979 -132.5120392 -7.8178239
128.6845703 -132.2065430 -5.8184500
56.0000534 -134.3222656 -7.7146277
54.8145027 -134.6455841 -9.4572926
53.6296234 -135.0047607 -11.3899250
130.4234161 -131.5317383 -9.4104805
128.8522491 -131.2125244 -7.2650928
56.0550766 -133.2660065 -8.8824406
54.8759880 -133.5972595 -10.6787643
129.0549774 -130.2359924 -8.8428717
127.5167923 -129.9356384 -6.8402605
126.0175629 -129.6768188 -5.0922823
58.4974823 -131.6241150 -6.9051018
57.2966423 -131.9126282 -8.4598732
56.1191292 -132.2265320 -10.1502056
54.9277153 -132.5586243 -12.0205669
129.2775574 -129.2823181 -10.6233711
127.6830292 -128.9683380 -8.4172468
126.1763306 -128.6885376 -6.5674257
58.5612297 -130.5790710 -8.1243773
57.3650131 -130.8763580 -9.7630987
127.9330826 -128.0028992 -10.2444401
126.3695602 -127.7206879 -8.2198944
58.6349754 -129.5422974 -9.4450617
57.4394150 -129.8553009 -11.1706657
126.5589218 -126.7666855 -9.9681463
58.7124481 -128.5260925 -10.8756084
57.5146332 -128.8408508 -12.6805706
126.8177948 -125.8388977 -12.0084553
125.2852783 -125.5632172 -9.9710083
123.8113403 -125.2957153 -8.2255735
61.1626663 -126.9514771 -9.2468405
59.9576035 -127.2233429 -10.8019609
58.7724533 -127.5232010 -12.5011406
-125.2316055 -144.5487976 -91.1207047
-126.5051117 -144.4035492 -90.0240555
-127.7691193 -144.3025208 -89.1895599
-129.0684967 -144.1880798 -88.4945297
-130.3872223 -144.1005096 -87.9486542
-131.7262115 -144.0707397 -87.5438766
-133.0772858 -144.0637665 -87.2584839
-137.2105560 -144.1186829 -87.1242523
-138.6376648 -144.2206726 -87.3572159
-140.0665283 -144.3321381 -87.7036209
125.5516205 -124.6292572 -12.0569811
124.0361862 -124.3708725 -10.1250963
61.2321053 -125.9387131 -10.8186827
60.0492859 -126.2273407 -12.4177265
58.8695145 -126.5380936 -14.1970482
-120.9651108 -142.9057922 -90.2559357
-122.1956177 -142.6858826 -88.9356995
-123.4496689 -142.5182800 -87.7940292
-124.7080383 -142.4130402 -86.8766556
-126.0077286 -142.3135529 -86.0489883
-127.2975159 -142.2445068 -85.3705597
-128.6079865 -142.1762390 -84.7639160
-129.9279633 -142.1479187 -84.3228073
-131.2670898 -142.1181335 -83.9651031
-132.6171265 -142.1103973 -83.6922607
-133.9706421 -142.1165924 -83.5121231
-135.3444672 -142.1312714 -83.4379272
-136.7193451 -142.1571045 -83.4668961
-138.1267395 -142.2011261 -83.5975723
-139.5401611 -142.2704010 -83.8466492
-140.9751892 -142.3669891 -84.2169266
-142.4142914 -142.4988861 -84.6782227
-143.8873291 -142.6559753 -85.2831802
124.2808533 -123.4532623 -12.2428761
122.7391357 -123.1906738 -10.3089638
121.2622986 -122.9518280 -8.6531630
63.7171898 -124.4284973 -9.5490246
62.5232124 -124.6820526 -10.9333591
61.3381805 -124.9523773 -12.4709883
-119.2885437 -141.0363464 -87.7539368
-120.5266724 -140.8695068 -86.5257721
-143.4115143 -140.6695404 -81.9844818
-144.8822327 -140.8020935 -82.5929413
124.5807571 -122.5538635 -14.6567039
122.9918594 -122.2805710 -12.4897184
121.4738998 -122.0228348 -10.6041279
63.8058968 -123.4348602 -11.2209492
62.6224022 -123.7078400 -12.6859684
-114.0618362 -139.9978790 -90.6494217
-115.2494507 -139.7199554 -88.8661041
-116.4618301 -139.4961548 -87.2672424
-117.6852722 -139.3206787 -85.9176559
-118.9286880 -139.1707916 -84.7216415
-120.1728897 -139.0415039 -83.6657410
-143.0490112 -138.8788605 -79.3242798
-144.4937897 -138.9909058 -79.8141098
-145.9552002 -139.1288147 -80.4184799
-147.4291077 -139.2455139 -81.1121826
-148.9306335 -139.4110413 -81.9885330
-150.4888306 -139.6497192 -83.0024261
121.7474518 -121.1009293 -12.8483353
120.2355347 -120.9101944 -11.1652908
118.8247681 -120.7015228 -9.7337494
66.3073807 -121.9848099 -10.3052483
65.1071854 -122.2152557 -11.6034317
63.9235840 -122.4628067 -13.0258694
62.7232933 -122.7462158 -14.6351995
-112.4938278 -138.3231201 -89.1159134
-148.5405426 -137.6053314 -79.3331375
-150.0515747 -137.7722321 -80.1926422
-151.5710144 -137.9671936 -81.1631165
120.5170212 -120.0035858 -13.5430965
119.0744247 -119.7916107 -11.9419060
66.4161530 -121.0091400 -12.1315012
65.2209854 -121.2563019 -13.5052862
64.0338135 -121.5209656 -15.0414619
-108.6724167 -137.3526917 -92.3479080
-109.8222504 -136.9787903 -89.9305801
-110.9956284 -136.6891022 -87.9327698
-112.1763840 -136.4704742 -86.2576065
-148.2214203 -135.8788452 -77.1034470
-149.7130585 -136.0195007 -77.8381729
-151.1920319 -136.1726074 -78.6827469
-152.7130280 -136.3678284 -79.6869812
119.3609009 -118.9090424 -14.4160509
117.8407898 -118.7072144 -12.6886301
116.3844376 -118.5027771 -11.2148428
68.9317627 -119.6133575 -11.5523701
67.7363510 -119.8281097 -12.7699890
66.5505371 -120.0637741 -14.1125603
65.3442230 -120.3196030 -15.6498127
-107.1959076 -135.7341614 -91.3462524
-108.3504791 -135.3949585 -89.0371170
-109.5174561 -135.1202240 -87.0465393
-150.8897552 -134.4768372 -76.6004715
-152.3871765 -134.6287842 -77.4672699
-153.9284363 -134.8355865 -78.4833984
-155.4708252 -135.0459595 -79.6015854
-157.0842438 -135.3123779 -80.9951706
118.1729279 -117.8040009 -15.3645382
116.6473160 -117.6240311 -13.6460743
69.0560226 -118.6646957 -13.5717783
67.8625717 -118.8936615 -14.8955765
66.6548233 -119.1370163 -16.4084969
-106.8910294 -133.8954773 -88.4677124
-108.0715866 -133.6219025 -86.4636688
-109.2613907 -133.3875885 -84.7378540
-150.6206207 -132.8107910 -74.7728882
-152.1095581 -132.9560242 -75.5564117
-153.6149597 -133.1239166 -76.4591064
-155.1413574 -133.3112946 -77.5002441
116.9877930 -116.7392426 -16.4650173
115.4813919 -116.5671158 -14.8271465
114.0584183 -116.4002609 -13.4818201
71.6029053 -117.3160324 -13.3762703
70.4146881 -117.5190277 -14.5119066
69.2140198 -117.7425690 -15.7979984
-104.3405304 -132.7333221 -90.4158783
-105.4720535 -132.4011841 -88.0812302
-106.6420517 -132.1334839 -86.0788574
-153.3590851 -131.4813232 -74.7084808
-154.8654633 -131.6438293 -75.6297302
-156.3998871 -131.8440704 -76.6884918
-157.9420471 -132.0503693 -77.8812332
-159.5617065 -132.2973022 -79.3089218
114.3619919 -115.5603867 -16.2693787
71.7539749 -116.4001389 -15.6747503
70.5714111 -116.6163025 -16.9198360
-102.9430237 -131.2717896 -90.2743073
-104.0888901 -130.9502106 -87.9045792
-105.2358551 -130.6958313 -85.9208832
-106.4374847 -130.4398804 -84.0839310
-153.1130371 -129.8559265 -73.1471558
-154.6209106 -130.0155182 -73.9983063
-156.1414490 -130.1971130 -74.9600677
-157.6531219 -130.3746643 -76.0285950
-159.2427673 -130.6034241 -77.3116379
114.7529678 -114.7614670 -19.6853867
113.2420502 -114.5988464 -17.9332695
111.7654114 -114.4179001 -16.4311371
110.3448639 -114.2528229 -15.1826267
108.9488220 -114.1072617 -14.1272793
107.5924377 -114.0011597 -13.1896763
106.1986694 -113.9066544 -12.3605795
76.7704544 -114.7791595 -13.9637814
75.5573273 -114.9434052 -14.8557768
74.3383179 -115.1177826 -15.8881884
73.1403427 -115.3119659 -17.0205078
71.9350891 -115.5231323 -18.3126793
70.7331314 -115.7457733 -19.7828159
-101.5795670 -129.8514709 -90.3419189
-102.7000198 -129.5416565 -87.9630432
-103.8697052 -129.2653809 -85.8791885
-158.9678955 -128.9498444 -75.5748138
-160.5480499 -129.1949158 -76.8337860
112.1543045 -113.6170044 -19.9118652
110.6616211 -113.4614029 -18.3269596
109.2379456 -113.2977982 -17.0530243
107.8706818 -113.1622849 -15.9948053
106.4669647 -113.0514603 -15.0062923
76.9578400 -113.8895264 -16.4668274
75.7432098 -114.0690613 -17.4864807
74.5335922 -114.2706604 -18.6476879
-101.3396835 -128.1491394 -88.2024841
-102.5054474 -127.8574142 -86.0132904
-103.6927261 -127.6085968 -84.1161041
-158.7326202 -127.3431778 -74.0690918
-160.2757568 -127.5421143 -75.2435074
-161.9064941 -127.8069763 -76.6027374
108.1998215 -112.3870621 -19.2902184
106.7760086 -112.2668839 -18.1425781
105.3799820 -112.1491547 -17.2294979
104.0009918 -112.0538864 -16.3919907
102.6435089 -111.9712296 -15.6720495
101.3129425 -111.9155426 -15.0650702
99.9693222 -111.8708267 -14.6159878
98.6359253 -111.8417053 -14.2468557
97.3171539 -111.8251801 -13.9234552
96.0263062 -111.8227234 -13.6816654
82.0569305 -112.4609222 -16.0407257
80.8215790 -112.5864334 -16.7204933
79.6033325 -112.7224960 -17.4819107
78.3877945 -112.8819885 -18.3436317
77.1615067 -113.0455780 -19.4040127
75.9556046 -113.2242126 -20.5512390
-99.9963608 -126.7839203 -88.6507645
-101.1511383 -126.4925079 -86.3794556
-161.6379089 -126.1696320 -75.0918579
-163.2094879 -126.3979721 -76.4640274
-164.8707123 -126.6861343 -78.0693665
105.7408905 -111.3652420 -20.8339043
104.3321304 -111.2611847 -19.7981339
102.9604492 -111.1905594 -18.8906307
101.6134186 -111.1182404 -18.1679897
100.2485657 -111.0634460 -17.6167164
98.9068146 -111.0289536 -17.1517601
97.5772018 -110.9943771 -16.7658863
96.2809830 -110.9670486 -16.4874516
82.2923050 -111.6308823 -19.0336685
81.0554581 -111.7685013 -19.8119450
79.8367920 -111.9176941 -20.6705322
78.6121979 -112.0627289 -21.7086525
-98.6928787 -125.4419861 -89.2209854
-99.8129349 -125.1526031 -86.9256439
-100.9978333 -124.8753357 -84.8095093
-161.4251556 -124.5937042 -73.7433014
-162.9759827 -124.8004608 -75.0274200
-164.5970917 -125.0514145 -76.5149994
101.9960251 -110.3352890 -22.0460968
96.5877380 -110.1998215 -19.8312645
95.2648773 -110.1867676 -19.5861244
93.9502335 -110.1843719 -19.4858685
92.6490784 -110.2051697 -19.4303761
91.3715210 -110.2452164 -19.4553623
87.5515289 -110.4329529 -20.2290573
86.2880402 -110.5218887 -20.6501064
85.0582199 -110.6219559 -21.1446133
83.8092499 -110.7368622 -21.8310318
82.5672913 -110.8374557 -22.6405888
-98.5074921 -123.8197784 -87.5539627
-164.3742828 -123.4646301 -75.1451416
96.9988632 -109.4785004 -24.1406879
91.7343903 -109.5005112 -23.4653225
87.8852081 -109.6948090 -24.3774948
-98.3582382 -122.2130508 -86.0573883
-164.1870422 -121.9047623 -73.9319153
-165.7787628 -122.1366882 -75.3664551
-98.2242203 -120.6560211 -84.8015518
-99.4222794 -120.4099960 -82.9001770
-100.6293640 -120.1979675 -81.1426086
-164.0038452 -120.3737030 -72.8430176
-165.5896759 -120.5908051 -74.2192535
-167.2317657 -120.8453751 -75.7458191
-99.3289871 -118.8719864 -81.8710938
-100.5505600 -118.6700668 -80.1574249
-163.8486481 -118.8521729 -71.8683624
-165.4164886 -119.0558472 -73.1687775
-167.0271606 -119.2901688 -74.6199417
-100.4597244 -117.1722107 -79.2917099
-166.8775940 -117.7749863 -73.6606445
-168.5201721 -118.0270081 -75.1964798
-100.3827057 -115.6857529 -78.5162659
-166.7175446 -116.2633514 -72.7682648
-168.3400879 -116.4986649 -74.2768478
-96.7176514 -114.7641983 -82.5768738
-97.8781891 -114.5826416 -81.0461197
-99.0774384 -114.4003754 -79.3999252
-100.3046341 -114.2221146 -77.8595581
-166.5991211 -114.7841721 -72.0043335
-168.1983337 -115.0034256 -73.4449997
-169.8304749 -115.2468109 -75.0501480
-171.5361481 -115.5338974 -76.8747025
-96.6054916 -113.3214569 -81.9500580
-97.8099518 -113.1168518 -80.3746490
-99.0152664 -112.9328613 -78.7641144
-100.2548599 -112.7601852 -77.2425537
-166.4830475 -113.3076477 -71.3150177
-168.0745544 -113.5196075 -72.6969604
-169.6758728 -113.7455139 -74.2272263
-171.3643799 -114.0149765 -76.0039978
-173.0922546 -114.3228836 -77.9373932
-96.5318832 -111.8602829 -81.4128571
-97.7673645 -111.6545410 -79.7721405
-169.5838165 -112.2759476 -73.5472183
-171.2387695 -112.5246582 -75.2401505
-96.4804764 -110.4115372 -80.9380188
-97.7053986 -110.2163239 -79.2837067
-169.4894867 -110.8138504 -72.9426956
-171.1168365 -111.0485153 -74.5602417
-172.7787781 -111.3116074 -76.3416824
-96.4634705 -108.9562073 -80.4641571
-97.6651459 -108.7739258 -78.8164902
-172.6823120 -109.8442154 -75.7346191
-96.4081802 -107.5272369 -80.0666962
-97.6254120 -107.3459854 -78.4272156
-172.5855713 -108.3871002 -75.2143707
-96.3760910 -106.0992279 -79.7125092
-97.5938034 -105.9296494 -78.1056061
-172.5238037 -106.9459305 -74.7789078
-95.1384735 -104.8735962 -81.1531372
-96.3583069 -104.6837997 -79.4250031
-97.5733032 -104.5179825 -77.8444061
-172.4401245 -105.5075531 -74.3746338
-95.1177826 -103.4640198 -80.9258423
-126.8109207 -101.5424805 -60.0135193
-128.1363831 -101.5455170 -59.7746506
-129.4628601 -101.5413666 -59.5605774
-130.7911224 -101.5464020 -59.3924866
-132.1267395 -101.5557327 -59.2633820
-133.4382324 -101.5630035 -59.1533852
-134.7931213 -101.5816498 -59.0806122
-136.1324463 -101.6065979 -59.0495911
-137.4880066 -101.6291046 -59.0581055
-138.8355560 -101.6587372 -59.1051178
-140.1928406 -101.6944046 -59.1837807
-141.5649109 -101.7364960 -59.2993126
-172.3914490 -104.0861053 -74.0780029
-174.0992126 -104.3422852 -75.9316101
-175.8190765 -104.6196136 -77.9457855
-93.8887405 -102.2542191 -82.5555801
-95.1115417 -102.0608673 -80.7457733
-126.8156891 -100.1799774 -59.9488907
-128.1362762 -100.1748123 -59.7072182
-132.1140442 -100.1910706 -59.1975403
-133.4222260 -100.1994781 -59.0868874
-134.7742615 -100.2165375 -59.0111465
-140.1893311 -100.3291626 -59.1238174
-141.5608063 -100.3684845 -59.2415886
-172.3485565 -102.6726456 -73.8480301
-174.0358429 -102.9181976 -75.6543427
-93.8934784 -100.8521957 -82.4208221
-95.0970612 -100.6638870 -80.6278381
-116.4123840 -99.0135880 -63.1970940
-117.6967010 -98.9733734 -62.6513481
-118.9827881 -98.9368286 -62.1429024
-120.2844849 -98.9079208 -61.6941261
-121.5818176 -98.8790512 -61.2711334
-122.8801804 -98.8611450 -60.8838921
-124.1806488 -98.8472137 -60.5402985
-125.4939194 -98.8289719 -60.2038918
-126.8040390 -98.8178406 -59.9201889
-128.1232452 -98.8154907 -59.6852036
-132.1035156 -98.8278198 -59.1738892
-133.4213104 -98.8400116 -59.0653610
-134.7745361 -98.8575592 -58.9798927
-140.1671143 -98.9648819 -59.0923538
-141.5558319 -99.0096664 -59.2199554
-142.9166260 -99.0508957 -59.3714409
-144.2942810 -99.0970154 -59.5533562
-172.3161316 -101.2666473 -73.6766129
-93.8828201 -99.4640198 -82.3726196
-95.0866699 -99.2751007 -80.5620422
-116.4065399 -97.6565399 -63.2220802
-117.6889954 -97.6166229 -62.6745987
-118.9809647 -97.5799408 -62.1680107
-120.2881165 -97.5531006 -61.7106705
-121.5769272 -97.5256882 -61.2842407
-122.8846436 -97.5021973 -60.9010391
-126.8108978 -97.4655762 -59.9434891
-130.7769623 -97.4673004 -59.3386192
-132.1195221 -97.4743652 -59.1919212
-133.4430237 -97.4880829 -59.0892792
-134.7726746 -97.5011902 -59.0000420
-142.9224243 -97.6927185 -59.3757477
-144.3052063 -97.7406311 -59.5662727
-172.3024292 -99.8723907 -73.5907745
-173.9855042 -100.1073074 -75.3518753
-175.7064514 -100.3681107 -77.3334198
-91.5118942 -98.5087280 -86.5034943
-92.6884155 -98.2821732 -84.3377991
-93.9007721 -98.0741348 -82.3335266
-95.0853806 -97.8951721 -80.5697327
-116.4114456 -96.3010635 -63.2673149
-120.3059998 -96.1963882 -61.7489243
-132.1091309 -96.1209641 -59.2415924
-142.9221344 -96.3381042 -59.4157486
-144.2984161 -96.3843765 -59.6083946
-172.2870483 -98.4833221 -73.5621490
-173.9732666 -98.7156982 -75.3276443
-175.6898193 -98.9695129 -77.2711868
-91.5193176 -97.1236191 -86.5395813
-92.6908112 -96.9033966 -84.3993835
-93.8992920 -96.7003479 -82.4134979
-95.1008453 -96.5209198 -80.6336060
-116.4244614 -94.9491425 -63.3357811
-120.2958298 -94.8514099 -61.8536949
-126.8259277 -94.7670593 -60.0825233
-140.2036133 -94.9114685 -59.2460327
-141.5674896 -94.9464035 -59.3470688
-142.9385071 -94.9890289 -59.4972572
-144.3189392 -95.0346298 -59.6882439
-172.3053131 -97.1054764 -73.6160660
-173.9663544 -97.3320007 -75.3492126
-88.0968475 -96.6165619 -95.0026169
-89.2447510 -96.2732849 -91.7357483
-90.3556519 -95.9950638 -89.0655060
-91.5448761 -95.7440948 -86.6254425
-92.7152023 -95.5280380 -84.4990921
-116.4402771 -93.6010132 -63.4438019
-120.3125305 -93.5045013 -61.9644470
-121.5982666 -93.4813995 -61.5492744
-122.9177094 -93.4597626 -61.1463966
-124.2147522 -93.4432602 -60.7907333
-125.5317230 -93.4297180 -60.4652519
-141.5710144 -93.6012268 -59.4593735
-172.3294983 -95.7337112 -73.7277832
-88.0998383 -95.2437668 -95.2621460
-89.2534943 -94.9050446 -91.9890900
-90.3811798 -94.6231842 -89.2496414
-91.5553055 -94.3775024 -86.8275299
-92.7267456 -94.1630554 -84.6938705
-116.4621964 -92.2596359 -63.6071777
-141.6144714 -92.2612991 -59.6294441
-172.3558502 -94.3673553 -73.8927002
-88.1528778 -93.8686523 -95.4902496
-89.3028870 -93.5357971 -92.2222137
-90.4063873 -93.2609940 -89.5264282
-116.4835358 -90.9226074 -63.8165016
-117.7616882 -90.8860703 -63.2818604
-119.0478668 -90.8540649 -62.7832375
-120.3597565 -90.8258438 -62.3114204
-126.8862381 -90.7492218 -60.5653267
-128.1937103 -90.7466736 -60.3184929
-129.5359802 -90.7462769 -60.1219368
-130.8560486 -90.7510910 -59.9440765
-136.1927185 -90.8059082 -59.5910530
-137.5448303 -90.8307495 -59.6046410
-138.8891144 -90.8552856 -59.6193657
-140.2722931 -90.8876038 -59.7065964
-141.6362915 -90.9250946 -59.8318939
-172.3738098 -93.0057220 -74.1053467
-174.0727997 -93.2290878 -75.8747177
-89.3133240 -92.1843796 -92.6559601
-90.4412842 -91.9054337 -89.8760986
-116.5044861 -89.5867691 -64.0456390
-117.8080521 -89.5524139 -63.5021324
-119.0987396 -89.5212326 -63.0080795
-120.3978119 -89.4925613 -62.5356560
-121.6806717 -89.4701920 -62.1078987
-125.6055145 -89.4253845 -61.0848503
-126.9095001 -89.4171219 -60.7975731
-128.2314148 -89.4136963 -60.5507164
-129.5565796 -89.4141159 -60.3413010
-130.8780060 -89.4298706 -60.1584129
-133.5513763 -89.4529266 -59.9252739
-134.8907471 -89.4540253 -59.8606834
-136.2322693 -89.4721832 -59.8230667
-137.5963287 -89.4938889 -59.8223114
-138.9221954 -89.5244980 -59.8575020
-140.2925720 -89.5547256 -59.9394722
-141.6677551 -89.5910263 -60.0582695
-172.4399872 -91.6553192 -74.4247589
-174.1214447 -91.8736496 -76.1959839
-175.8093262 -92.1091537 -78.1258545
-89.3636780 -90.8336105 -93.0834198
-90.4831085 -90.5575256 -90.2861862
-121.7052765 -88.1372986 -62.3991165
-125.6333313 -88.0955048 -61.3375511
-129.5868988 -88.0834808 -60.5930443
-134.9329681 -88.1263428 -60.1343040
-136.2518005 -88.1449051 -60.0844574
-172.4818115 -90.3070145 -74.7670746
-174.1603088 -90.5278397 -76.5592728
-89.4181061 -89.4938583 -93.6272278
-90.5179138 -89.2174759 -90.8197784
-121.7436142 -86.8122559 -62.7082901
-123.0558014 -86.7959595 -62.3188515
-124.3595505 -86.7790146 -61.9611015
-125.6713791 -86.7675552 -61.6377411
-129.6331940 -86.7571487 -60.8964310
-136.3000183 -86.8143768 -60.3793716
-172.5407867 -88.9670563 -75.1828918
-89.4672394 -88.1581573 -94.2472229
-90.6006165 -87.8838577 -91.3587112
-129.6699219 -85.4347687 -61.2403984
-136.3573151 -85.4891663 -60.7313347
-172.6282043 -87.6293259 -75.6630936
-89.4883041 -86.8311539 -95.0605392
-90.6450043 -86.5603180 -92.1078262
-129.7183380 -84.1145935 -61.6163750
-131.0455627 -84.1230621 -61.4569397
-132.3810577 -84.1306839 -61.3179932
-133.7196503 -84.1321411 -61.1976204
-135.0603790 -84.1495514 -61.1316681
-136.3889771 -84.1718597 -61.1032562
-172.7243347 -86.2996445 -76.2262650
-174.4399109 -86.5194168 -78.1209869
-176.1249542 -86.7595291 -80.1932373
-90.7032394 -85.2360687 -92.8516312
-91.8756485 -84.9918976 -90.1684570
-93.0262299 -84.7754974 -87.8248444
-172.8312988 -84.9815674 -76.8977280
-91.9567032 -83.6786957 -90.9532928
-93.0902939 -83.4564819 -88.5800476
-172.9415588 -83.6670685 -77.6238174
-90.8538742 -82.6274719 -94.8138123
-92.0392685 -82.3777924 -91.8928375
-93.1858368 -82.1524811 -89.3882751
-169.8179932 -81.9804688 -75.1426315
-171.4378052 -82.1579285 -76.6882019
-173.0811157 -82.3521729 -78.4108887
-92.1296387 -81.0807419 -92.9410553
-93.2579727 -80.8462830 -90.3912354
-169.9397125 -80.6733551 -75.9217987
-171.5689697 -80.8523178 -77.5120392
-92.2481689 -79.7999573 -94.0892334
-93.3787994 -79.5581665 -91.3804855
-170.0638733 -79.3705139 -76.7717438
-171.7336731 -79.5472183 -78.4392166
-92.3543854 -78.5180359 -95.4141769
-93.4947815 -78.2716522 -92.5450974
-170.2063141 -78.0727463 -77.7225113
-92.4754257 -77.2469254 -96.9318771
-93.6165085 -77.0036545 -93.8874130
-94.7559586 -76.7778397 -91.2825317
-95.9105988 -76.5830002 -89.0424118
-167.1647949 -76.4592361 -75.8222046
-168.7458496 -76.6147461 -77.2016144
-170.3884583 -76.7807999 -78.7919083
-93.7335434 -75.7311401 -95.3909683
-94.8769379 -75.5024872 -92.6365433
-96.0146713 -75.3004761 -90.2859421
-167.3338623 -75.1692734 -76.8602829
-168.9422913 -75.3254395 -78.3235474
-170.5857544 -75.4937286 -79.9659882
-95.0242386 -74.2424927 -94.0796280
-96.1524963 -74.0367966 -91.6131439
-167.5036163 -73.8846512 -77.9872513
-169.1350250 -74.0478516 -79.5346527
-95.1608582 -72.9797134 -95.7568054
-96.2976608 -72.7736206 -93.1851425
-167.7202454 -72.6056824 -79.2593842
-169.3562317 -72.7698975 -80.8700485
-96.4789658 -71.5317612 -94.8826828
-164.7254639 -71.0448608 -77.7558365
-166.3046265 -71.1849060 -79.0913696
-167.9266968 -71.3381119 -80.6193771
-96.6605759 -70.2950668 -96.8258286
-164.9556885 -69.7686539 -79.1211014
-166.5373535 -69.9154053 -80.5305634
-168.1813049 -70.0734482 -82.1516876
-96.8315353 -69.0562820 -99.0972290
-97.9712677 -68.8501740 -96.1155548
-99.1228867 -68.6501541 -93.5011368
-165.1753235 -68.5069809 -80.5880890
-166.7937317 -68.6563644 -82.1247406
-99.3260880 -67.4212265 -95.4962311
-165.4268494 -67.2512817 -82.2227707
-167.0523682 -67.4090881 -83.8597412
-99.5480347 -66.2035980 -97.8370285
-100.6854858 -66.0144196 -95.1696777
-101.8348465 -65.8343582 -92.8821030
-162.5033875 -65.7277451 -81.1131744
-164.0759277 -65.8584671 -82.4598694
-165.7175598 -66.0070496 -84.0517120
-100.9110336 -64.7921906 -97.5729370
-102.0593872 -64.6195526 -95.0219269
-162.7680511 -64.4738159 -82.8761444
-164.3722992 -64.6137848 -84.3598480
-102.2891464 -63.3987770 -97.5758438
-103.4402008 -63.2458076 -95.1128082
-104.6146698 -63.0817642 -92.9954834
-159.9015045 -62.9889984 -82.1707764
-161.4664917 -63.1022949 -83.4276505
-163.0654602 -63.2397919 -84.8417053
-103.6905136 -62.0303040 -97.7769012
-104.8669205 -61.8765182 -95.3620758
-160.1987915 -61.7485924 -84.1403122
-105.1421738 -60.6775665 -98.1069641
-106.3032074 -60.5292053 -95.7458878
-107.4739380 -60.3808174 -93.7607956
-108.6621246 -60.2603149 -91.9691696
-109.8677521 -60.1471405 -90.4090424
-157.3863220 -60.2930183 -83.8389740
-158.9529419 -60.3988647 -85.0288544
-160.5573273 -60.5100174 -86.3858109
-106.5836716 -59.3055954 -98.6826096
-107.7639313 -59.2019196 -96.4418335
-108.9310532 -59.0560455 -94.4792328
-110.1260529 -58.9305725 -92.7044907
-157.7266998 -59.0605354 -86.0948181
-159.2960663 -59.1703148 -87.3600464
-108.0682755 -57.9846001 -99.6989365
-109.2241898 -57.8651505 -97.3864059
-110.4109344 -57.7454109 -95.3647232
-111.6152496 -57.6152344 -93.6120987
-112.8277130 -57.5203247 -92.0461807
-151.9618835 -57.4601555 -84.4467316
-153.4656219 -57.5493774 -85.2656708
-154.9754639 -57.6384964 -86.2306595
-156.5297852 -57.7389145 -87.3521118
-158.1262665 -57.8233109 -88.6274338
-110.7344055 -56.5375481 -98.5152435
-111.9372482 -56.4442062 -96.4906769
-113.1283951 -56.3277283 -94.7641068
-152.2917023 -56.2428741 -86.7715683
-153.8156738 -56.3343849 -87.7307663
-155.3722534 -56.4207382 -88.8684082
-112.2824173 -55.2392998 -100.0393829
-113.4713440 -55.1410675 -97.9939575
-114.6865540 -55.0428925 -96.1464996
-115.8778992 -54.9395752 -94.6716766
-117.1288757 -54.8578796 -93.2462921
-118.3688965 -54.7846451 -92.0372238
-146.7257996 -54.7546959 -86.4524002
-148.2009277 -54.8052483 -87.0514984
-149.6620636 -54.8737221 -87.7182465
-151.1641541 -54.9510918 -88.5289917
-152.6793365 -55.0365486 -89.4892044
-154.2548981 -55.1230698 -90.6334686
-116.2499084 -53.7847672 -97.9422455
-117.4868240 -53.6984024 -96.3502884
-118.7033997 -53.5982513 -95.0105896
-147.0980835 -53.5357475 -89.1206360
-148.5880432 -53.6038132 -89.7942734
-150.0785065 -53.6785240 -90.5973587
-151.6072998 -53.7522430 -91.5544662
-117.8929901 -52.4922676 -100.2317963
-119.1049652 -52.4187088 -98.5699310
-120.3409042 -52.3677483 -97.1462173
-121.5922546 -52.3020859 -95.8679047
-122.8457794 -52.2341995 -94.7844238
-124.1315308 -52.1776810 -93.8410873
-125.4087982 -52.1423721 -92.9868851
-126.7236023 -52.0940247 -92.2891998
-138.8849792 -52.0792503 -89.7942047
-140.2746582 -52.1094284 -89.9421616
-141.7116089 -52.1374817 -90.2171936
-143.1321411 -52.1852188 -90.5382767
-144.5826416 -52.2343407 -90.9937744
-146.0438843 -52.2882538 -91.5621948
-147.5098572 -52.3578949 -92.1975861
-149.0468750 -52.3972244 -93.0586014
-122.0400696 -51.1110764 -99.8742752
-123.2900238 -51.0890656 -98.5001831
-124.5498810 -51.0075989 -97.4119339
-125.8233032 -50.9657021 -96.4655991
-127.1263885 -50.9363251 -95.6207047
-139.2934265 -50.8940964 -92.9490204
-140.7022095 -50.9270859 -93.1657333
-142.1522217 -50.9693985 -93.4928665
-143.5842285 -51.0127754 -93.9281311
-145.0763550 -51.0514984 -94.5334244
-146.5614471 -51.0865402 -95.2041168
-126.3084564 -49.7728653 -100.8224258
-127.6324615 -49.7595444 -99.8439865
-128.8986816 -49.7786102 -98.9518585
-130.2311401 -49.7337189 -98.2501678
-131.5411682 -49.7048950 -97.6814880
-132.8762665 -49.7036667 -97.2685547
-134.2342377 -49.6966400 -96.9505768
-135.6033173 -49.6927338 -96.7494888
-136.9881744 -49.7120781 -96.6293869
-138.3789368 -49.7282410 -96.7150726
-139.7999115 -49.7537155 -96.8699799
-141.2373047 -49.7494087 -97.1784515
99.1165924 -205.2033691 -7.9807138
98.4461899 -205.1788483 -7.7829800
96.4725571 -205.1302338 -7.3235517
95.8355179 -205.1368103 -7.2690029
95.1965637 -205.1724701 -7.3108563
94.5487137 -205.1911011 -7.3050885
93.9209366 -205.2394562 -7.3985810
93.2894135 -205.2816315 -7.4857974
92.6621628 -205.3401184 -7.6340623
92.0166168 -205.4045563 -7.8013244
102.2231140 -204.2143097 -6.9598441
89.9570236 -204.3999023 -6.1756096
88.1164246 -204.7162781 -7.1204796
102.6708145 -203.0722809 -5.2278423
101.9998550 -202.9960938 -4.8729820
89.7881317 -203.2392120 -4.2818117
89.1763992 -203.2968597 -4.4996819
88.5494919 -203.4031830 -4.7867842
87.9424744 -203.4967041 -5.0626106
86.1063690 -203.9240417 -6.1586461
85.4970474 -204.0840607 -6.5975251
107.3115158 -202.6837616 -6.5283074
83.5538788 -203.3963165 -6.0882354
107.7594910 -201.6038666 -5.0130758
107.0787659 -201.4832916 -4.5003319
103.6208115 -201.0306244 -2.2886367
102.9482574 -200.9654846 -1.9868858
83.4030457 -202.2926483 -4.3891702
82.7947159 -202.4655609 -4.8620887
82.2040176 -202.6218414 -5.3558340
81.5990677 -202.8087463 -5.9543014
81.0031204 -202.9871674 -6.5817657
109.7177353 -201.0004578 -5.0981479
79.6639633 -202.2695618 -6.0192127
109.4829102 -199.8685760 -3.2926428
79.5474396 -201.1767578 -4.4163046
78.9930115 -201.4156189 -5.1083889
78.4352875 -201.6587219 -5.9058270
113.4353867 -198.7907562 -4.1993132
112.7235260 -198.6042175 -3.4666016
112.0134354 -198.4303589 -2.7704759
76.9556503 -199.9436340 -3.9458902
76.3447800 -200.1776581 -4.6649704
114.6967697 -198.1333008 -4.2183681
115.2628632 -197.2815857 -3.5145869
114.4991608 -197.0954895 -2.7277470
74.3707581 -198.8303986 -4.0418406
73.7835312 -199.0445251 -4.7677135
115.8514252 -196.4624786 -2.8924417
117.1991501 -195.9260559 -3.2440727
116.4198303 -195.7068939 -2.3752801
115.6783371 -195.5504761 -1.6265422
73.0321732 -197.3205109 -2.8981462
72.4374695 -197.5424957 -3.6363420
71.8492050 -197.7730713 -4.4210815
71.7764587 -196.8248749 -3.2084436
118.3050842 -194.3968811 -2.2967010
71.7009506 -195.9244843 -2.1081922
71.0970535 -196.1370544 -2.7788365
119.6075516 -193.8885040 -2.8236964
120.2074585 -193.1798859 -2.5593016
119.4282761 -192.9350586 -1.5883223
69.2192917 -194.9639740 -2.9777286
68.6460037 -195.2285156 -3.9295621
67.4098969 -194.8609009 -4.7143769
122.2994232 -192.0729370 -3.2783906
67.9048996 -193.6269684 -2.5844274
67.3165512 -193.8657379 -3.4205339
67.8270111 -192.8186493 -1.6717600
122.7500992 -190.4904633 -1.9962729
121.9879608 -190.2780304 -1.0488580
67.7534637 -191.9840698 -0.7663521
123.3678436 -189.8394165 -1.9548125
65.3304291 -192.0463409 -3.0196514
125.4700394 -189.6691437 -3.9831285
124.7142181 -189.4153595 -2.9296455
123.9463196 -189.1635895 -1.8749707
123.2286072 -188.9648438 -0.9507064
65.2943573 -191.1795654 -2.1244075
64.6875000 -191.4353333 -2.9536688
64.0534058 -190.8250580 -2.9391119
125.9619370 -188.1638031 -3.0113697
64.0047150 -189.9938965 -2.1590116
63.3932571 -190.2501373 -3.0329132
125.7863464 -187.2630157 -1.9591562
62.7496986 -189.6644135 -3.0963056
126.5153732 -186.7202148 -2.2403579
125.6863174 -186.4578705 -1.1146785
62.7264481 -188.8268127 -2.3108144
62.0997581 -189.0929718 -3.2262962
127.2401657 -186.1847687 -2.5543039
61.4889221 -188.5337219 -3.4119825
127.9124222 -185.5746155 -2.7585337
127.0978394 -185.3387299 -1.6577659
126.9586411 -184.4663696 -0.7642252
127.6860123 -183.9835510 -1.1834621
126.9005966 -183.7561646 -0.1318500
60.1999969 -186.5808258 -2.9735825
128.3481903 -183.4142303 -1.5030496
60.1636581 -185.7998505 -2.3044081
59.5385895 -186.0670471 -3.2531092
129.0569611 -182.8833008 -1.9299736
128.2392731 -182.6191406 -0.7752054
60.1467209 -185.0023346 -1.6252745
129.7100220 -182.3292084 -2.2868609
129.5811615 -181.5319061 -1.5450326
56.4185486 -183.4580688 -5.0640936
130.8500214 -179.7146759 -1.8075103
131.5582581 -179.2072754 -2.3538082
130.7575378 -178.9526520 -1.2041526
57.5490799 -180.6715546 -1.3282994
132.2599487 -177.9999390 -2.4918344
57.5124893 -179.9458160 -0.8458282
56.8912125 -180.1914673 -1.7414649
132.1536865 -177.2445374 -1.9146639
56.2664528 -179.7008362 -2.2297034
55.6832237 -179.9336700 -3.1493099
132.0524597 -176.4935608 -1.3629661
56.2759628 -178.9522858 -1.7626143
56.2875710 -178.2102051 -1.3062394
56.2520256 -177.5009308 -0.9044991
133.4259644 -174.1136169 -1.8905737
53.7688713 -176.3161316 -3.4382396
53.7619629 -175.6005859 -3.0644460
134.8877106 -172.5383911 -3.2519813
134.7827911 -171.8098297 -2.7916832
53.7368546 -174.1937714 -2.3695221
53.1069107 -174.4466095 -3.3538184
134.6914520 -171.0966949 -2.3747885
135.5334625 -170.7058716 -3.4071453
134.6507263 -170.4202118 -2.0638266
52.5057106 -173.2839661 -3.7146881
51.8913383 -173.5363464 -4.7514725
52.5074539 -172.5889587 -3.4094007
52.4841270 -171.9091492 -3.1418631
136.1982269 -168.9158783 -3.7734292
136.1545105 -168.2426605 -3.5082502
136.1380920 -167.5818329 -3.2895410
136.0463257 -166.8930817 -2.9630864
52.4431076 -168.5351105 -1.9484178
51.8186264 -168.7638092 -2.9050519
136.8018646 -165.8377075 -3.8766360
135.9597778 -165.5790253 -2.5821040
52.4209671 -167.8834534 -1.7838427
102.3626785 -160.0544434 19.8383942
101.7314987 -160.0503387 19.9476128
101.1065521 -160.0597534 20.0468559
100.4541855 -160.0556793 20.1422157
99.8089523 -160.0496521 20.2304077
99.2032394 -160.0635529 20.3087749
97.3155594 -160.0762177 20.4838600
96.6890106 -160.0906219 20.5059566
92.3416824 -160.1926880 20.5537834
91.7081146 -160.2240601 20.5240555
91.0905685 -160.2545013 20.5048790
90.4784317 -160.2709198 20.4817123
89.8461380 -160.3083038 20.4380569
89.2273712 -160.3273621 20.3780193
88.6056519 -160.3564148 20.3125229
87.9882278 -160.3957214 20.2467175
50.0369759 -166.8136749 -5.2879601
100.4458160 -159.4553986 20.1569405
96.6961975 -159.4935913 20.4949398
92.3353195 -159.6219482 20.5289745
91.7065277 -159.6661377 20.5173988
87.9905472 -159.7917175 20.2674904
49.9753456 -166.1774750 -5.1802564
96.6677933 -158.8780823 20.4760780
87.3659363 -159.2249603 20.1916771
86.7583923 -159.2551422 20.1034203
86.1465073 -159.2913513 20.0180092
85.5240784 -159.3368530 19.9196758
49.9697533 -165.5193939 -5.0214009
137.4847717 -162.2297363 -4.4084282
104.8928680 -158.2864380 19.3304806
104.2600174 -158.2786102 19.4705029
103.6228027 -158.2664948 19.6074924
102.9843979 -158.2577057 19.7438412
97.2725067 -158.2394409 20.3984394
96.6660767 -158.2879791 20.4616966
86.7835846 -158.7004547 20.0965958
85.5413895 -158.7907562 19.9168301
49.9558411 -164.8725128 -4.9076796
137.4446564 -161.5911255 -4.3161044
102.3643723 -157.6608124 19.8371277
97.2945175 -157.6847382 20.3856945
96.6713943 -157.6986847 20.4536152
81.8423843 -158.3881989 19.1530685
49.9515305 -164.2276459 -4.8045130
137.4310913 -160.9669495 -4.2661915
102.3523865 -157.0661316 19.7989025
97.2933121 -157.1335602 20.3641186
96.6264343 -157.0886078 20.4584026
89.8434296 -157.2963104 20.4182568
89.2206955 -157.3262024 20.3538647
81.8445206 -157.7886200 19.1396255
49.9824028 -163.5709534 -4.6687222
49.3616829 -163.8219757 -5.7827816
48.7406349 -164.0801086 -6.9451804
137.4273682 -160.3449707 -4.2362533
102.3179855 -156.4650879 19.7588692
96.6036224 -156.5019379 20.3902073
96.0547485 -156.5151520 20.4380512
95.4303894 -156.5258942 20.4639359
94.7898636 -156.5377502 20.4749432
94.1600952 -156.5589600 20.4790936
81.8189240 -157.1962738 19.1091919
80.0264511 -157.3320465 18.6529636
79.4087067 -157.3892365 18.4786606
78.7650757 -157.4538269 18.2875385
78.1698074 -157.5043182 18.0970993
49.9539032 -162.9423828 -4.6418185
49.3634491 -163.1813812 -5.7183390
48.7705345 -163.4258575 -6.8282075
137.4127045 -159.7202759 -4.2013350
102.3176117 -155.8792267 19.7056580
95.4349594 -155.9329224 20.4281158
94.8066483 -155.9475098 20.4360085
83.0489655 -156.5054779 19.3449917
82.4389114 -156.5552521 19.2202454
81.8437729 -156.5943604 19.0902710
80.0024261 -156.7405701 18.6272678
78.1733856 -156.9031677 18.0729179
137.4179077 -159.1056976 -4.2141109
108.7259979 -155.4075165 18.1375446
108.0874481 -155.3885193 18.3315315
107.4472504 -155.3693237 18.5138588
106.8221207 -155.3569794 18.6817284
102.3468704 -155.2927551 19.6412334
89.8114929 -155.5258026 20.2796307
89.2085571 -155.5499420 20.2171631
88.5809860 -155.5772552 20.1488342
83.0303497 -155.9158936 19.3087997
137.3801880 -158.4833527 -4.1808605
106.8273010 -154.7657013 18.6389046
102.3382645 -154.6985626 19.5818901
101.6976547 -154.6903381 19.6980953
101.0725861 -154.6898804 19.8062897
100.4562759 -154.6912689 19.9077034
137.4183502 -157.8873291 -4.2785344
103.6213226 -154.1228180 19.2812481
102.9726334 -154.1146393 19.4046326
102.3346710 -154.1088104 19.5252934
101.7044601 -154.1034241 19.6406059
101.0678253 -154.1002808 19.7486095
100.4255981 -154.0962830 19.8529854
79.3829651 -155.0163269 18.2862415
137.4277039 -157.2853394 -4.3479466
101.0756912 -153.5118866 19.6885796
79.4057159 -154.4174042 18.2267609
137.3946381 -156.6721802 -4.3694720
106.1632462 -152.9842987 18.5989094
105.5168228 -152.9713135 18.7423687
104.8835754 -152.9605103 18.8811951
104.2386551 -152.9493256 19.0189819
79.4007568 -153.8284607 18.1599026
137.4240723 -156.0818634 -4.5013180
107.4744110 -152.4356079 18.1519737
106.8296127 -152.4168396 18.3378677
79.3895721 -153.2390289 18.0923157
137.4351959 -155.4888000 -4.6210041
137.4019165 -154.8869324 -4.6901007
106.2009888 -151.2359467 18.2937279
137.4222260 -154.3051605 -4.8670254
104.9125900 -150.6299133 18.4986324
104.2823792 -150.6165771 18.6592865
138.3409882 -153.9797821 -6.4921355
137.4304352 -153.7208099 -5.0372453
104.9221420 -150.0506897 18.3816547
77.5869217 -151.0520020 17.1586056
76.9736023 -151.1111450 16.9418507
49.9199944 -155.4917450 -4.8098431
49.9169693 -154.8967133 -4.9569554
48.6960869 -154.7354431 -7.1887784
48.7550163 -154.1243744 -7.2615108
104.9523315 -147.1708221 17.7041779
104.3117905 -147.1595001 17.8470039
103.0703583 -147.1471252 18.0839348
102.4095840 -147.1387634 18.2293262
77.5897293 -148.1466064 16.5174046
76.9943085 -148.2028046 16.3141327
137.6177521 -150.2629700 -6.3392711
103.0686417 -146.5744324 17.9345913
102.4368057 -146.5646667 18.0704975
76.9946899 -147.6228485 16.1754932
137.6505127 -149.6985474 -6.6273904
106.2737198 -146.0457458 17.0800419
103.0708160 -146.0022278 17.7798538
77.0046158 -147.0435028 16.0310802
48.7383614 -152.3597412 -7.8565021
48.1297989 -152.5860596 -8.9673252
137.6909332 -149.1352997 -6.9229069
106.2740631 -145.4788208 16.8971043
105.6354141 -145.4654236 17.0593090
103.0886230 -145.4297943 17.6105042
101.1684036 -145.4171906 17.9588318
100.5480347 -145.4123688 18.0551014
83.1642838 -145.9960785 17.5365791
82.5189590 -146.0240479 17.4119053
81.9148102 -146.0617371 17.3055515
77.0187531 -146.4690399 15.8768396
88.6809006 -145.0920105 18.2234478
83.1389084 -145.4183197 17.3465881
77.0305862 -145.8944397 15.7060013
90.5417633 -144.4517822 18.1751232
89.9407349 -144.4852600 18.1200790
89.3056488 -144.5105286 18.0631733
88.6921310 -144.5363312 18.0173283
83.1565247 -144.8510895 17.1657848
81.3230286 -144.9165344 16.8287506
80.6797867 -144.9732208 16.6793575
77.0316086 -145.3223724 15.5188913
102.4790115 -143.7182312 17.1991463
101.8569107 -143.7129669 17.3019772
101.2215271 -143.7106628 17.3988323
100.5918121 -143.7098389 17.4903584
93.0336914 -143.8121796 18.0396767
90.5759430 -143.9023132 17.9662418
87.5049286 -143.9943542 17.7140827
86.8641129 -144.0092468 17.6162338
83.1223450 -144.2737885 16.9626522
77.0441284 -144.7505951 15.3285408
48.7435837 -150.0007935 -8.6571798
98.7011414 -143.1715240 17.5085754
98.1215057 -143.1659546 17.4488945
97.4992371 -143.1950684 17.4802303
94.3003540 -143.2211304 17.8201656
93.6744080 -143.2297211 17.8278675
93.0566406 -143.2464447 17.8376617
91.1875610 -143.3030701 17.8014660
90.5712051 -143.3367004 17.7445602
87.4791336 -143.4723053 17.4726563
83.7854843 -143.6800385 16.8937645
83.1340866 -143.7049255 16.7703876
80.1115952 -143.9195099 16.0801296
79.5217667 -143.9710388 15.9159155
78.9086227 -144.0241852 15.7387199
78.2802582 -144.0727081 15.5445995
77.6586685 -144.1274872 15.3421278
77.0506287 -144.1801300 15.1323290
48.7467537 -149.4212494 -8.9186954
137.0889282 -146.1472015 -7.3955202
136.2067719 -145.9266968 -6.0250020
99.9668579 -142.5872040 17.1632996
99.3493195 -142.5904236 17.2306137
98.7261124 -142.5947266 17.2909222
98.1078873 -142.6043854 17.3310566
97.4621353 -142.6125793 17.3678932
94.3099670 -142.6489716 17.6167755
93.6776199 -142.6733246 17.6269035
90.5819550 -142.7682648 17.5167923
88.7203064 -142.8520813 17.3898315
88.1065750 -142.8710938 17.3309860
49.9882927 -148.4227600 -7.0571666
136.2960815 -145.3815460 -6.4552164
94.3303528 -142.0825806 17.4103107
93.7035217 -142.1012115 17.4073429
88.7260208 -142.2713470 17.1862946
49.9912682 -147.8455048 -7.3272004
136.3751526 -144.8373566 -6.8969793
96.8738861 -141.4614716 17.1068687
90.5532913 -141.6099091 17.0713005
88.7355576 -141.7090607 16.9862499
84.3854141 -141.9635925 16.4496250
83.8093719 -141.9692383 16.3024559
80.7540588 -142.1755524 15.6275835
136.4281311 -144.2951202 -7.3210826
96.8679733 -140.9118347 16.8747730
92.5370636 -140.9671326 16.8827534
91.8829269 -140.9729156 16.8704891
91.2370529 -140.9976959 16.8761864
90.6490402 -141.0834351 16.8869190
88.7442398 -141.1443329 16.7634640
88.1353226 -141.1715851 16.7130375
83.8281250 -141.4055328 16.0637665
80.7562027 -141.6026154 15.4049587
88.7817841 -140.5715027 16.5313168
85.7062988 -140.6676788 16.1937523
84.4545670 -140.7974091 15.9591675
83.8281097 -140.8395691 15.8352375
80.7949066 -141.0409851 15.1885328
86.3120041 -140.1309052 16.0408630
85.7129898 -140.1605530 15.9518557
85.1064377 -140.2019653 15.8505812
84.4683609 -140.2331085 15.7241325
83.8427353 -140.2798004 15.6060266
83.2338867 -140.3156891 15.4837084
82.6189194 -140.3472748 15.3522835
82.0034485 -140.3855743 15.2221375
81.3998032 -140.4307251 15.0943708
80.8153915 -140.4822845 14.9587975
136.6321716 -142.7215729 -8.9035378
135.7760620 -142.5002594 -7.5200925
134.9373169 -142.2975159 -6.2427440
50.0222473 -144.9989471 -8.9170055
134.9308319 -141.7597656 -6.6217160
88.8341827 -138.8968658 15.8396406
88.2028046 -138.9246979 15.7781525
87.5789948 -138.9407501 15.6986847
86.9776917 -138.9628296 15.6171761
50.0177345 -144.4391174 -9.3123646
51.2658463 -143.4936981 -7.6419673
51.2740135 -142.9373932 -8.0426111
50.6803551 -143.1283112 -9.0370836
50.0899963 -142.7766266 -10.5293751
50.1052551 -142.2243500 -10.9717159
51.3055305 -141.2854004 -9.3443441
133.8221741 -138.1940460 -7.6223588
51.3186188 -140.7320404 -9.7900839
134.7431183 -137.9375000 -9.6176605
133.9378052 -137.7245483 -8.2912769
51.3678970 -139.6432648 -10.7248554
51.3711967 -139.1039734 -11.2753849
132.6124878 -135.3339233 -8.5113459
133.5615234 -135.0218048 -10.5250959
132.7325897 -134.8336639 -9.2398281
52.6781425 -136.5898590 -11.3732767
132.9396362 -133.8443909 -10.8327694
52.7248306 -136.0573425 -11.9406929
52.0690117 -136.2459717 -13.1084423
52.7373695 -135.5419312 -12.5902462
52.7559166 -135.0098114 -13.2629442
131.5472565 -131.9950256 -10.6259804
53.9525986 -134.1225128 -11.8657045
53.3590126 -134.3074799 -12.8980207
131.7840424 -131.0640869 -12.5640402
131.0415955 -130.8753052 -11.3469944
130.1859894 -130.7123871 -10.0609789
53.9762459 -133.0675507 -13.2117968
130.3406067 -130.2088623 -10.9590378
56.4759865 -131.3816986 -10.7006979
55.8837852 -131.5494385 -11.6444263
130.6028748 -129.3051453 -13.0596399
56.5145454 -130.8764343 -11.4390783
129.8979950 -128.6351929 -12.7081413
129.0414429 -128.4765167 -11.4158716
56.5428200 -130.3645782 -12.1775723
129.2295837 -127.9904556 -12.4852152
56.5560799 -129.8467102 -12.9427509
127.7644196 -127.1961670 -11.1532965
56.5796890 -129.3317108 -13.7444630
127.8617783 -126.7134857 -12.0822649
-130.5245514 -145.8727570 -91.7152328
-131.1869202 -145.8494110 -91.4634171
-131.8583679 -145.8229828 -91.1917267
-132.5218201 -145.8029938 -90.9671173
-133.1964111 -145.7933960 -90.8358612
-133.8183746 -145.7429199 -90.7071533
-137.3527374 -145.8538818 -90.6897354
-138.0650940 -145.8968201 -90.8041763
-138.8100891 -145.9410553 -91.0126572
57.8816528 -128.0084381 -13.4052935
-136.3068390 -144.6076965 -88.0533905
-141.3332825 -145.0169525 -89.2013016
128.1239624 -125.8284378 -14.3641100
57.9077263 -127.5099030 -14.3097286
57.2826157 -127.6644745 -15.3451738
-122.8991013 -144.3291931 -91.9685211
-123.5145874 -144.1779938 -91.2233200
-124.1336060 -144.0472260 -90.6111984
-133.9559631 -143.5726166 -86.0786285
-134.6586304 -143.5876312 -86.0307083
-135.3455048 -143.5813446 -85.9887085
-136.0280304 -143.5827332 -86.0098572
-141.0205383 -143.8508148 -86.8641663
-141.7352600 -143.9498444 -87.1085587
-142.5012970 -144.0695190 -87.4722519
