138.4909973 -137.0834808 6.9164186
136.9673157 -136.7535095 8.9958448
116.1645813 -134.4658203 24.8321819
114.8749237 -134.4083099 25.3431015
113.5841217 -134.3567963 25.8170547
112.3035126 -134.3126831 26.2542286
111.0126801 -134.2756042 26.6464920
81.3680649 -135.0758362 26.4445896
80.1581879 -135.1772766 26.0552273
78.9567719 -135.2826538 25.6391487
77.7507553 -135.3948212 25.1839943
52.8640442 -139.8098145 4.0232601
140.1631775 -136.3023224 4.2337351
138.5140381 -135.9071655 6.7011762
136.9609222 -135.5698395 8.8337688
116.1623306 -133.3036652 24.6597328
114.8750534 -133.2469788 25.1691322
113.5799866 -133.1958313 25.6461601
112.2916260 -133.1508179 26.0843582
111.0114365 -133.1149292 26.4746132
77.7514496 -134.2209930 25.0428963
52.8454552 -138.5945587 3.9206698
140.1695251 -135.1276855 3.9832506
116.1937256 -132.1487885 24.4438992
114.8907928 -132.0918884 24.9580402
111.0312881 -131.9613953 26.2616158
78.9577942 -132.9278564 25.3383827
77.7684555 -133.0533142 24.8614731
52.8563232 -137.3811646 3.8010745
140.2138214 -133.9669952 3.6438875
116.2046890 -130.9977264 24.2053394
111.0326004 -130.8216553 26.0218468
109.7668304 -130.7836304 26.3641644
78.9659576 -131.7823029 25.1017685
77.7786026 -131.8905945 24.6565590
52.8705902 -136.1776581 3.6246076
140.2743378 -132.8141327 3.2431383
138.6048584 -132.4252319 5.7595439
137.0444946 -132.0908203 7.9203930
116.2411499 -129.8503113 23.9303684
78.9690475 -130.6245270 24.8601170
77.7843933 -130.7312622 24.4228477
52.8656578 -134.9893188 3.3590527
138.6785736 -131.2899628 5.2707734
137.1031189 -130.9528046 7.4730153
116.2472763 -128.7054443 23.6504440
114.9569397 -128.6479340 24.1744423
111.0838013 -128.5165100 25.5053482
79.0027313 -129.4682617 24.6134205
77.7950668 -129.5758972 24.1576786
52.8839264 -133.8009644 3.0890267
138.7088318 -130.1566620 4.7917714
137.1680603 -129.8221741 6.9725142
116.2787399 -127.5676651 23.3229637
114.9796829 -127.5096817 23.8555984
113.6804886 -127.4594116 24.3405361
112.3940430 -127.4154816 24.7808208
108.5669861 -127.3220520 25.8812675
107.2866211 -127.3036652 26.1851234
106.0241089 -127.2887115 26.4519844
82.6280365 -128.0355988 25.4713058
81.4306259 -128.1258392 25.1183205
80.2101364 -128.2192078 24.7331619
52.8993149 -132.6210632 2.7639527
51.7127533 -132.9958496 0.7060221
138.7792206 -129.0388031 4.1895742
137.2213287 -128.6971130 6.4369512
116.3160477 -126.4321289 22.9568748
115.0343552 -126.3731308 23.4814339
113.7293625 -126.3231583 23.9782982
112.4235382 -126.2805710 24.4355621
108.5909882 -126.1851654 25.5484962
104.7909546 -126.1462631 26.3316784
103.5325775 -126.1510468 26.5294266
83.8581772 -126.8047867 25.4857292
82.6386490 -126.8919220 25.1300621
81.4398727 -126.9810867 24.7821083
80.2292404 -127.0741806 24.4114761
52.9082947 -131.4495392 2.3766222
138.8899841 -127.9332275 3.4819579
137.2753448 -127.5795822 5.8570628
108.6121826 -125.0565948 25.1821518
104.8202057 -125.0131760 25.9701824
103.5701065 -125.0142365 26.1574669
102.3091812 -125.0160980 26.3293304
101.0529480 -125.0242081 26.4750881
97.3338470 -125.0774078 26.7040215
83.8750839 -125.6648331 25.1289005
82.6522064 -125.7530670 24.7926464
81.4656067 -125.8399658 24.4562778
80.2629700 -125.9320526 24.0754356
55.2470856 -129.6286621 5.5458822
54.0897903 -129.9453125 3.8202562
52.9034767 -130.2900391 1.9061588
138.9449768 -126.8301544 2.7918901
137.3758240 -126.4763107 5.1510921
108.6514816 -123.9319458 24.7719688
107.3764038 -123.9098206 25.0821972
106.1021423 -123.8998260 25.3591785
104.8425064 -123.8923798 25.5777950
103.6067429 -123.8865280 25.7651920
102.3302765 -123.8914032 25.9458466
101.1012878 -123.8942184 26.0729866
99.8448334 -123.9119568 26.1734676
98.6046295 -123.9244156 26.2469234
97.3673935 -123.9527130 26.2988167
86.3278809 -124.3803406 25.3139095
85.1013794 -124.4524841 25.0466881
80.2761078 -124.7944870 23.7008419
55.2802811 -128.4733734 5.0968409
54.1126595 -128.7926331 3.3354704
139.1013184 -125.7401505 1.9236598
137.4551392 -125.3823395 4.4083071
98.6371460 -122.7994843 25.8308945
97.3905563 -122.8260803 25.8712330
90.0145111 -123.0675049 25.4869442
88.7799377 -123.1184845 25.3298225
87.5722275 -123.1812439 25.1441479
86.3577805 -123.2500000 24.9036865
85.1384430 -123.3214417 24.6393471
81.5037994 -123.5656662 23.6787510
80.2834854 -123.6561584 23.2933197
55.2829819 -127.3299942 4.5406923
54.1291771 -127.6468277 2.7875497
137.5454407 -124.2957306 3.5891089
98.6642532 -121.6794739 25.3866005
97.4269867 -121.7103348 25.4230957
96.1894989 -121.7308502 25.4373016
94.9550323 -121.7635727 25.4351501
93.7152405 -121.7980270 25.3887177
92.4934387 -121.8408051 25.3171501
91.2520828 -121.8823929 25.2124863
90.0391617 -121.9335556 25.0795517
88.8272858 -121.9939499 24.9222317
87.5999146 -122.0547409 24.7150555
86.3660736 -122.1171799 24.4696083
85.1740723 -122.1975403 24.2115326
83.9702454 -122.2730026 23.9146500
82.7459106 -122.3509521 23.5915890
81.5430374 -122.4370193 23.2625008
80.3220215 -122.5295105 22.8735943
55.3128510 -126.1908646 3.9753985
54.1431541 -126.5070877 2.1900313
137.7115784 -123.2215271 2.6159086
136.0736694 -122.8917618 4.9568911
134.5667725 -122.6101761 6.9134150
93.7451859 -120.6736221 24.9344215
92.5336075 -120.7233124 24.8717995
88.8404694 -120.8642807 24.4621010
87.6349792 -120.9349060 24.2593117
55.3472176 -125.0563736 3.3613048
54.1836548 -125.3738937 1.5538939
136.2079468 -121.8208542 4.0056300
134.6568451 -121.5288391 6.0673828
93.7896271 -119.5576248 24.4397984
92.5567093 -119.5969543 24.3530331
88.8818207 -119.7436218 23.9731369
87.6645813 -119.8162994 23.7662296
55.3777771 -123.9315720 2.6722987
54.2227135 -124.2555771 0.8235130
53.0168228 -124.6024017 -1.2694013
136.3169708 -120.7533493 3.0342729
134.7860107 -120.4608612 5.0956368
93.8262787 -118.4405212 23.9096279
92.5994720 -118.4831390 23.8230400
91.3729324 -118.5293884 23.7396698
90.1526108 -118.5825653 23.6237926
88.9206696 -118.6338425 23.4388218
87.6927643 -118.6909103 23.2229767
57.7558594 -122.2353210 5.2552662
56.5761909 -122.5141449 3.6417618
55.4009781 -122.8193665 1.8900344
54.2467880 -123.1433945 0.0008230
136.4804688 -119.6966095 1.9195952
134.9065399 -119.4053040 4.0739617
93.8685760 -117.3367538 23.3643932
92.6434174 -117.3772049 23.2854233
91.4071045 -117.4181519 23.1834812
90.1780167 -117.4652405 23.0384274
88.9637680 -117.5272141 22.8659477
87.7429733 -117.5825653 22.6629601
57.7779770 -121.1223221 4.4816160
56.5994263 -121.4061279 2.8344502
55.4305534 -121.7117920 1.0579751
54.2767410 -122.0362930 -0.8564333
135.0444336 -118.3602600 2.9462652
57.8147125 -120.0154877 3.6639175
56.6476898 -120.3032074 1.9966973
135.1823273 -117.3259811 1.7408123
57.8623123 -118.9189453 2.8023705
56.6967621 -119.2081909 1.0971043
135.3885193 -116.2982178 0.3568481
133.8109283 -116.0051498 2.5850592
132.2914581 -115.7359009 4.5400229
57.8994942 -117.8243408 1.8383300
56.7669945 -118.1259995 0.1237441
133.9688873 -114.9899445 1.2469119
132.4551849 -114.7012329 3.2734699
57.9515076 -116.7431488 0.8111900
56.8033409 -117.0496826 -0.9864321
134.1643677 -113.9801483 -0.2728147
132.5911560 -113.6878510 1.9581887
131.0809784 -113.4335938 3.8676577
129.6043091 -113.2106476 5.5245528
58.0070152 -115.6725845 -0.2967780
56.8439484 -115.9778061 -2.1730514
134.4361267 -112.9796371 -2.0045812
131.2876740 -112.3983307 2.4601452
129.7361450 -112.1849060 4.2756982
58.0747795 -114.6132965 -1.4890482
56.8943558 -114.9189835 -3.4602828
129.9285431 -111.1643677 2.8356247
60.4807434 -112.9945908 0.7102844
59.3067513 -113.2655258 -0.9619935
58.1368446 -113.5573120 -2.7955961
131.6741028 -110.3916016 -0.6694168
130.0886841 -110.1700211 1.3475034
60.5398598 -111.9436340 -0.5747070
130.3146515 -109.1785202 -0.3648472
128.8084717 -108.9472504 1.5144000
127.3435974 -108.7262421 3.1634381
62.9539604 -110.3950882 1.1977266
61.7839088 -110.6376495 -0.2958612
60.6238136 -110.9006958 -1.9266334
-125.8252029 -126.7305832 -84.2332458
-127.0745544 -126.6555862 -83.3784790
-132.4362793 -126.5609436 -82.1163025
130.5846252 -108.1937943 -2.3003860
129.0351715 -107.9689102 -0.2525687
127.5252304 -107.7374802 1.5794969
63.0373383 -109.3507385 -0.1185303
61.8446083 -109.6026382 -1.7348223
60.7165375 -109.8799057 -3.4155989
-121.3954163 -124.9232254 -82.0325012
-122.6739120 -124.7714310 -81.0382614
-123.9416962 -124.6801300 -80.2209473
-125.2298737 -124.6011353 -79.5031738
-126.5112991 -124.5555115 -78.9249802
-127.8473587 -124.5270386 -78.4878464
-129.1719971 -124.4974442 -78.1356735
-130.5144196 -124.4932556 -77.8959656
-131.8709106 -124.5213852 -77.7625504
-133.2412872 -124.5502777 -77.7440796
-134.6366577 -124.5596161 -77.8396988
-136.0163269 -124.6194153 -78.0613708
-137.4627380 -124.7458649 -78.4398880
-138.8886108 -124.8693466 -78.8986282
129.2928772 -106.9949951 -2.2126198
127.7398987 -106.7670975 -0.2018235
63.1206436 -108.3171844 -1.5668986
61.9355927 -108.5857773 -3.3081450
-119.6954498 -123.0742493 -79.1832886
-120.9458313 -122.9700546 -78.2368851
-122.2275543 -122.8915710 -77.4178543
-136.9802704 -122.8415604 -74.9597168
-138.3913574 -122.9098206 -75.3079758
-139.8341522 -123.0157013 -75.7960281
-141.2864685 -123.1572418 -76.3810654
-142.7643890 -123.3126984 -77.1101837
-144.2691650 -123.4656982 -78.0391541
127.9943085 -105.7978745 -2.2108831
63.2115402 -107.3003998 -3.1671650
62.0418510 -107.5668259 -5.0052061
-113.1891708 -122.0317535 -82.4009476
-114.3826599 -121.7959290 -80.8169403
-115.6080933 -121.6162338 -79.3910446
-116.8329773 -121.4803619 -78.1534653
-118.0753174 -121.3649445 -77.0543060
-119.3288727 -121.2806244 -76.1323547
-120.5926514 -121.1896973 -75.2986298
-121.8833313 -121.1123276 -74.5612793
-136.6170502 -121.0956497 -72.2051773
-137.9996338 -121.1525726 -72.4685516
-139.4221039 -121.2273788 -72.8496933
-140.8569336 -121.3223038 -73.3265228
-142.3041077 -121.4202881 -73.8995743
-143.7691956 -121.5498886 -74.6397247
-145.2626648 -121.7024994 -75.4698486
-146.7931519 -121.9088974 -76.4839020
128.3000031 -104.8489151 -4.4351683
126.6797943 -104.6329422 -2.2816224
125.1963196 -104.4094086 -0.5147457
68.0130768 -105.3950043 0.9340974
66.8236008 -105.5914154 -0.3416518
65.6484222 -105.8058548 -1.7128882
64.4680176 -106.0382385 -3.2426701
63.3165665 -106.2996521 -4.9257011
-111.6083450 -120.3500137 -80.6264267
-112.8268051 -120.1407089 -79.0201874
-114.0289612 -119.9833145 -77.6676178
-144.8490906 -119.9215775 -72.5942307
-146.3367310 -120.0543289 -73.4189758
-147.8191528 -120.2195435 -74.3359070
125.4386444 -103.4703598 -2.6058855
68.1098175 -104.3664856 -0.6422142
66.9186935 -104.5672607 -1.9982936
65.7449112 -104.7919693 -3.4503179
64.5693130 -105.0428848 -5.0874395
63.4156113 -105.3153000 -6.9008894
-107.7606659 -119.2184677 -83.0531693
-108.9170227 -118.9428482 -80.9659348
-110.0977783 -118.7367096 -79.2233200
-111.2872467 -118.5690460 -77.7286987
-112.5201111 -118.4137115 -76.3556900
-113.7383728 -118.2641678 -75.1399994
-144.5096130 -118.2183990 -70.1877823
-145.9861908 -118.3471146 -70.9160767
-147.4564514 -118.4813004 -71.7402267
-148.9750671 -118.6462784 -72.7072144
-150.5205231 -118.8701172 -73.8331985
125.7433319 -102.5205994 -4.9629335
124.2522278 -102.3217087 -3.1359541
122.7805786 -102.1357193 -1.4912659
121.3196793 -101.9541779 0.0202959
119.8831329 -101.8076172 1.3332305
118.4870300 -101.6824341 2.4385874
117.1234512 -101.5783081 3.4477584
68.2172546 -103.3585434 -2.3487554
67.0304871 -103.5702972 -3.7622564
-106.2569885 -117.6350632 -81.9181519
-107.4191895 -117.3925858 -79.9082642
-108.6049576 -117.1929703 -78.1856537
-150.1273499 -117.1103821 -71.3425980
-151.6768799 -117.3124161 -72.4598160
123.0538559 -101.2119598 -3.7836192
121.5568466 -101.0291290 -2.0821712
120.0958557 -100.8549805 -0.6409849
118.6970825 -100.7083359 0.5781837
117.3283005 -100.5889435 1.6688027
68.3283463 -102.3648453 -4.2235928
-103.6649780 -116.4173965 -83.4101868
-104.8020935 -116.1193237 -81.1253128
-105.9641800 -115.8777084 -79.1170654
-107.1403961 -115.6880112 -77.4216690
-108.3520966 -115.4963226 -75.8715363
-149.8045349 -115.4336090 -69.1722031
-151.3265686 -115.5979156 -70.1900177
-152.8631592 -115.7841339 -71.3372726
-154.4370270 -116.0265350 -72.6400452
118.9248657 -99.7508392 -1.4916124
117.5494843 -99.6164246 -0.3220366
70.8150940 -100.9765625 -3.4726591
69.6352234 -101.1776047 -4.8113022
68.4619675 -101.4005585 -6.2953649
-102.2232208 -114.9359512 -82.9098053
-103.3792953 -114.6333389 -80.5798950
-152.5512848 -114.1272125 -69.2550888
-154.0652008 -114.3008194 -70.4049072
119.1932678 -98.8297653 -3.8637271
117.7808990 -98.6886215 -2.5093529
70.9496765 -100.0058594 -5.5577192
69.7748260 -100.2182236 -7.0106115
68.5953064 -100.4401855 -8.6501331
-101.9598389 -113.1840286 -80.2945709
-103.1314850 -112.9574356 -78.2765579
-152.2714386 -112.5157166 -67.4327469
-153.7916718 -112.6827850 -68.4920731
-155.3370056 -112.8668900 -69.6769257
-156.9097443 -113.0785675 -71.0284500
119.5078278 -97.9376526 -6.5440407
118.0797119 -97.7848434 -5.0550609
116.6250381 -97.6320496 -3.6644032
115.2180634 -97.4973831 -2.4581647
73.4570694 -98.6608658 -5.1842489
72.2873459 -98.8570480 -6.4423146
71.0941162 -99.0602875 -7.9063687
-100.5913086 -111.7697067 -80.1600266
-101.7397995 -111.5286255 -78.1253662
-102.9336166 -111.3004608 -76.2636719
-155.0588074 -111.2489471 -67.8594818
-156.6016846 -111.4360504 -69.0962448
-158.2167511 -111.6794128 -70.4861526
118.4374619 -96.8735123 -8.0277405
116.9399872 -96.7388153 -6.3820243
115.4896088 -96.5949707 -5.0113773
73.6148911 -97.7202606 -7.5907307
72.4508667 -97.9170532 -8.9725189
-99.2084045 -110.3788910 -80.2677841
-100.3943710 -110.1082993 -78.0993423
-101.5512924 -109.9131012 -76.2690659
-102.7641525 -109.7057037 -74.5550537
-154.8209839 -109.6784439 -66.2904968
-156.3557129 -109.8499298 -67.4388580
-157.9196167 -110.0418320 -68.7161255
115.8149414 -95.7014389 -7.9453354
114.3762207 -95.5746307 -6.5801449
112.9734879 -95.4645233 -5.3773518
111.6031952 -95.3461304 -4.4060116
110.2206039 -95.2523499 -3.5015554
80.9648590 -95.8499756 -3.7724369
79.7535400 -95.9792023 -4.5758395
78.5513306 -96.1159058 -5.4700880
77.3628998 -96.2655792 -6.4730072
76.1597900 -96.4318695 -7.6338215
74.9858551 -96.6267319 -8.8800068
73.8066635 -96.8219147 -10.3470039
-97.8845901 -108.9885559 -80.5369797
-99.0222931 -108.7519302 -78.3797455
-100.2179337 -108.5208435 -76.3788834
-157.6578369 -108.4596100 -67.1327286
-159.2306061 -108.6728668 -68.4325485
113.3227234 -94.5914154 -8.5158806
111.8999863 -94.4843292 -7.2770109
110.4969330 -94.3711090 -6.1962867
81.1508331 -94.9091415 -6.1645956
79.9490051 -95.0426712 -7.0524502
78.7477112 -95.1885910 -8.0595436
77.5592270 -95.3521194 -9.1882057
76.3757401 -95.5441513 -10.5018682
75.2201004 -95.7409363 -11.9563313
-96.5712128 -107.6395950 -81.0027924
-97.7024307 -107.3890457 -78.7312775
-98.8651276 -107.1509857 -76.6873169
-100.0608978 -106.9568863 -74.8685684
-157.4591522 -106.9176865 -65.7554474
-158.9812469 -107.0938263 -66.9603729
-160.5848846 -107.3040390 -68.3747711
-162.1860352 -107.5331879 -69.9139938
112.2837296 -93.6622543 -10.7579584
110.8366241 -93.5371857 -9.4421082
109.4346924 -93.4270325 -8.3363829
108.0557556 -93.3259201 -7.4475584
106.7235184 -93.2538681 -6.6386919
105.3675842 -93.1922379 -5.9715338
86.2298965 -93.5504227 -5.9856310
84.9877319 -93.6438446 -6.5762224
83.7940216 -93.7495804 -7.2279930
82.5814972 -93.8687897 -8.0246010
81.3670349 -94.0024719 -8.9540873
80.1675797 -94.1595001 -9.9365683
-95.2382507 -106.3228607 -81.6839523
-96.3877716 -106.0451660 -79.2564774
-97.5499115 -105.8061523 -77.1132507
-160.3582764 -105.7460938 -66.9562454
-161.9459381 -105.9596329 -68.4181213
109.8551559 -92.5911865 -12.1187048
108.4174347 -92.5212936 -10.9594355
107.0477371 -92.4330368 -9.9582233
105.6829834 -92.3551331 -9.1476965
86.4676743 -92.6464615 -8.8682089
85.2371674 -92.7554932 -9.5147076
84.0333481 -92.8722916 -10.2692671
82.8254166 -93.0061798 -11.1881180
81.6259918 -93.1548767 -12.2082911
-95.0701065 -104.7243500 -79.9361343
-96.2420654 -104.4718628 -77.6893997
-97.4171753 -104.2543793 -75.6976547
-160.1523132 -104.2164230 -65.6814117
-161.7228394 -104.4105530 -67.0598145
106.1014175 -91.5325699 -13.1083431
103.3479462 -91.4262238 -11.5118647
102.0131912 -91.4102707 -10.8962049
100.7017288 -91.3709335 -10.4577818
99.3751678 -91.3458405 -10.1442003
98.0739441 -91.3381729 -9.9430723
96.7828217 -91.3430328 -9.8221951
95.5021896 -91.3618469 -9.7627802
94.2210693 -91.3868561 -9.8451643
92.9548569 -91.4318619 -10.0514212
91.6934052 -91.4853210 -10.2882671
90.4506607 -91.5477066 -10.5898914
89.2230225 -91.6147690 -11.0443602
87.9731598 -91.7121735 -11.6251450
86.7604218 -91.8256073 -12.2868862
85.5453186 -91.9530945 -13.0765896
-96.1065216 -102.9275131 -76.3485794
-97.3006897 -102.7198486 -74.4535065
-159.9817505 -102.7120209 -64.5607605
-161.5140076 -102.8824081 -65.8280182
-163.1358337 -103.0984421 -67.3079071
101.1253281 -90.5756836 -14.7777777
99.7750626 -90.5484467 -14.2883873
98.4517212 -90.5389633 -13.9681435
97.1408157 -90.5903168 -13.8143559
95.8712921 -90.6120071 -13.7325983
93.3047562 -90.6970291 -14.0004158
92.0562973 -90.7421341 -14.2670145
-95.9964447 -101.4173965 -75.1829529
-97.1889038 -101.2251129 -73.3872986
-159.8269501 -101.2221603 -63.5511055
-161.3443604 -101.3842545 -64.7424164
-162.9382324 -101.5797348 -66.1401443
-164.5393677 -101.7958221 -67.6486053
-95.9023132 -99.9135361 -74.1453857
-97.0959320 -99.7442856 -72.4332733
-162.7559967 -100.0753708 -65.0929565
-164.3800659 -100.2897339 -66.5952988
-94.6119614 -98.6476822 -75.0084305
-95.8145599 -98.4290085 -73.2137222
-97.0112076 -98.2709885 -71.5669403
-162.6416626 -98.6115036 -64.2220001
-164.2112122 -98.7952423 -65.6067047
-165.8170624 -99.0077209 -67.1088867
-94.5252228 -97.1537399 -74.1137772
-165.6721191 -97.5213013 -66.2264404
-94.4650269 -95.6940460 -73.3412933
-165.5148010 -96.0468292 -65.3811646
-94.3897171 -94.2447586 -72.6485138
-165.4094391 -94.5967789 -64.6363144
-167.0227814 -94.7982407 -66.1899109
-168.6627197 -95.0212250 -67.9207153
-93.1685638 -92.9487534 -73.5613174
-94.3371124 -92.8035736 -72.0498123
-165.3021698 -93.1536636 -63.9811783
-166.9108734 -93.3466873 -65.4969788
-168.5372925 -93.5574417 -67.1823196
-94.3046799 -91.3679733 -71.5010223
-168.4244080 -92.1090546 -66.5113373
-170.1114349 -92.3451462 -68.3549652
-93.0480804 -90.1229858 -72.7560120
-94.2539825 -89.9524078 -71.0248337
-168.3211975 -90.6695557 -65.9133224
-169.9880829 -90.8926239 -67.7122650
-171.7173462 -91.1497574 -69.7075424
-93.0261154 -88.6927338 -72.2558517
-94.2157898 -88.5400162 -70.6147461
-168.2372437 -89.2449265 -65.4093094
-169.8818054 -89.4555283 -67.1579742
-92.9744186 -87.2926865 -71.9372635
-94.1850281 -87.1416931 -70.2884140
-168.1703796 -87.8287430 -64.9904938
-169.8142853 -88.0335693 -66.6999207
-91.7376556 -86.0550156 -73.3921509
-92.9533691 -85.8935852 -71.6431580
-94.1565552 -85.7460556 -70.0149612
-117.9850693 -84.4189453 -53.2518311
-119.2744904 -84.3983994 -52.8441010
-120.5566483 -84.3785706 -52.4784889
-121.8562469 -84.3700180 -52.1557350
-128.3908997 -84.3630676 -51.0279388
-129.7100220 -84.3726196 -50.9103394
-131.0432587 -84.3887253 -50.8356705
-132.3688049 -84.4046936 -50.7914619
-133.7075195 -84.4252930 -50.7755966
-135.0518188 -84.4513626 -50.7945213
-168.1149139 -86.4219742 -64.6433945
-169.7538757 -86.6199951 -66.3079834
-171.4006653 -86.8341370 -68.1448975
-91.7198868 -84.6586990 -73.1450653
-92.9325714 -84.4998703 -71.3962936
-94.1364975 -84.3577805 -69.7889023
-117.9613495 -83.0689545 -53.1451950
-119.2611313 -83.0441284 -52.7372131
-120.5373230 -83.0333862 -52.3857536
-121.8515778 -83.0154037 -52.0516090
-128.3877869 -83.0108566 -50.9313965
-129.7030487 -83.0196686 -50.8186646
-131.0342102 -83.0365448 -50.7302780
-132.3596802 -83.0513306 -50.6746826
-133.6956635 -83.0716324 -50.6638641
-135.0242615 -83.0930939 -50.6821632
-168.0699158 -85.0214691 -64.3610611
-169.7131653 -85.2156525 -66.0094604
-91.7177734 -83.2650604 -72.9306335
-115.3887787 -81.7626801 -53.9837036
-116.6764832 -81.7314758 -53.5068970
-117.9654465 -81.7069702 -53.0635910
-121.8335876 -81.6632080 -51.9664803
-123.1232986 -81.6585999 -51.6800766
-124.4384918 -81.6495667 -51.4108086
-125.7398987 -81.6509552 -51.1920776
-127.0570602 -81.6529541 -51.0147438
-128.3821564 -81.6643372 -50.8794441
-129.7033997 -81.6724777 -50.7543640
-133.7023926 -81.7234955 -50.5957718
-135.0377045 -81.7471771 -50.6141205
-136.3812561 -81.7720032 -50.6576004
-137.7014160 -81.7989731 -50.7372742
-168.0230865 -83.6278610 -64.1383896
-169.6611633 -83.8164520 -65.7612305
-90.4978333 -82.0481873 -74.6514740
-91.7022400 -81.8852921 -72.8154221
-115.3812027 -80.4132385 -53.9442673
-116.6674042 -80.3869095 -53.4759064
-117.9467316 -80.3646622 -53.0290680
-123.1143265 -80.3029480 -51.6176910
-128.3882294 -80.3160400 -50.8396263
-129.6867065 -80.3229675 -50.7044258
-133.6900787 -80.3714447 -50.5598335
-135.0093689 -80.3917389 -50.5751953
-136.3545990 -80.4211121 -50.6215897
-137.7016144 -80.4508972 -50.7038307
-168.0029907 -82.2448120 -64.0034180
-169.6524353 -82.4312439 -65.6164246
-171.2583008 -82.6237564 -67.3428650
-173.0110016 -82.8562469 -69.3865967
-90.4977417 -80.6717072 -74.5964966
-91.6974258 -80.5106049 -72.7476196
-115.3845673 -79.0659180 -53.9492950
-116.6628799 -79.0400543 -53.4791183
-127.0469894 -78.9625015 -50.9591675
-128.3755341 -78.9708557 -50.8232498
-129.6764526 -78.9756393 -50.6900024
-131.0238342 -78.9923553 -50.6113853
-136.3726044 -79.0776520 -50.6194344
-137.7132416 -79.1066742 -50.7062416
-89.3133850 -79.4711914 -76.5923462
-90.5026550 -79.2975082 -74.5726318
-91.6920929 -79.1404648 -72.7337418
-115.3894272 -77.7247925 -53.9968719
-136.3673859 -77.7345352 -50.6509857
-137.7088470 -77.7644043 -50.7350426
-88.1571198 -78.2893906 -78.8298569
-89.3233643 -78.0998840 -76.6192398
-112.8489685 -76.4430847 -55.1007233
-114.1064911 -76.4133530 -54.5676765
-115.3958282 -76.3855820 -54.0597610
-136.3751373 -76.3967743 -50.7149773
-137.7203979 -76.4260330 -50.8041725
-87.0073318 -77.1346741 -81.4212723
-88.1693115 -76.9209595 -78.9185257
-89.3240051 -76.7367554 -76.7352676
-112.8633881 -75.1060791 -55.1991501
-114.1326141 -75.0738983 -54.6465530
-119.2709045 -74.9831467 -52.8132553
-129.7191162 -74.9663696 -50.8929634
-136.4041748 -75.0625153 -50.8235474
-137.7485199 -75.0916290 -50.9141655
-85.8977280 -76.0188675 -84.5155106
-87.0219345 -75.7734375 -81.6288300
-112.8718262 -73.7724075 -55.3461227
-128.4180908 -73.6255112 -51.1387482
-133.7254333 -73.6821747 -50.8786736
-135.0571899 -73.7043152 -50.8969421
-136.4042206 -73.7299423 -50.9570084
-137.7456207 -73.7588120 -51.0502853
-141.8371277 -73.8649673 -51.5331154
-143.2175598 -73.9079132 -51.7769890
-144.5842896 -73.9543152 -52.0580330
-145.9832764 -74.0048828 -52.3822174
-171.2840729 -75.7621994 -67.4603958
-173.0024872 -75.9665375 -69.4289474
-85.9410324 -74.6563110 -84.7468643
-87.0613861 -74.4126282 -81.8369141
-112.8949432 -72.4414215 -55.5280075
-114.1650467 -72.4114838 -54.9719543
-115.4495697 -72.3839111 -54.4527550
-127.1160583 -72.2923279 -51.4703827
-133.7497253 -72.3688812 -51.0444717
-135.0785217 -72.3751297 -51.0627632
-136.4349518 -72.4001770 -51.1248283
-137.7785797 -72.4284286 -51.2226257
-141.8526001 -72.5348663 -51.7104073
-143.2293854 -72.5769882 -51.9510345
-144.6048889 -72.6225204 -52.2335892
-146.0061493 -72.6726456 -52.5588112
-171.3126526 -74.4075165 -67.6771851
-173.0462494 -74.6117249 -69.6853485
-85.9776459 -73.3035355 -85.0988922
-87.0892639 -73.0634308 -82.1948547
-115.4727783 -71.0574951 -54.6813087
-116.7564850 -71.0345993 -54.2105484
-118.0470505 -71.0165634 -53.7671700
-119.3504181 -70.9999695 -53.3548508
-120.6161194 -70.9838257 -52.9866905
-127.1429443 -70.9655685 -51.6863670
-128.4606323 -70.9713058 -51.5311279
-135.1036377 -71.0484314 -51.2709808
-139.1589508 -71.1337051 -51.5495529
-140.5284729 -71.1673126 -51.7186813
-141.8889771 -71.2131729 -51.9030647
-144.6391296 -71.3070068 -52.4273529
-146.0413361 -71.3423080 -52.7770615
-171.3459015 -73.0589600 -67.9627075
-87.1296997 -71.7194672 -82.6077194
-115.5039063 -69.7339401 -54.9414558
-116.7922363 -69.7122192 -54.4662056
-118.0765762 -69.6912842 -54.0249481
-119.3744431 -69.6787949 -53.6069489
-120.6428299 -69.6627045 -53.2505722
-121.9611435 -69.6489716 -52.9010315
-125.8640671 -69.6333237 -52.1048317
-127.1757202 -69.6470795 -51.9384689
-128.4942322 -69.6526489 -51.7952538
-129.8190613 -69.6651611 -51.6956520
-131.1393280 -69.6743240 -51.5922050
-132.4583130 -69.6863480 -51.5238419
-133.8037720 -69.7053528 -51.5075607
-135.1380157 -69.7283173 -51.5288315
-139.1921539 -69.8082123 -51.8023338
-140.5565491 -69.8439560 -51.9578171
-146.0610962 -70.0170822 -53.0286713
-171.4084320 -71.7146454 -68.3150482
-86.0260315 -70.6172791 -86.1359787
-87.1664429 -70.3834152 -83.1430206
-120.6826935 -68.3440704 -53.5437508
-121.9951096 -68.3339539 -53.2134972
-123.2851563 -68.3221283 -52.8971558
-124.5929413 -68.3230133 -52.6150131
-128.5261536 -68.3339539 -52.0703888
-133.8598175 -68.3835754 -51.8054008
-135.1899872 -68.4050446 -51.8214417
-139.2379913 -68.4871216 -52.0905342
-140.5951996 -68.5213318 -52.2449646
-146.1157990 -68.6934586 -53.3225021
-171.4889832 -70.3762512 -68.7520065
-86.0780945 -69.2866669 -86.8070297
-87.2374115 -69.0512238 -83.7091827
-120.7203751 -67.0245895 -53.8566284
-122.0418243 -67.0156326 -53.5186005
-123.3271103 -67.0091782 -53.2113876
-124.6324005 -67.0083618 -52.9547729
-128.5637360 -67.0101852 -52.3741379
-133.8830566 -67.0669022 -52.1137428
-135.2133484 -67.0897141 -52.1336327
-139.2798157 -67.1694794 -52.4129868
-140.6408081 -67.2011719 -52.5760536
-146.1575012 -67.3707047 -53.6411667
-171.5551605 -69.0424957 -69.2446747
-173.3485718 -69.2342072 -71.3504257
-87.2954712 -67.7264709 -84.4159927
-128.6096649 -65.6972275 -52.7118034
-129.9290619 -65.7045517 -52.5894737
-131.2682343 -65.7148285 -52.5116005
-132.5859375 -65.7302475 -52.4661293
-133.9334564 -65.7472382 -52.4572906
-135.2659760 -65.7730103 -52.4846802
-139.3298340 -65.8508301 -52.7754974
-140.6978607 -65.8857803 -52.9452171
-142.0566101 -65.9237061 -53.1533890
-143.4503326 -65.9598236 -53.4021187
-144.8067627 -66.0032196 -53.6761627
-146.2060089 -66.0530624 -54.0125351
-168.3827972 -67.3795166 -66.3496323
-170.0225372 -67.5395355 -68.0151443
-171.6663818 -67.7131577 -69.8350220
-87.3525162 -66.4088516 -85.2451324
-128.6588135 -64.3835754 -53.1133270
-129.9905243 -64.3899536 -53.0032768
-131.3178558 -64.4083099 -52.9171791
-132.6393280 -64.4214020 -52.8639374
-133.9923248 -64.4370117 -52.8482056
-135.3197021 -64.4574280 -52.8729744
-139.3846436 -64.5359039 -53.1690140
-140.7595062 -64.5680847 -53.3415909
-142.1119385 -64.6072769 -53.5413895
-143.4932404 -64.6443939 -53.7909622
-144.8713837 -64.6852646 -54.0879669
-146.2792358 -64.7342834 -54.4366379
-168.4696960 -66.0568924 -66.9276123
-170.1238708 -66.2175522 -68.6413422
-171.7763519 -66.3901443 -70.5008469
-87.4223251 -65.0902405 -86.1531219
-88.5730286 -64.8805313 -83.2034912
-89.7029114 -64.6934433 -80.6943588
-168.5862427 -64.7367935 -67.6026306
-170.2453613 -64.9001923 -69.3613129
-87.4910812 -63.7801132 -87.2030792
-88.6550751 -63.5723724 -84.1430588
-89.7793579 -63.3817596 -81.5648956
-168.6985168 -63.4231949 -68.3371353
-170.3831482 -63.5853806 -70.1590118
-88.7569199 -62.2700119 -85.1787720
-89.8773499 -62.0788155 -82.5163727
-165.6051636 -61.8318558 -66.0729675
-167.2182922 -61.9620743 -67.5376816
-168.8257294 -62.1123810 -69.1551666
-88.8305817 -60.9658775 -86.3921204
-89.9691086 -60.7807121 -83.6205292
-165.7421722 -60.5216599 -66.8852158
-167.3500671 -60.6564980 -68.3870239
-168.9762726 -60.8057899 -70.0679779
-170.7199707 -60.9579010 -72.0152283
-90.0725479 -59.4847984 -84.8340378
-165.8772736 -59.2176285 -67.7690811
-167.5035400 -59.3535385 -69.3379364
-90.1799545 -58.1948891 -86.1810837
-166.0525055 -57.9161148 -68.7778854
-90.3204269 -56.9206696 -87.7068481
-91.4705811 -56.7363052 -84.7700119
-92.5990295 -56.5669975 -82.2666626
-166.2204132 -56.6226044 -69.8655624
-91.6025848 -55.4574661 -86.3058624
-92.7319641 -55.2871857 -83.6634293
-166.4003906 -55.3351288 -71.0613403
-91.7454910 -54.1789742 -88.0642776
-92.8964157 -54.0199509 -85.1660309
-163.4206238 -53.7891388 -69.2854462
-164.9861450 -53.9146690 -70.7246399
-166.6492615 -54.0372009 -72.4031982
-93.0612411 -52.7519951 -86.8982315
-163.6056213 -52.5058861 -70.5486908
-165.2161865 -52.6236610 -72.0955353
-93.2014542 -51.4632339 -88.9464111
-94.3385925 -51.3076591 -86.0833511
-95.4735184 -51.1603355 -83.6574326
-160.6674652 -50.9991684 -69.2134018
-162.2193451 -51.1057510 -70.4895630
-163.8370056 -51.2207756 -71.9751511
-94.5385513 -50.0536423 -88.1069107
-95.6624298 -49.9043312 -85.4480896
-160.8895874 -49.7167015 -70.6022415
-162.4490814 -49.8265419 -71.9557190
-164.0900116 -49.9409943 -73.5374680
-95.8538513 -48.6528130 -87.5184174
-96.9873199 -48.5102463 -85.0167618
-98.1483231 -48.3684425 -82.8030853
-158.0240784 -48.2461052 -69.6807709
-159.5453186 -48.3398972 -70.8108749
-161.1198120 -48.4394417 -72.1184692
-162.7032776 -48.5527916 -73.5812836
-96.0439835 -47.3754883 -89.9704208
-97.1901550 -47.2521973 -87.1791687
-98.3581696 -47.1246643 -84.6820831
-158.2411346 -46.9696960 -71.1629639
-159.7824402 -47.0657196 -72.3811340
-161.3761139 -47.1663208 -73.7921219
-98.5603027 -45.8635216 -86.8928070
-99.7147064 -45.7462006 -84.5961151
-100.8814163 -45.6268806 -82.5677261
-158.5005646 -45.6934013 -72.8306274
-160.0601501 -45.7904129 -74.1467514
-99.9228363 -44.4751091 -86.9201355
-101.1038895 -44.3786812 -84.6527557
-158.7894135 -44.4216423 -74.7017822
-101.3532639 -43.1415138 -87.0780029
-102.4831085 -43.0197067 -84.9715881
-103.6706238 -42.9177589 -83.0480118
-155.9548950 -42.9770660 -74.1156006
-157.4974365 -43.0731773 -75.3349228
-159.1126556 -43.1641388 -76.7955780
-101.6008987 -41.8677979 -89.9084320
-102.7218094 -41.7532654 -87.4849930
-103.9203949 -41.6695747 -85.3534164
-156.2742157 -41.7168999 -76.2015762
-157.8416138 -41.8106155 -77.5567474
-104.1502380 -40.3896790 -88.0703888
-105.3550262 -40.3429298 -85.9992599
-106.5549011 -40.2480469 -84.1350479
-153.5087891 -40.2941132 -76.0448151
-155.0654144 -40.3684540 -77.2447968
-156.6313477 -40.4543648 -78.5608749
-105.6403198 -39.0732956 -88.9427109
-106.8269653 -39.0016174 -86.8468628
-153.8544312 -39.0473480 -78.4280548
-107.1329803 -37.7322693 -90.0657349
-108.3077240 -37.6964264 -87.9833603
-109.4839783 -37.6135101 -86.1710205
-110.7107849 -37.5309906 -84.5197601
-111.9179840 -37.4496841 -83.1531143
-148.1371307 -37.5132675 -76.8447876
-149.6612854 -37.5661201 -77.7304688
-151.1475220 -37.6485519 -78.7086411
-152.7024994 -37.7491493 -79.9321213
-154.2642822 -37.8157845 -81.2315598
-108.6644135 -36.4416046 -91.6617584
-109.8429184 -36.3992004 -89.4240723
-111.0370178 -36.3127785 -87.5173645
-112.2298508 -36.2368546 -85.9232025
-148.5056915 -36.2615852 -79.4053497
-150.0453491 -36.3297882 -80.4321136
-112.6025238 -35.0270271 -89.2822113
-113.7942123 -34.9530792 -87.6301804
-115.0002518 -34.8974457 -86.1466599
-116.2446823 -34.8280945 -84.8831253
-117.4947510 -34.7838593 -83.7367401
-118.7565002 -34.7357826 -82.7567291
-120.0124969 -34.7006264 -81.8817444
-143.0109863 -34.8076591 -79.2888336
-144.4713440 -34.8502960 -79.9002304
-145.9432983 -34.9082298 -80.5974121
-147.4489441 -34.9634018 -81.4546585
-148.9430847 -35.0370560 -82.4587097
-150.5104523 -35.0732384 -83.6774445
-115.3875275 -33.6379318 -89.7528076
-116.6271591 -33.6102142 -88.2385788
-117.8582458 -33.5680389 -86.9155350
-119.1048737 -33.5163956 -85.7855759
-120.3529282 -33.4824295 -84.7545700
-143.4143677 -33.5691872 -82.2658615
-144.8824005 -33.6307945 -83.0139618
-119.5156326 -32.2572517 -89.5105972
-120.7666702 -32.2554779 -88.3190460
-122.0258560 -32.2294083 -87.2553635
-123.3053284 -32.1789017 -86.4279480
-124.5806503 -32.1743736 -85.6541290
-125.9012070 -32.1420555 -85.0678024
-127.1961365 -32.1326332 -84.5000381
-128.5219574 -32.1252518 -84.0354614
-129.8657532 -32.1116486 -83.7348785
-131.2020111 -32.1159439 -83.4767838
-132.5429688 -32.1272621 -83.2743683
-133.9192657 -32.1238861 -83.2673569
-135.3187561 -32.1402054 -83.3316956
-136.6891022 -32.1702232 -83.4346695
-138.1152039 -32.1886826 -83.6948547
-139.5272827 -32.2197151 -84.0230865
-140.9813232 -32.2456627 -84.5094528
-142.4201050 -32.3121338 -85.1055069
-143.9178162 -32.3487587 -85.9288635
-145.4193268 -32.4199219 -86.8679352
-126.3563843 -30.9453278 -88.9027481
-127.6505814 -30.9364185 -88.2747955
-128.9833069 -30.9188519 -87.7673721
-130.3166351 -30.9205494 -87.3963089
-131.6539612 -30.9188328 -87.1547089
-133.0177917 -30.9231529 -86.9801331
-134.3898315 -30.9426422 -86.9377594
-135.7966003 -30.9479218 -87.0649414
-137.1847076 -30.9664421 -87.2654800
-138.6189117 -31.0087624 -87.6069412
-132.2732544 -29.6926956 -92.1578445
-133.6524811 -29.7018185 -92.0405731
-134.9981232 -29.7081642 -91.9996109
101.3110580 -186.4300079 0.1363102
102.9943466 -185.3457642 1.8421541
102.4064407 -185.3191071 2.0040710
101.7276917 -185.2366638 2.2300215
101.0809097 -185.1953583 2.3860188
91.6807938 -185.8368988 1.1493032
91.0802612 -185.9509735 0.8184013
90.5087967 -186.1148987 0.3133255
89.9633942 -186.2799225 -0.3296685
105.5308533 -184.4580688 2.6993337
104.8402100 -184.4107056 2.9995260
104.2297440 -184.3061981 3.3089638
103.5172729 -184.2260742 3.6264679
109.4072266 -183.9002991 1.9320823
108.7028122 -183.7839813 2.4996822
108.0062332 -183.6620178 3.0056207
107.3241425 -183.5611877 3.4276965
105.3430023 -183.3717194 4.4593005
104.6648788 -183.3284454 4.7288375
104.0013580 -183.2754517 4.9983997
103.3563690 -183.2452393 5.2162256
87.7159805 -184.3949432 2.7473848
87.1348419 -184.5304871 2.3281209
112.4728317 -182.3632202 2.8433518
111.8007584 -182.2377167 3.4418857
111.0799408 -182.0891571 4.0729761
110.3738403 -181.9703064 4.6121397
109.6731491 -181.8557129 5.0958471
83.8692474 -183.1780090 3.1544104
83.2819366 -183.3534851 2.5958304
113.6712494 -181.5991821 3.3068569
114.1772766 -180.7164764 4.2905035
113.4435425 -180.5476990 4.9684873
81.2553635 -181.8718567 3.9458339
116.2217636 -180.2110748 3.6848452
79.9866943 -181.2663879 4.1196542
117.4648132 -179.5508728 3.7064369
116.7206955 -179.3325348 4.5442934
115.9911270 -179.1695709 5.2830029
79.8968277 -180.3291931 5.3565903
79.2890244 -180.5024567 4.7489634
78.7031021 -180.6709900 4.1193242
78.1268539 -180.8467102 3.4504812
77.5517502 -181.0472565 2.7120228
77.4526596 -180.0794220 4.0770340
77.3723450 -179.1586914 5.3271513
76.7687759 -179.3625946 4.6510468
76.1678391 -179.5847931 3.9177544
119.4303970 -175.5468903 7.5032196
73.5744095 -177.6835938 4.5114274
123.0629120 -175.5684814 4.2565689
122.3289032 -175.3596802 5.1921034
121.5843506 -175.1327057 6.1504169
120.8725891 -174.9596100 6.9794898
120.1124191 -174.8189545 7.7943163
119.3277435 -174.6732483 8.5498419
73.5118256 -176.7892609 5.5891700
72.9340439 -176.9701538 4.8911834
72.3398438 -177.2025757 4.0810366
123.6174393 -174.8518066 4.6013026
124.1785889 -174.1283112 4.9480739
123.4603500 -173.9402008 5.8328314
69.8101807 -175.4477844 4.0080004
124.6224289 -172.5743561 6.3357959
69.7544937 -174.5771332 5.0044131
69.1629639 -174.8139038 4.1653061
68.5220642 -174.1895294 4.3001537
125.9209213 -171.3123932 6.4079566
68.4957123 -173.3134003 5.2696533
67.8690872 -173.5767212 4.3586454
67.2260132 -172.9733887 4.3442473
128.0181122 -170.3157501 5.2102046
127.2517624 -170.0898895 6.2604227
67.2026215 -172.1308136 5.2158670
66.6857986 -172.3130798 4.3389411
128.5518951 -169.6311188 5.3156824
67.1776352 -171.2998352 6.0789065
129.2339935 -169.0694122 5.1370621
128.4420929 -168.8144684 6.2491431
67.1153641 -170.5200348 6.8825641
128.3676147 -168.0430756 7.0824747
128.9586487 -167.4192963 7.0341096
128.1881256 -167.2053986 8.0345783
64.5854797 -169.0543060 5.7869892
64.5598450 -168.2605286 6.4897122
63.9573822 -168.4927216 5.6278315
130.9489746 -165.7171173 6.3639193
63.3525047 -167.9224396 5.4424586
62.7686348 -168.1406708 4.5538864
131.6574402 -165.0439758 6.1494980
130.8260651 -164.9235687 7.1414747
63.3308067 -167.1427765 6.1089487
62.1167526 -166.8306427 4.9051671
61.5394669 -167.0800934 3.8638465
132.2623444 -163.8614655 6.3049879
62.1020775 -166.0504456 5.5750055
132.1358795 -163.0825043 7.0141511
60.8763466 -165.7963867 4.2256355
132.8362427 -162.5448456 6.5465302
131.9834747 -162.2899780 7.7583089
60.9098740 -164.9790497 4.9541740
60.3489380 -165.2038879 3.9142144
133.4879456 -162.0076599 6.1105652
61.9958916 -163.8252869 7.3479967
134.1814117 -161.4981842 5.5951233
133.4266510 -161.2873230 6.6904745
61.9523506 -163.1082916 7.8674154
134.0800781 -160.7427216 6.2522984
133.3027039 -160.5291901 7.3741822
133.2525177 -159.8220520 7.9118824
59.5775986 -162.4817810 5.3271861
58.9690590 -162.7159882 4.3092442
58.3312798 -162.2421417 3.8654237
58.3275375 -161.4856110 4.4320712
136.1254883 -158.5253906 4.9736691
136.0219421 -157.7889252 5.5438728
57.0589600 -159.8020782 3.8926878
57.0353775 -159.0863953 4.3405724
137.4948273 -156.1769409 4.3717003
137.4205780 -155.4620667 4.8861604
56.9534683 -156.9927521 5.5503545
56.9753304 -156.2825928 5.9378867
56.3593254 -156.5137482 4.9291987
55.7584457 -156.7438354 3.9136875
55.7219734 -156.0553589 4.2486510
55.7101517 -153.3094788 5.5674524
139.4454956 -150.7157745 3.9325941
138.5166473 -150.4306183 5.4291534
55.6955719 -152.6438446 5.7997270
139.3653564 -150.0305328 4.3227940
138.4874725 -149.7734070 5.7032080
55.6850586 -151.9733124 6.0777035
138.4392853 -149.1093903 5.9983263
55.6732101 -151.3086548 6.3592763
55.0815201 -151.5090485 5.4369102
138.4040375 -148.4536591 6.2439189
138.3579254 -147.8023987 6.4701395
54.4647980 -150.3970795 4.9219046
53.8462296 -150.6168060 3.9112563
103.7668839 -142.7323456 28.6266613
101.2680054 -142.7545013 28.8984470
100.6327057 -142.7519073 28.9471741
53.2386856 -148.8651581 3.4375200
52.6290627 -149.0942688 2.3452799
140.7390442 -145.9421539 3.1694365
139.8613892 -145.6824646 4.6047354
103.7510910 -142.1300964 28.6663055
100.6510773 -142.1636353 28.9728985
53.2549515 -148.2044983 3.6385577
103.7406845 -141.5304718 28.6902790
100.6371002 -141.5663452 28.9949341
100.0072861 -141.5738220 29.0353260
99.3717575 -141.5789490 29.0686684
98.7608643 -141.5947723 29.0879345
98.1670456 -141.6094360 29.0993023
90.1645584 -141.8975525 28.7034626
89.5795517 -141.9214020 28.6316662
88.9611740 -141.9536591 28.5462990
88.3459396 -141.9915009 28.4521446
87.7347260 -142.0227661 28.3445778
87.1360855 -142.0578156 28.2237988
86.5328217 -142.1031799 28.0926418
53.2094383 -147.5703583 3.7473152
98.1512527 -141.0052338 29.1103210
87.7252045 -141.4308624 28.3701839
53.2071114 -146.9213562 3.9113877
98.1492233 -140.4129486 29.1118069
97.5249786 -140.4245300 29.1134033
96.9023895 -140.4718170 29.1100426
94.4587326 -140.5904388 29.0756092
91.3783951 -140.6396484 28.8389130
90.7690506 -140.6670532 28.7742043
84.0989761 -141.0749054 27.5710373
83.4875717 -141.1275635 27.4059296
53.2030945 -146.2743073 4.0506349
98.1392975 -139.8147736 29.0945683
97.5647354 -139.8928070 29.0821972
53.2296677 -145.6236572 4.2092967
52.6039429 -145.8494263 3.1213534
51.9925995 -146.0729065 2.0328205
107.4982224 -139.1860809 27.9496822
93.2026749 -139.3785858 28.9902534
81.0535812 -140.1302490 26.6697617
52.0076447 -145.4290771 2.1497419
103.7386475 -138.5736389 28.5732079
93.2061157 -138.7825012 28.9789982
81.0582504 -139.5323181 26.6644344
52.0150833 -144.7868958 2.2571478
139.7438812 -141.2989349 5.2966681
104.9907990 -137.9923553 28.3661175
104.3512115 -137.9890289 28.4662838
103.7419281 -137.9892120 28.5597458
103.1376953 -137.9866486 28.6333809
102.7123184 -138.1717377 28.0283890
93.2042999 -138.1912994 28.9614449
91.3779907 -138.2699280 28.8156090
81.1057129 -138.9230499 26.6650848
52.0121994 -144.1526947 2.3443832
139.7362671 -140.6850433 5.3287354
107.5085831 -137.4227295 27.8719482
103.0629730 -137.4219513 28.6494007
102.4586945 -137.3410492 28.7364559
93.1924362 -137.6048279 28.9385471
91.3607864 -137.6715088 28.7934113
88.3128433 -137.8341064 28.3578930
87.7365112 -137.8636475 28.2597637
87.1237488 -137.8936005 28.1505203
81.6548080 -138.2921143 26.8175278
81.0679779 -138.3413391 26.6290264
52.0076447 -143.5192261 2.4215696
139.7344666 -140.0772400 5.3318238
88.3146439 -137.2463379 28.3100567
139.6915131 -139.4586182 5.3758774
88.3074951 -136.6631165 28.2646294
84.0852127 -136.9294586 27.3793583
83.4711761 -136.9753571 27.2163582
139.7038269 -138.8611298 5.3198199
108.7635803 -135.6832428 27.4113216
108.1280212 -135.6838379 27.5525417
107.4774399 -135.6882019 27.6924133
86.5358734 -136.1596222 27.9360809
85.9295273 -136.2033386 27.8013210
85.3054581 -136.2510986 27.6521587
84.6988373 -136.2938538 27.4996300
84.0872879 -136.3396149 27.3407421
83.4743500 -136.3836060 27.1794147
82.2470093 -136.4740143 26.8788033
139.7313385 -138.2713623 5.2147727
82.2613297 -135.8793030 26.8290558
110.0355988 -134.5429535 26.9531345
109.4168243 -134.5323181 27.1069660
110.0533600 -133.9626617 26.8717041
110.0637207 -133.3811188 26.7899742
80.4700470 -134.2854767 26.0999870
78.6178970 -134.4765320 25.4544353
110.0682449 -132.8027039 26.6962051
78.5979614 -133.8280792 25.3665981
113.9118347 -132.3418732 25.3745575
113.2666397 -132.3192291 25.5987091
110.0455322 -132.2248077 26.5961361
109.4718246 -132.2167053 26.7508469
51.9524193 -137.9669037 2.3539910
113.9601135 -131.8213959 25.2430210
113.2880325 -131.8074493 25.4760189
110.0704880 -131.6512909 26.4732761
109.4684448 -131.6414642 26.6217747
109.0185165 -131.7419128 26.3053417
51.9633408 -137.3619690 2.2745214
115.2343445 -131.2420197 24.6542263
114.5884933 -131.2368469 24.8928719
114.1084824 -131.2262726 24.6726036
111.9904861 -131.1219940 25.8094463
108.8967590 -131.0341339 26.5368156
108.3349380 -131.0570831 26.4369888
51.9884415 -136.7545776 2.2091005
115.2399063 -130.6679688 24.5267506
114.6454926 -130.6549225 24.7439213
114.1701431 -130.7188873 24.5058079
108.8137970 -130.4782410 26.5135479
108.1795120 -130.4421387 26.6485081
107.5463715 -130.4236450 26.7934666
79.8593140 -131.4111938 25.3736343
51.9810715 -136.1590424 2.0772548
115.2526627 -130.0941315 24.3952103
114.6407852 -130.0757904 24.6191807
114.1681366 -130.1422424 24.4490910
110.7450638 -129.9416199 25.9306564
110.1178284 -129.9263458 26.1164875
109.4756088 -129.9149475 26.3012772
108.8224716 -129.8979340 26.4648914
108.1809692 -129.8871307 26.6148186
107.5683365 -129.8791809 26.7560673
51.9757767 -135.5644836 1.9379500
115.2407455 -129.5203094 24.2713013
114.5946274 -129.4985046 24.5087757
114.0780182 -129.4669189 24.5494499
111.4130859 -129.3807220 25.6214638
110.7818832 -129.3642731 25.8065681
51.9783173 -134.9693298 1.8010652
139.8865356 -131.8487549 3.5924423
113.9899979 -128.9098816 24.5856457
113.3394699 -128.8178711 24.8078499
51.9943848 -134.3730927 1.6723993
139.9225464 -131.2818604 3.3361282
113.9846878 -128.3241119 24.4653397
113.3238983 -128.3007050 24.7081738
107.5884857 -128.1578979 26.3582191
82.9253998 -128.8669128 25.8003101
82.3113861 -128.9102936 25.6288013
51.9972420 -133.7838898 1.4992768
51.4168205 -133.9710999 0.4780866
139.9607697 -130.7196503 3.0533187
105.0721130 -127.5631332 26.7327366
83.5389175 -128.2539215 25.8107281
139.9669952 -130.1593781 2.7885811
105.0737076 -126.9999619 26.5534077
84.1453857 -127.6358032 25.8184490
83.5342789 -127.6808167 25.6453991
140.0374603 -129.6120148 2.3793762
105.7470398 -126.4388962 26.2421227
102.6470032 -126.4321365 26.7281475
140.9592590 -129.2797089 0.5449670
140.0645905 -129.0525970 2.0616422
102.5981064 -125.8667984 26.5641747
101.9755020 -125.8656464 26.6487370
96.3944168 -125.3731308 26.8315544
84.7260437 -125.8498306 25.4752102
107.6953201 -124.7506638 25.3070030
107.0710373 -124.7416458 25.4474907
106.4228210 -124.7395325 25.5902557
105.7738876 -124.7375641 25.7195930
100.1462631 -124.7478638 26.4506607
99.5224075 -124.7582321 26.4944916
98.9020309 -124.7691422 26.5333939
98.2767868 -124.7776718 26.5657864
96.4219666 -124.8083344 26.6275406
86.6037521 -125.2080841 25.6773968
85.9917984 -125.2068253 25.5580425
85.3676758 -125.2315292 25.4283352
84.7863464 -125.3131866 25.2847691
140.2614288 -127.4087372 0.8725897
96.4165497 -124.2488022 26.4224072
92.7456131 -124.3449326 26.3405342
89.6877136 -124.4971848 25.9478836
84.2014084 -124.7949982 24.9314404
81.7734756 -124.9549179 24.2844067
81.1501160 -125.0016861 24.0836258
53.2011032 -129.3371735 2.0142901
140.3209076 -126.8681030 0.4259825
96.4261017 -123.6807404 26.2081356
93.3426514 -123.7766418 26.1563740
92.7463913 -123.8043747 26.1186237
90.2852631 -123.9003906 25.8219929
89.6860733 -123.9276505 25.7468681
84.2082520 -124.2278061 24.7374706
81.1878891 -124.4382782 23.8965683
53.2129974 -128.7592773 1.7664574
96.4353333 -123.1360092 25.9963417
93.3682632 -123.2140427 25.9280167
92.7576218 -123.2334900 25.8863564
84.2280350 -123.6592255 24.5394402
53.2148323 -128.1836395 1.4835619
96.4855194 -122.5544510 25.7644444
95.8591003 -122.5816727 25.7698193
95.2491684 -122.5910263 25.7657242
94.6373444 -122.6017990 25.7559948
94.0108261 -122.6300659 25.7390289
93.3867569 -122.6575012 25.7057018
92.7587051 -122.6583023 25.6548634
92.1535263 -122.6845779 25.6085377
91.5437393 -122.7164154 25.5577660
90.9352722 -122.7510910 25.4973660
84.2398834 -123.0951843 24.3279324
83.6309204 -123.1354218 24.1728210
83.0109634 -123.1721878 24.0007954
82.4106064 -123.2157745 23.8326263
53.2153740 -127.6114120 1.1877680
139.6390839 -125.0210571 0.5748994
138.7760010 -124.8327332 1.9210415
138.8733521 -124.2958527 1.4207584
138.9405670 -123.7566071 0.9369789
53.2742729 -125.9067078 0.2525309
138.9990082 -123.2201843 0.4439609
53.2824898 -125.3501282 -0.1432651
137.4619751 -121.7970352 2.0022726
91.6424561 -119.3558655 24.1567879
91.0252075 -119.3715057 24.1113777
90.4191666 -119.3922501 24.0611725
89.8341217 -119.4252777 23.9957733
138.3802795 -121.4410706 0.1714198
137.5166626 -121.2616348 1.5154516
137.6341095 -120.7229156 0.9403404
53.3448486 -123.1221466 -1.7846656
53.3322525 -122.5706558 -2.2823880
136.2225952 -118.8444748 1.5211319
55.7465477 -120.8100815 0.8584343
137.1267090 -118.4938965 -0.3454893
136.2555389 -118.3323364 0.9504897
137.2375793 -117.9855652 -1.0822628
136.3364716 -117.8148727 0.3174560
136.5051727 -117.2957611 -0.4646755
55.8143883 -119.1734085 -0.5802035
136.5850220 -116.7800522 -1.1444685
55.9388237 -118.1086655 -1.5948983
55.3749123 -118.2656403 -2.6471727
135.9934692 -115.6057587 -1.4149508
135.1545563 -115.4643402 -0.1656643
55.9205933 -117.5552902 -2.2028501
135.2483978 -114.9668121 -0.9415838
55.8990479 -117.0082932 -2.8443623
136.2160034 -114.6356201 -3.1605868
135.3619995 -114.4645615 -1.7581044
135.5232544 -113.9586792 -2.6593804
55.9592667 -115.9441757 -4.0176492
57.2577972 -114.0457687 -3.9056518
59.6303635 -112.4075470 -1.5380864
59.0468140 -112.5445709 -2.4250009
59.6828117 -111.8833771 -2.1825831
131.4739227 -109.5876770 -1.5144629
59.7131729 -111.3605194 -2.9056594
59.1100922 -111.4968033 -3.8444459
-131.5823059 -127.1469650 -83.4320602
-135.8334503 -127.1930313 -83.7519531
131.5929413 -109.0932770 -2.4493711
59.7458458 -110.8507843 -3.6579509
-122.7858124 -126.4624557 -84.8749084
-123.4052048 -126.3787766 -84.2891235
-124.0104675 -126.2757950 -83.7578354
-124.6486511 -126.1700745 -83.3172684
-127.9199982 -126.1044312 -81.6234436
-128.5653229 -126.0824890 -81.3802261
-129.2036438 -126.0102539 -81.1758423
-129.9152832 -125.9887238 -81.0330276
-130.5765991 -125.9841919 -80.9965363
-131.2541809 -125.9649048 -80.8815079
-134.7122803 -126.0128708 -80.9323044
-135.4126282 -126.0934525 -81.0546875
-136.1069489 -126.1761093 -81.1594391
-136.8211212 -126.2503204 -81.3692169
-137.5630798 -126.3042068 -81.6413574
59.7920685 -110.3382187 -4.4500318
-140.1357117 -125.5064850 -80.4108658
-119.7168884 -124.6450653 -82.3321152
-120.3271790 -124.5352097 -81.7598801
-139.8497620 -124.4391327 -78.3051910
-140.5905304 -124.5421600 -78.6227417
-141.3395538 -124.6339493 -78.9843826
130.3892365 -107.3949738 -3.2218282
61.0415878 -109.0463028 -4.3127542
-118.2882767 -123.7658310 -81.4715347
-118.8597488 -123.6766357 -80.9059753
-145.5697784 -124.1385269 -79.8972244
