109.9041290 -127.3560562 35.9026794
108.6527252 -127.3378601 36.1788101
107.4208069 -127.3360672 36.3979378
106.1699677 -127.3321381 36.5868912
104.9317932 -127.3310013 36.7497711
103.6786423 -127.3430252 36.8773994
102.4576340 -127.3573837 36.9697342
101.2326050 -127.3796387 37.0434875
100.0061493 -127.3930206 37.0812149
98.7747955 -127.4364471 37.0732880
97.5472412 -127.4711914 37.0462799
96.3484497 -127.5068817 36.9992218
95.1325836 -127.5483398 36.9124947
93.9163589 -127.6018753 36.7911758
87.8795242 -127.9365082 35.7658920
84.3143311 -128.1853333 34.7913551
59.6351280 -131.8471375 17.0677032
58.4991188 -132.1541138 15.4283810
57.3385429 -132.4983215 13.6249409
139.5910034 -128.7544098 16.4504528
138.0772552 -128.4476013 18.4761734
109.8820190 -126.1599503 36.0286026
108.6248932 -126.1394119 36.3047104
107.3965454 -126.1364899 36.5160408
106.1387939 -126.1312256 36.7077293
104.9098816 -126.1399918 36.8689690
103.6557465 -126.1479340 36.9994049
99.9951096 -126.2146301 37.1742325
98.7445297 -126.2382813 37.1753998
97.5313110 -126.2716370 37.1541061
93.8893204 -126.4116135 36.8942947
87.8651886 -126.7316818 35.8881226
84.2789612 -126.9909897 34.9019394
59.6118622 -130.5757599 17.4152565
58.4538460 -130.8859558 15.7650547
57.3190994 -131.2131195 14.0092859
141.1251526 -127.8548508 14.4515953
139.5177612 -127.4968414 16.7915192
138.0350342 -127.2074738 18.7449627
112.3873367 -125.0076981 35.4878998
111.1381760 -124.9878998 35.8136139
107.3775482 -124.9517517 36.5907898
106.1183624 -124.9471588 36.7795181
104.9000626 -124.9503250 36.9418488
103.6375504 -124.9599228 37.0775719
99.9659729 -125.0149536 37.2523575
98.7301941 -125.0510559 37.2512360
93.8981628 -125.2026596 36.9918594
92.6598663 -125.2678986 36.8414345
91.4585114 -125.3260651 36.6745033
90.2581100 -125.3841095 36.4795151
89.0482178 -125.4639587 36.2310867
87.8549728 -125.5301437 35.9661827
86.6525574 -125.6128387 35.6877365
84.2607574 -125.7961273 35.0181694
83.0850983 -125.8761597 34.6286354
81.8868332 -125.9812469 34.1970749
57.2947655 -129.9323578 14.3650618
141.0702362 -126.6054916 14.7335606
139.4666748 -126.2551193 17.0511627
138.0017700 -125.9774933 18.9501114
112.3756104 -123.8243332 35.5464783
111.1140213 -123.8010406 35.8752899
98.7216949 -123.8650436 37.3018990
93.8671188 -124.0268173 37.0549088
92.6362152 -124.0842361 36.8997803
91.4404602 -124.1370850 36.7328148
90.2404633 -124.2051926 36.5161667
89.0371857 -124.2746048 36.2760696
87.8321609 -124.3454742 36.0345917
83.0613480 -124.6892395 34.6902542
81.8623962 -124.7870789 34.2579803
57.2569962 -128.6735077 14.6310635
56.1016693 -129.0184631 12.7500153
141.0292816 -125.3632202 14.9747248
112.3658676 -122.6440430 35.5706367
111.0863342 -122.6163025 35.8967743
109.8505020 -122.6068268 36.1751976
108.5992508 -122.5968933 36.4006615
99.9379196 -122.6563873 37.3167419
98.7053604 -122.6830292 37.3338928
83.0516357 -123.4972763 34.7317810
81.8492584 -123.5958405 34.2991486
57.2433586 -127.4155426 14.8747520
56.0905495 -127.7492981 13.0392199
141.0086517 -124.1361694 15.1460333
112.3581238 -121.4692841 35.5632782
111.0936966 -121.4459457 35.8852997
109.8309784 -121.4243469 36.1779709
86.6240692 -122.0564346 35.7548676
83.0447845 -122.3102875 34.7509613
81.8463821 -122.4103470 34.3103905
57.2313766 -126.1704483 15.0485878
56.0569878 -126.5024414 13.2222328
141.0006866 -122.9214020 15.2345486
109.8237381 -120.2557983 36.1501846
86.6142502 -120.8721924 35.8045731
81.8374786 -121.2301178 34.2915726
80.6658554 -121.3277664 33.8618546
79.4693985 -121.4334946 33.3886795
78.2947845 -121.5430984 32.8860245
77.1076736 -121.6609955 32.3437958
140.9808655 -121.7178421 15.2401161
78.2940826 -120.3597488 32.8632355
77.0992279 -120.4771042 32.3124352
142.5789948 -120.8880615 12.6852341
140.9583588 -120.5241776 15.1921024
112.3393478 -117.9669952 35.3837013
111.0890961 -117.9431686 35.7128868
109.8269653 -117.9278870 35.9997978
78.2816925 -119.1859512 32.7884445
77.0959091 -119.3005066 32.2426567
142.5538483 -119.6916275 12.6335907
140.9541321 -119.3369370 15.1050949
112.3425369 -116.8063431 35.2764664
111.0739288 -116.7834320 35.6035881
81.8367767 -117.7078552 34.0939674
78.2807922 -118.0150299 32.6874199
77.0955963 -118.1286163 32.1439934
140.9939423 -118.1625595 14.9307423
112.3565063 -115.6533051 35.1228371
111.1152802 -115.6324005 35.4412575
81.8234253 -116.5461426 33.9558144
78.2746201 -116.8478394 32.5620956
77.0903854 -116.9600677 32.0208397
141.0089417 -116.9948730 14.7118988
112.3650208 -114.5033264 34.9451065
111.1081772 -114.4809036 35.2749596
109.8388290 -114.4602203 35.5952950
78.2969437 -115.6826782 32.4174347
77.0950928 -115.7951050 31.8720474
141.0144806 -115.8369751 14.4251204
112.3842850 -113.3554840 34.7463837
111.1050339 -113.3329163 35.0873833
109.8577042 -113.3140030 35.3876114
79.4660950 -114.4203644 32.7226791
78.2910004 -114.5252304 32.2237778
77.1045074 -114.6350708 31.6887932
57.1832047 -117.6837997 14.8823099
56.0262184 -117.9785156 13.1439447
54.8572769 -118.2961197 11.2521410
142.7228394 -115.0373001 11.5214596
141.0592651 -114.6903992 14.0522995
112.3941498 -112.2115860 34.5247803
111.1246719 -112.1889572 34.8640976
80.6800079 -113.1652374 32.9994812
79.4839401 -113.2652435 32.5172691
78.2975769 -113.3689270 32.0140686
77.1066895 -113.4777222 31.4812279
57.1895409 -116.4989929 14.6752710
56.0339355 -116.7932587 12.9213066
54.8722000 -117.1097260 11.0174198
142.7794342 -113.8947220 11.0905113
141.1016846 -113.5428238 13.6800890
139.5247345 -113.2452850 15.8859310
138.0449829 -112.9931946 17.7614098
112.4153595 -111.0718689 34.2668571
111.1559143 -111.0491180 34.6025620
81.8557053 -111.9226761 33.1896286
80.6896362 -112.0140076 32.7643623
79.5061340 -112.1121674 32.2975883
57.2026253 -115.3191605 14.4296618
56.0353165 -115.6142731 12.6520863
139.5727692 -112.1107559 15.4408035
138.0888062 -111.8575134 17.3433075
112.4377136 -109.9345474 33.9850197
111.1719742 -109.9142151 34.3196144
109.9004364 -109.8990707 34.6128693
81.8852692 -110.7752533 32.9354515
80.6985626 -110.8657227 32.5051422
79.5106125 -110.9640045 32.0377312
57.2128754 -114.1475754 14.1251020
56.0607376 -114.4368744 12.3682737
139.6359558 -110.9849091 14.9249249
138.1338501 -110.7253647 16.8854694
109.9385910 -108.7648926 34.3030701
108.6832123 -108.7544479 34.5491142
104.9514313 -108.7431030 35.1773262
83.0908356 -109.5472107 33.0333328
81.9044647 -109.6352844 32.6405487
57.2131271 -112.9847336 13.7522316
56.0628052 -113.2731934 11.9852533
141.3291168 -110.1738739 11.9954367
139.6985779 -109.8641205 14.3731880
138.2115173 -109.6045303 16.3396587
109.9596405 -107.6358948 33.9624863
108.7082520 -107.6271515 34.2112045
107.4839706 -107.6170197 34.4461327
106.2154694 -107.6163025 34.6654587
104.9725800 -107.6147385 34.8321991
93.9405518 -107.8365250 34.9795189
89.1110077 -108.0459595 34.2964020
87.9049454 -108.1078262 34.0549240
85.4975739 -108.2537155 33.4113159
84.3014374 -108.3307648 33.0721779
83.1041260 -108.4088287 32.7062569
81.9042511 -108.4936523 32.3090591
57.2355080 -111.8236771 13.3673162
56.0917358 -112.1100388 11.5941467
54.8930511 -112.4220200 9.6065874
141.4295349 -109.0550690 11.3857107
139.7890320 -108.7522888 13.7342033
138.2775726 -108.4906158 15.7437963
107.5011520 -106.4928818 34.0818024
106.2467041 -106.4873886 34.2953262
105.0108490 -106.4918976 34.4585190
103.7464447 -106.4995956 34.5984917
100.0645523 -106.5394211 34.8714371
89.1178894 -106.9132996 33.9304428
87.9240799 -106.9789276 33.6805840
86.7085876 -107.0474548 33.3844299
85.5167389 -107.1174469 33.0725861
84.3286743 -107.1927032 32.7390022
57.2563286 -110.6702347 12.9188023
56.1065292 -110.9551544 11.1287317
139.8603821 -107.6516571 13.0288391
138.3518219 -107.3851166 15.0836840
107.5338135 -105.3647461 33.7001877
106.2631531 -105.3658752 33.9210281
100.0993347 -105.4200897 34.4603882
92.7679596 -105.6280060 34.1183929
91.5622559 -105.6788712 33.9503975
90.3450623 -105.7291718 33.7679558
89.1645737 -105.7865143 33.5681190
87.9443741 -105.8470688 33.3095093
86.7432327 -105.9142914 33.0255508
85.5602264 -105.9861450 32.7193298
84.3616714 -106.0608749 32.3760147
57.2684135 -109.5245361 12.3979282
56.1288261 -109.8086472 10.6021252
139.9674530 -106.5601959 12.2105169
138.4423218 -106.2849884 14.3523998
107.5611954 -104.2471313 33.2969398
106.3150482 -104.2402954 33.5039864
102.5898514 -104.2607956 33.9187126
101.3593140 -104.2769623 33.9796906
100.1286545 -104.2974701 34.0306053
95.2378845 -104.4135284 33.9669952
94.0333328 -104.4581909 33.8581314
92.7853470 -104.4972076 33.7011070
91.5963593 -104.5487137 33.5463104
57.3058472 -108.3814850 11.8702135
138.5425720 -105.1952362 13.5611820
107.6121597 -103.1280289 32.8353806
106.3541718 -103.1273804 33.0392532
105.1247940 -103.1247101 33.2087784
103.8582611 -103.1315460 33.3710175
102.6211548 -103.1496506 33.4793701
101.3894119 -103.1578140 33.5393143
100.1562271 -103.1822662 33.5996590
98.9336929 -103.1974792 33.6357422
97.7031403 -103.2274628 33.6346893
96.4840164 -103.2548065 33.5902748
95.2575989 -103.2940140 33.5251389
94.0623779 -103.3347702 33.4247665
92.8274460 -103.3801193 33.2854691
91.6344528 -103.4267731 33.1337471
57.3200035 -107.2454758 11.2466660
138.6663208 -104.1115799 12.6685972
57.3636208 -106.1186523 10.5879822
56.2057800 -106.4126129 8.6448441
138.7923584 -103.0382233 11.6756124
57.3932724 -104.9978027 9.8476505
138.9323425 -101.9760513 10.6011782
137.3577576 -101.7127380 12.8008966
135.8590698 -101.4746857 14.7330379
83.3219376 -100.5250549 29.6576538
82.1112213 -100.6077271 29.2316837
80.9206161 -100.6901398 28.7877560
79.7261276 -100.7837906 28.3223953
78.5424194 -100.8788910 27.8058834
77.3516846 -100.9774933 27.2276230
57.4356537 -103.8828735 9.0626879
137.4858398 -100.6465149 11.7665539
135.9577637 -100.4053421 13.7817936
83.3580322 -99.4104309 29.0953388
82.1438522 -99.4881210 28.6687565
80.9806900 -99.5820694 28.2281837
78.5710068 -99.7758026 27.2149410
77.3968201 -99.8679276 26.6413460
57.4731140 -102.7751617 8.1880026
137.6627808 -99.5882111 10.5801134
136.0881042 -99.3468628 12.6927061
83.4034805 -98.2998047 28.5022678
78.6135864 -98.6553040 26.5813217
77.4263306 -98.7502136 26.0043564
59.8228836 -101.1389771 10.9054489
58.6481171 -101.3970261 9.1135387
57.5062561 -101.6722794 7.2220912
136.2628784 -98.2978287 11.4658728
83.4465866 -97.1917267 27.8607330
77.4695282 -97.6384354 25.3490715
59.8694992 -100.0377426 9.9675703
58.7060089 -100.3029785 8.1437283
136.4420776 -97.2535553 10.1529560
134.8714294 -97.0202866 12.2345448
133.3814087 -96.8096237 14.0339546
83.4827271 -96.0801239 27.1659832
82.2853775 -96.1713181 26.7459412
81.1155930 -96.2533569 26.2869415
78.7232513 -96.4400940 25.2527390
77.5136414 -96.5307312 24.6567879
62.2396545 -98.4793396 12.1739464
61.0540657 -98.7049179 10.5958881
59.9153748 -98.9509735 8.9379864
58.7425461 -99.2117233 7.0593147
135.0359802 -95.9776993 10.9453001
133.5352631 -95.7651672 12.8247328
83.5451584 -94.9855881 26.4625893
82.3319092 -95.0586319 26.0167961
81.1501770 -95.1471405 25.5625553
79.9470596 -95.2304611 25.0531502
78.7541351 -95.3267212 24.5094376
77.5683899 -95.4286575 23.9324970
62.2791748 -97.3872910 11.1692142
61.1102600 -97.6172256 9.5595770
59.9673805 -97.8649597 7.8402381
135.2285309 -94.9488068 9.4731932
133.6992493 -94.7261581 11.4667072
62.3436966 -96.3046494 10.1241283
61.1707382 -96.5398712 8.4462376
135.4730530 -93.9239578 7.8316784
133.8838654 -93.7061310 9.9908266
62.3967361 -95.2259445 8.9518557
61.2282829 -95.4647598 7.2178221
134.1313171 -92.6765594 8.3543224
132.5929565 -92.4771042 10.3485165
131.1014709 -92.2727203 12.1383753
64.7826233 -93.7222443 10.7975521
63.6031113 -93.9309692 9.2923594
62.4845505 -94.1568298 7.7393322
-124.7204208 -108.1752472 -75.1601791
-128.6566620 -108.0611725 -73.9597855
-130.0277710 -108.0471802 -73.8933411
-131.3956146 -108.1213455 -73.9344330
-132.7897949 -108.1870270 -74.1351242
132.7760315 -91.4699249 8.7697001
131.2774963 -91.2550201 10.6470222
64.8595276 -92.6545258 9.6046219
63.6842079 -92.8669205 8.0356750
62.5521202 -93.0992126 6.3774505
-117.8607025 -106.6489716 -75.0481339
-119.0975800 -106.5073013 -73.9129791
-120.3490601 -106.3916779 -72.9472656
-121.6146545 -106.3109131 -72.1302185
-122.8844681 -106.2535324 -71.4701309
-124.1908264 -106.2032242 -70.8846664
-125.4923553 -106.1989670 -70.4961624
-126.8321533 -106.1780701 -70.1490555
-128.1477203 -106.1740036 -69.9335251
-129.4873352 -106.1815720 -69.8146286
-130.8407135 -106.1881638 -69.7658234
-132.2063446 -106.2201614 -69.8488464
-133.6159973 -106.2884369 -70.0891800
-135.0050049 -106.3505859 -70.3782959
-136.4405518 -106.4761200 -70.8260727
-137.8843231 -106.5911255 -71.4159546
133.0688171 -90.4522247 6.8892093
131.4895325 -90.2520905 8.9649963
129.9772491 -90.0592346 10.8043137
128.5180817 -89.8872528 12.3384266
64.9209671 -91.5883865 8.2613153
63.7703514 -91.8105011 6.6538773
-113.7333603 -105.1772308 -74.8964844
-114.9351730 -105.0294800 -73.4292603
-116.1669006 -104.8570709 -72.2180176
-117.4076767 -104.7383499 -71.1503601
-118.6596985 -104.6610413 -70.2373123
-135.9811707 -104.6360550 -67.4145508
-137.3853607 -104.7154922 -67.8467712
-138.8303680 -104.8303528 -68.3723145
-140.2901917 -104.9715500 -69.0749817
-141.7754364 -105.0968170 -69.9448166
131.7136536 -89.2585297 7.1329126
130.2042542 -89.0445786 9.0710793
128.7143860 -88.8704681 10.7478943
65.0236969 -90.5403595 6.8613520
63.8560524 -90.7637177 5.1331339
-110.9416199 -103.6466446 -74.2726135
-112.1522598 -103.4587326 -72.6816788
-113.3457870 -103.3328247 -71.3472214
-114.5780258 -103.2121582 -70.1379700
-115.8090820 -103.1257782 -69.1312561
-117.0633774 -103.0365143 -68.2023163
-118.3219910 -102.9472351 -67.3672180
-135.6040039 -102.9454956 -64.6449280
-136.9968567 -103.0086746 -64.9983749
-138.4288635 -103.0864105 -65.4532623
-139.8405151 -103.1699371 -65.9877777
-141.2904205 -103.2689514 -66.6656647
-142.7840881 -103.4124374 -67.4790955
-144.2820435 -103.5899811 -68.4140778
130.4589539 -88.0316925 7.2801514
128.9278564 -87.8725510 9.0268803
127.4984970 -87.7071533 10.5557098
126.0520782 -87.5601196 12.0052271
67.4146271 -89.0859604 8.3513241
66.2600098 -89.2843399 6.8966465
65.1109085 -89.4993210 5.2742114
-108.2266693 -102.1939697 -74.1862030
-109.3985291 -102.0109558 -72.4539719
-110.5727921 -101.8690720 -71.0008774
-143.8321838 -101.8031616 -65.4601593
-145.3437042 -101.9600830 -66.4166260
-146.8591919 -102.1540680 -67.4854813
129.1720428 -86.8719025 7.0827618
127.7173462 -86.7125931 8.7582159
126.2574921 -86.5430832 10.3145475
67.5095062 -88.0421295 6.8116407
66.3610992 -88.2459641 5.2691984
-105.5477829 -100.8705750 -74.7729034
-106.7084198 -100.6398621 -72.8308563
-107.8843002 -100.4647369 -71.1322937
-109.0815353 -100.3238754 -69.6655350
-110.2874298 -100.2016220 -68.3862762
-143.5070496 -100.1698761 -63.0476494
-144.9724121 -100.2795105 -63.8479767
-146.4544525 -100.4198303 -64.7823029
-148.0090179 -100.6234207 -65.8919373
127.9905014 -85.7208252 6.7173948
126.4687500 -85.5599670 8.4667702
69.9358444 -86.6334915 7.9931569
68.7817459 -86.8149109 6.6344223
67.6230774 -87.0136414 5.1420851
-105.2310333 -99.1272736 -71.8004990
-146.1250000 -98.7866058 -62.4934235
-147.6251984 -98.9194794 -63.4384918
-149.1253357 -99.0806732 -64.4756470
126.7407074 -84.5823517 6.3508482
70.0488892 -85.6031799 6.3267965
68.8847198 -85.7868881 4.8593011
-101.4784622 -98.0687103 -75.0669937
-102.6313171 -97.8334122 -72.8900146
-103.7881775 -97.6344147 -71.0006561
-104.9720840 -97.4654312 -69.3275604
-145.8267059 -97.1872940 -60.4611969
-147.3184357 -97.3051147 -61.3071747
-148.7887726 -97.4311066 -62.2452469
-150.3131714 -97.5854721 -63.3536377
-151.8712463 -97.7877502 -64.6385422
-153.4612732 -98.0069656 -66.0871658
127.0544281 -83.5992050 4.0020103
125.5014191 -83.4532089 5.8887234
124.0353241 -83.2979507 7.4712968
72.4903259 -84.2386475 7.1878166
71.3205109 -84.3970947 5.8878870
70.1722107 -84.5809097 4.5078053
69.0135193 -84.7764587 2.9531794
-100.0779953 -96.5955963 -74.5262146
-101.2036972 -96.3764877 -72.3584747
-102.3746185 -96.1825714 -70.4402161
-151.5233765 -96.1408463 -62.4433098
-153.0700073 -96.3184586 -63.7155838
125.8477783 -82.4658432 3.4034452
124.3155518 -82.3294983 5.1979799
72.6188736 -83.2148972 5.3597212
71.4508209 -83.3818512 3.9816685
70.2933655 -83.5707474 2.4567955
69.1457214 -83.7849350 0.7332696
-98.6716690 -95.1892700 -74.3327866
-99.8240280 -94.9495239 -72.0244293
-100.9775391 -94.7443542 -70.0741730
-102.1624680 -94.5796432 -68.3707657
-151.2410126 -94.5663986 -60.5325661
-152.7599792 -94.7089310 -61.6941605
124.6501465 -81.3648987 2.5600972
123.1930084 -81.2393951 4.2002454
121.7608795 -81.0992279 5.7002373
120.3109665 -80.9675903 7.0892625
118.9062195 -80.8516922 8.2664061
75.0886536 -81.8913956 5.8752728
73.9176407 -82.0388031 4.6466384
72.7550659 -82.2072220 3.3169847
-97.3127670 -93.7675629 -74.1846771
-98.4334412 -93.5355148 -71.9102478
-99.6125488 -93.3442230 -69.9102783
-150.9947205 -93.0243683 -58.8683586
-152.5092926 -93.1609421 -59.9332008
-154.0333557 -93.3144379 -61.1087952
-155.6060791 -93.5144424 -62.4367294
122.0730591 -80.1523743 3.1080198
120.5749969 -80.0193863 4.7292547
119.1585846 -79.8908005 6.0327158
75.2342453 -80.8826294 3.7830062
74.0847931 -81.0508804 2.4911180
72.9193268 -81.2337112 1.0055145
-95.9623108 -92.3789215 -74.2899704
-97.0916290 -92.1444626 -71.9237976
-98.2420883 -91.9559784 -69.9206009
-99.4274368 -91.7794037 -68.1136017
-150.7681274 -91.4927063 -57.3740921
-152.2765350 -91.6281281 -58.3664703
-153.7924194 -91.7720337 -59.4733963
-155.3245239 -91.9296036 -60.7021751
-156.9266052 -92.1395111 -62.0926437
119.4460220 -78.9501190 3.4748361
118.0190506 -78.8304138 4.7849078
116.6714859 -78.7234726 5.8608541
77.7352600 -79.5936432 3.9148111
76.5714111 -79.7478333 2.7652206
75.3992615 -79.9084473 1.4468350
74.2477264 -80.0752640 0.0091585
-95.7562790 -90.7828064 -72.1917572
-96.9075241 -90.5788651 -70.0649338
-156.6306610 -90.5631790 -60.4369087
-158.2104187 -90.7653122 -61.8510971
118.3448410 -77.9066162 2.0058856
116.9583740 -77.7964401 3.2507515
77.9157562 -78.6278610 1.5377443
76.7551880 -78.7828522 0.2430084
-94.4397049 -89.4423599 -72.6430130
-95.5733948 -89.2299957 -70.4337769
-96.7527924 -89.0348587 -68.4394608
-156.4040833 -89.0422058 -58.9661446
-157.9454193 -89.2042160 -60.2960396
118.7620926 -77.0003281 -1.4366820
117.3134003 -76.9052963 0.1447442
115.8571625 -76.7782593 1.5728304
114.4581604 -76.6682587 2.7097068
113.0864487 -76.5735703 3.6967211
111.7385483 -76.5109177 4.5945873
82.8472595 -77.1342468 3.2389474
81.6460876 -77.2482605 2.2980063
80.4634705 -77.3815613 1.2609769
79.2871170 -77.5257263 0.0833323
78.1159973 -77.6629257 -1.2498000
-93.1450119 -88.1099777 -73.2141190
-94.2829590 -87.8878708 -70.8874130
-156.2031403 -87.5402222 -57.6315689
-157.7253723 -87.6913071 -58.8824997
112.0451050 -75.5975952 1.7312553
83.0534668 -76.1802902 0.5741955
81.8677597 -76.3125000 -0.4548263
80.6869507 -76.4399490 -1.6517043
-92.9735413 -86.5615311 -71.5336761
-94.1346283 -86.3587418 -69.3775253
-156.0295868 -86.0615234 -56.4541283
-157.5326843 -86.2001114 -57.6229095
-159.1101685 -86.3683701 -58.9924088
112.4175262 -74.7120438 -1.6779248
111.0343018 -74.6483536 -0.5999315
109.6524353 -74.5696259 0.2522209
108.3115845 -74.4962540 0.9808297
106.9712296 -74.4513092 1.6960206
105.6902008 -74.4170456 2.2338123
104.3604813 -74.3844528 2.6172762
90.4967880 -74.6722107 2.0350471
89.2789841 -74.7425232 1.5271556
88.0744476 -74.8278503 0.9354919
86.8555298 -74.9190369 0.1878827
85.6611557 -75.0333099 -0.5890504
84.4580231 -75.1387482 -1.5256752
83.2986526 -75.2501755 -2.5261266
-94.0026627 -84.8622131 -68.0639877
-158.9133301 -84.8810425 -57.7662811
-160.4854431 -85.0508270 -59.1749954
110.0731277 -73.6715698 -3.5708303
108.6846848 -73.6009064 -2.5249245
107.3381805 -73.5735397 -1.7304010
106.0233536 -73.5392151 -1.0729854
104.6701508 -73.4963074 -0.6063705
90.7616119 -73.7527313 -1.0467870
89.5652695 -73.8397827 -1.5651922
88.3638763 -73.9324799 -2.2409377
87.1325989 -74.0178375 -3.1178052
-93.8936462 -83.3767929 -66.8784485
-158.7465515 -83.4112625 -56.6925430
-160.2840118 -83.5653458 -58.0197258
-161.9022522 -83.7572937 -59.5082016
105.0929871 -72.6188812 -4.6139750
103.7576599 -72.5801544 -4.0261397
102.4307556 -72.5823669 -3.5836914
101.1285553 -72.6066132 -3.2432632
99.8585892 -72.6002197 -3.0662699
98.5628128 -72.6138687 -3.0230050
97.2837219 -72.6566544 -3.0931387
96.0211487 -72.6836700 -3.1769049
94.7945786 -72.7105331 -3.3590560
93.5527191 -72.7582703 -3.7647688
92.3222046 -72.8299561 -4.2439566
91.0884933 -72.8868484 -4.8162289
89.8910980 -72.9410782 -5.5011449
-93.7952805 -81.9162750 -65.8624725
-161.7195282 -82.2727432 -58.4322472
-92.5134735 -80.6279907 -66.7321014
-93.7146225 -80.4618454 -64.9527054
-161.5494385 -80.8112869 -57.4362030
-163.1359253 -80.9835968 -58.9442749
-164.8065643 -81.1964493 -60.6643753
-92.4325256 -79.1861877 -65.8531189
-93.6431122 -79.0191116 -64.1021805
-164.6119537 -79.7162857 -59.6707649
-91.2778168 -77.8476868 -66.4528046
-92.3643951 -77.7415085 -65.0239487
-93.5750732 -77.5882111 -63.3299065
-164.4582214 -78.2645111 -58.7499542
-91.1831970 -76.4402161 -65.8299026
-164.3129425 -76.8200760 -57.9187088
-91.0749588 -75.0332718 -65.2950211
-164.1968079 -75.3960190 -57.2151299
-90.9884491 -73.6259079 -64.7658997
-92.2080688 -73.4870300 -63.1095009
-93.4005203 -73.3703003 -61.5848465
-164.1072998 -73.9842224 -56.6004868
-165.7316437 -74.1553040 -58.1935234
-92.1563873 -72.0912476 -62.6323471
-93.3621521 -71.9723740 -61.1124954
-164.0310059 -72.5789337 -56.0689240
-165.6233521 -72.7361603 -57.6000748
-167.2510529 -72.9143295 -59.2902756
-92.1265564 -70.6965942 -62.1978493
-93.3210220 -70.5856094 -60.7080765
-167.1452789 -71.4990082 -58.7401543
-89.7076035 -69.5663834 -65.1670685
-90.8774414 -69.4376526 -63.4816513
-92.0954742 -69.3110809 -61.8433342
-93.2957306 -69.2063370 -60.3706970
-167.0564880 -70.0924530 -58.2572823
-168.7410889 -70.2819595 -60.1109886
-89.6676025 -68.1820831 -64.8654022
-90.8569412 -68.0540771 -63.1549873
-166.9998169 -68.7008591 -57.8731918
-168.6772003 -68.8826675 -59.7143440
-170.3742676 -69.0828552 -61.6967239
-89.6425018 -66.8015747 -64.5858002
-90.8339233 -66.6779709 -62.8948631
-166.9539642 -67.3138046 -57.5602684
-168.6041565 -67.4861908 -59.3487816
-88.4066620 -65.5617294 -66.1841431
-89.6399994 -65.4212570 -64.3332901
-90.8103180 -65.3090057 -62.7016907
-114.4215469 -64.2214127 -45.3158264
-115.6995239 -64.2010803 -44.8874626
-116.9656219 -64.1920090 -44.4920349
-118.2613373 -64.1718521 -44.1137390
-119.5353241 -64.1694794 -43.8042908
-120.8404083 -64.1620026 -43.5171432
-122.1182022 -64.1586914 -43.2675705
-123.4402771 -64.1613770 -43.0497932
-124.7195358 -64.1600647 -42.8562050
-126.0190811 -64.1682129 -42.6903419
-127.3318024 -64.1769104 -42.5732384
-128.6469421 -64.1920471 -42.5018921
-129.9706726 -64.2047348 -42.4572716
-133.9479828 -64.2642059 -42.5165367
-166.9097900 -65.9331360 -57.2984085
-168.5559387 -66.0990677 -59.0580177
-88.4118500 -64.1846313 -65.9904022
-89.6184998 -64.0569763 -64.1947327
-90.7971191 -63.9437332 -62.5607147
-114.4232025 -62.8801498 -45.2360191
-124.7170105 -62.8402252 -42.7931595
-128.6411591 -62.8534393 -42.4437218
-129.9617004 -62.8703766 -42.4124031
-131.2813263 -62.8894768 -42.3906021
-132.6306915 -62.9051285 -42.4069481
-133.9451141 -62.9291077 -42.4647102
-166.8599091 -64.5557098 -57.0843086
-168.5148773 -64.7186584 -58.8303299
-88.3990326 -62.8226204 -65.9311752
-111.8692017 -61.5900688 -46.2009201
-113.1289063 -61.5662346 -45.6883774
-114.4075928 -61.5461884 -45.2058945
-128.6423035 -61.5227013 -42.4173584
-129.9666138 -61.5355682 -42.3760452
-131.2777252 -61.5526123 -42.3569946
-132.6225586 -61.5726662 -42.3779259
-133.9373169 -61.5944405 -42.4242516
-135.2908783 -61.6197319 -42.5119247
-136.6258392 -61.6484680 -42.6407242
-166.8560181 -63.1891251 -56.9721947
-168.5083466 -63.3477402 -58.6991653
-170.1531525 -63.5193176 -60.6019974
-87.2381134 -61.5937653 -67.8095245
-88.4136505 -61.4596558 -65.8705826
-111.8761215 -60.2573547 -46.2087784
-113.1402969 -60.2329712 -45.6848412
-119.5265884 -60.1688843 -43.7238998
-120.8355179 -60.1636543 -43.4381866
-136.6132660 -60.3147507 -42.6311874
-166.8504486 -61.8257256 -56.9138184
-168.5065308 -61.9821243 -58.6388321
-170.1439362 -62.1490211 -60.5225868
-86.0447388 -60.3838768 -70.0018463
-87.2704468 -60.2278328 -67.7512589
-88.4028473 -60.1039581 -65.8974457
-111.8798065 -58.9271851 -46.2449303
-113.1443024 -58.9026299 -45.7146759
-119.5426483 -58.8423462 -43.7842407
-136.6236877 -58.9848976 -42.6683617
-170.1061401 -60.7780609 -60.4534683
-83.8010406 -59.3769836 -75.2008743
-84.9201279 -59.1859169 -72.4276886
-86.0737305 -59.0208969 -70.0119247
-87.2576294 -58.8759766 -67.8500290
-88.4197845 -58.7498627 -65.9504547
-111.8885269 -57.5985413 -46.3144836
-113.1474380 -57.5762482 -45.7932358
-135.3033752 -57.6319237 -42.6243439
-136.6410217 -57.6584129 -42.7447166
-170.1251526 -59.4204597 -60.5264206
-83.8152924 -58.0138741 -75.2960129
-111.9038086 -56.2737656 -46.4292297
-113.1640320 -56.2529564 -45.9186668
-127.3388748 -56.2003250 -42.6817513
-133.9747620 -56.2841263 -42.6464615
-166.8800049 -57.7647171 -57.1075974
-168.5238190 -57.9102249 -58.8113022
-170.1632538 -58.0681038 -60.6817894
-83.8127747 -56.6624069 -75.5727539
-111.9251175 -54.9507599 -46.5798569
-113.1836548 -54.9315338 -46.0765190
-128.6711578 -54.8939590 -42.7683105
-133.9744263 -54.9637756 -42.7910118
-166.9022827 -56.4189224 -57.2805557
-168.5421448 -56.5618210 -58.9858742
-170.1869354 -56.7164536 -60.8578682
-83.8661880 -55.3151817 -75.8780670
-111.9499969 -53.6295204 -46.7581940
-113.2130127 -53.6112747 -46.2512817
-114.4899292 -53.5939102 -45.7816162
-123.4900742 -53.5467682 -43.5027542
-128.7170410 -53.5779266 -42.9795189
-132.6990814 -53.6201477 -42.9157600
-134.0066223 -53.6432800 -42.9689903
-166.9556885 -55.0778046 -57.5320969
-168.5776520 -55.2182236 -59.2345276
-83.9182053 -53.9714012 -76.2487183
-111.9756851 -52.3107643 -46.9701996
-113.2302933 -52.2940598 -46.4697571
-114.5102768 -52.2767715 -46.0096359
-119.6289291 -52.2367859 -44.5149345
-120.9382477 -52.2361679 -44.1998520
-122.2061615 -52.2299805 -43.9508286
-123.5191422 -52.2325516 -43.7194290
-127.4399033 -52.2503433 -43.2844696
-128.7536469 -52.2588234 -43.1985741
-132.7169037 -52.3071518 -43.1249619
-134.0445709 -52.3252792 -43.1833572
-166.9886780 -53.7397995 -57.8258476
-168.6439667 -53.8797302 -59.5783806
-170.3068542 -54.0265961 -61.4581528
-83.9559174 -52.6352463 -76.7671509
-112.0154190 -50.9987602 -47.2329979
-113.2638626 -50.9764709 -46.7323112
-114.5407257 -50.9640579 -46.2670631
-119.6646423 -50.9252396 -44.7573242
-120.9643326 -50.9205704 -44.4629402
-122.2439423 -50.9193192 -44.2144737
-123.5579224 -50.9179268 -43.9947166
-124.8537369 -50.9233131 -43.8094368
-126.1553268 -50.9273224 -43.6536369
-127.4605713 -50.9372635 -43.5224495
-128.7782898 -50.9448738 -43.4265060
-130.0970459 -50.9571838 -43.3784637
-131.4208984 -50.9697838 -43.3777962
-132.7554932 -50.9956398 -43.3910980
-134.0776825 -51.0117111 -43.4415970
-167.0451355 -52.4061279 -58.1938934
-168.6841125 -52.5432472 -59.9390182
-170.3688660 -52.6881714 -61.8596497
-84.0120087 -51.3063202 -77.3816833
-112.0417480 -49.6770020 -47.5396271
-113.2914734 -49.6616936 -47.0313721
-114.5739136 -49.6464500 -46.5699768
-115.8602066 -49.6373444 -46.1654778
-118.4265747 -49.6028214 -45.3548660
-119.6839600 -49.6084557 -45.0414810
-120.9958496 -49.6041718 -44.7602234
-122.2850952 -49.6040039 -44.5122032
-123.5881805 -49.6073265 -44.2896957
-124.8803253 -49.6097794 -44.0975571
-126.1834335 -49.6153030 -43.9278755
-127.4971848 -49.6237068 -43.7916374
-128.8037720 -49.6362877 -43.7067261
-130.1441803 -49.6485519 -43.6808167
-131.4692078 -49.6605148 -43.6811142
-132.8042603 -49.6799812 -43.6882362
-134.1155396 -49.6987152 -43.7370605
-167.1406403 -51.0757828 -58.6534576
-168.7696075 -51.2108574 -60.3994408
-84.0508423 -49.9766350 -78.1275406
-85.1826324 -49.7967987 -75.0838013
-86.3010406 -49.6416283 -72.4832764
-112.0837021 -48.3701096 -47.8589325
-115.8949203 -48.3228455 -46.4495392
-117.1686554 -48.3109131 -46.0414886
-118.4610825 -48.3055115 -45.6672249
-127.5504761 -48.3074341 -44.1191902
-132.8435364 -48.3666649 -43.9992294
-134.1661987 -48.3871765 -44.0703011
-167.2076111 -49.7486343 -59.1460495
-168.8657837 -49.8834801 -60.9595261
-84.1063614 -48.6507263 -78.9583740
-85.2532730 -48.4743614 -75.8008347
-86.3645859 -48.3160896 -73.1376114
-112.1255722 -47.0560455 -48.2302322
-117.2224579 -46.9982414 -46.4023819
-118.5093384 -46.9930458 -46.0394478
-127.5962067 -46.9997292 -44.4856644
-134.2263641 -47.0725517 -44.4391937
-167.2870178 -48.4250450 -59.7147293
-168.9618835 -48.5589447 -61.5732536
-85.3303528 -47.1570244 -76.6147995
-86.4522095 -46.9998817 -73.8498764
-112.1682510 -45.7467232 -48.6556625
-113.4299316 -45.7300415 -48.1326752
-114.7073135 -45.7131729 -47.6575890
-115.9886780 -45.7003555 -47.2256012
-117.2642746 -45.6952133 -46.8224640
-118.5538635 -45.6814384 -46.4609566
-127.6430817 -45.6957207 -44.8784828
-128.9542694 -45.7061615 -44.7932625
-130.2794037 -45.7171936 -44.7532120
-131.5952759 -45.7276649 -44.7442894
-132.9401855 -45.7487869 -44.7606850
-134.2646790 -45.7676353 -44.8224144
-167.4092865 -47.1037865 -60.3815117
-169.1028595 -47.2329330 -62.2751503
-85.3774948 -45.8328438 -77.6263733
-86.5324173 -45.6841698 -74.7119675
-112.2257996 -44.4368744 -49.1147461
-113.4815140 -44.4212875 -48.5938683
-114.7540741 -44.4058800 -48.1171722
-116.0415649 -44.3937836 -47.6759720
-117.3217239 -44.3863411 -47.2704849
-118.6134949 -44.3763771 -46.9010887
-127.6966324 -44.3890648 -45.3212204
-129.0280762 -44.3939590 -45.2486038
-130.3508301 -44.4079247 -45.2052155
-131.6562958 -44.4252472 -45.1813354
-132.9926910 -44.4427109 -45.1929359
-134.3347168 -44.4576797 -45.2547760
-167.5101318 -45.7855797 -61.0797081
-85.4490051 -44.5160332 -78.6814041
-86.6044388 -44.3737030 -75.7272568
-164.4248810 -44.2389832 -58.5977859
-166.0326996 -44.3479195 -60.1710510
-167.6376801 -44.4733582 -61.9029617
-86.6943893 -43.0639725 -76.8515778
-164.5469666 -42.9260025 -59.4013100
-166.1594696 -43.0422020 -61.0555382
-86.7934341 -41.7572899 -78.0717468
-87.9483337 -41.6207123 -75.2261810
-89.0588913 -41.4920311 -72.8334045
-164.7050018 -41.6152115 -60.3208160
-88.0659943 -40.3224640 -76.4563065
-89.1660309 -40.1899681 -73.9718399
-164.8367462 -40.3139877 -61.2800980
-88.1660156 -39.0134735 -77.8717041
-89.2924576 -38.8920288 -75.2235565
-161.8468323 -38.8100433 -59.3115921
-163.4216614 -38.9026184 -60.7533646
-165.0017242 -39.0169296 -62.3799171
-89.4161453 -37.5968132 -76.6460495
-162.0198822 -37.5036888 -60.3845367
-163.5995331 -37.5988121 -61.8809662
-89.5331497 -36.2906685 -78.2595291
-90.7029953 -36.1831474 -75.5251694
-91.8388596 -36.0738831 -73.1799545
-159.1054077 -36.0327301 -58.8931389
-160.6142578 -36.1181297 -60.1195221
-162.1914368 -36.2030678 -61.5318871
-163.8001251 -36.2940521 -63.1068802
-90.8460312 -34.8946953 -77.1644897
-91.9794769 -34.7826157 -74.6600189
-159.2531433 -34.7355270 -60.0102272
-160.7953033 -34.8169212 -61.3126335
-162.3885040 -34.9062347 -62.8045616
-91.0077209 -33.6035767 -79.0027542
-92.1250000 -33.4904327 -76.3335876
-93.2741470 -33.3906517 -73.9743042
-94.4248276 -33.3013916 -71.9325638
-159.4611511 -33.4334221 -61.2798424
-161.0070190 -33.5177574 -62.6506348
-92.2659378 -32.1878929 -78.1585617
-93.4412003 -32.0993042 -75.6514740
-94.5720291 -32.0043716 -73.4948730
-159.6782837 -32.1347084 -62.6625748
-161.2485199 -32.2216415 -64.1280670
-93.6232452 -30.8232384 -77.5502396
-94.7387695 -30.7209778 -75.2493134
-156.7985229 -30.6933594 -61.5326958
-158.3056183 -30.7678509 -62.7383385
-159.9172668 -30.8392334 -64.1828613
-93.8152390 -29.5239029 -79.7925415
-94.9465866 -29.4471626 -77.1829300
-157.0341644 -29.3974419 -63.0368729
-158.5449982 -29.4762211 -64.3157272
-95.1241989 -28.1347427 -79.5126953
-96.2956085 -28.0760841 -76.9640198
-97.4542542 -27.9884796 -74.7669983
-154.2031097 -27.9763699 -62.2698822
-155.7293091 -28.0384045 -63.4092712
-157.3011475 -28.1013279 -64.7179947
-158.8359375 -28.1741753 -66.1017609
-96.4797058 -26.7622204 -79.3109894
-97.6642609 -26.7104950 -76.8849335
-154.4526215 -26.6819534 -63.9292526
-155.9728546 -26.7513084 -65.1335144
-157.5606537 -26.8171406 -66.5430832
-97.8622971 -25.3881531 -79.3511505
-99.0309906 -25.3491306 -77.0746155
-100.1983032 -25.2831783 -75.0120773
-151.6895905 -25.2805119 -63.5557327
-153.1951141 -25.3309822 -64.5959625
-154.7346344 -25.3868313 -65.7880554
-156.2801666 -25.4597359 -67.1065369
-99.2575378 -24.0430069 -79.6590195
-100.4261169 -24.0036049 -77.4120941
-151.9633484 -23.9834099 -65.4027710
-153.4869690 -24.0406647 -66.5459137
-155.0409393 -24.1003075 -67.8449020
-100.7035828 -22.7285957 -80.2017441
-101.8307571 -22.6738625 -77.9569244
-103.0100021 -22.5924568 -75.9507599
-104.1893997 -22.5342426 -74.2215500
-105.3941650 -22.4907150 -72.6780548
-146.3046265 -22.5094185 -63.8002510
-147.7903137 -22.5470371 -64.5630798
-149.2427673 -22.5900650 -65.3973694
-150.7520752 -22.6431675 -66.3685913
-152.2649994 -22.6985397 -67.4669952
-153.8107910 -22.7522640 -68.7302399
-102.1268234 -21.3832512 -80.9193649
-103.2965469 -21.3372440 -78.6551590
-104.4577637 -21.2635612 -76.7366943
-105.6400375 -21.1985092 -75.0394135
-146.5906677 -21.2206783 -65.7463989
-148.0729675 -21.2618790 -66.5690002
-149.5566711 -21.3021603 -67.5116730
-151.1030273 -21.3477402 -68.6286621
-152.6193848 -21.4058342 -69.8427124
-103.6059036 -20.0209064 -81.9653397
-104.7602158 -19.9854851 -79.7041931
-105.9351883 -19.9475765 -77.7195969
-107.1046600 -19.8821831 -76.0023117
-108.3035736 -19.8302155 -74.5084534
-146.9022522 -19.9187222 -67.9522400
-148.4232635 -19.9673176 -68.8803635
-106.2602768 -18.6520233 -80.9823227
-107.4209366 -18.6156387 -78.9955521
-108.6131744 -18.5676823 -77.2705307
-147.2579346 -18.6370621 -70.4470825
-148.7994385 -18.6862297 -71.5612106
-108.9675598 -17.3052082 -80.5816498
-110.1584549 -17.2557144 -78.8631439
-111.3411713 -17.2166748 -77.3424606
-112.5678253 -17.1686172 -75.9672775
-113.7840576 -17.1370850 -74.7564011
-141.7621155 -17.1994114 -69.9379807
-143.2054596 -17.2337627 -70.5890656
-144.6738281 -17.2704525 -71.3896637
-146.1815033 -17.3155289 -72.3350449
-147.6585541 -17.3660355 -73.3918991
-111.7039032 -15.8946667 -80.8387146
-112.9169464 -15.8957529 -79.1870804
-114.1303940 -15.8827381 -77.7990799
-142.1348724 -15.9175262 -72.7720642
-143.6187134 -15.9576950 -73.5891418
-145.1218719 -15.9975681 -74.5711288
-146.6744385 -16.0082111 -75.7473297
-114.5323486 -14.5621166 -81.7249222
-115.7624207 -14.5844202 -80.1871948
-116.9891586 -14.5558453 -78.9496765
-118.2353516 -14.5296917 -77.8835983
-119.4732361 -14.5037699 -76.9247589
-120.7463379 -14.4827213 -76.0994263
-122.0432053 -14.4720736 -75.3761749
-123.3214264 -14.4587994 -74.8106766
-124.6355515 -14.4436121 -74.3282394
-125.9393997 -14.4459171 -73.8964844
-127.2701111 -14.4478388 -73.5621643
-128.5942383 -14.4524832 -73.3189087
-129.9393921 -14.4540720 -73.1798248
-131.2956543 -14.4670391 -73.1164246
-132.6552429 -14.4760971 -73.1568604
-134.0426636 -14.4915915 -73.2804565
-135.4152374 -14.5101624 -73.4944992
-136.8440094 -14.5296097 -73.8191833
-138.2398529 -14.5619240 -74.2238770
-139.6957397 -14.5746164 -74.7742996
-141.1468201 -14.5940800 -75.4555054
-142.6178894 -14.6486177 -76.2837830
-144.1395264 -14.6731291 -77.2672958
-118.6849365 -13.2124414 -81.9845123
-119.9286957 -13.2144241 -80.8096085
-121.1815643 -13.2330952 -79.8244019
-122.4698334 -13.2131119 -79.0071487
-123.7440872 -13.2099218 -78.3340836
-125.0576782 -13.1906290 -77.7470551
-126.3426208 -13.1885395 -77.2556305
-127.6749039 -13.1730957 -76.8986435
-128.9972229 -13.1659527 -76.6386566
-130.3609314 -13.1762619 -76.5145035
-131.7213745 -13.1970510 -76.4844055
-133.0869904 -13.2189999 -76.5407562
-134.4759827 -13.2346277 -76.7155914
-135.8666382 -13.2465324 -77.0068512
-137.3116608 -13.2685823 -77.4716644
-124.2807693 -11.8873825 -83.0009384
-125.5750122 -11.8792515 -82.2214966
-126.8720398 -11.9018402 -81.6641006
-132.2615051 -11.8858395 -80.8447723
-133.6506958 -11.9069099 -81.0102768
103.1047974 -169.1376495 5.7890124
102.4576340 -169.1118011 5.9627895
99.5930252 -169.3328705 5.0661178
96.8465652 -169.4078827 5.4559798
96.2219849 -169.4868469 5.1506557
95.6240005 -169.5883789 4.7669687
105.4797592 -168.0336456 7.7267575
103.7636337 -167.5751190 9.5275536
102.8352432 -167.9198151 8.5250340
94.7613754 -168.3686523 7.3844924
106.5126190 -166.9651642 9.5010109
105.8793640 -166.8976440 9.7658129
105.2414169 -166.8624420 10.0078793
103.2754440 -166.8778381 10.5833941
102.6504822 -166.8368530 10.6147442
94.5613937 -167.2557678 9.5749493
93.3383255 -167.4166107 9.0164537
92.7316437 -167.5409393 8.7040148
92.1426086 -167.7003479 8.2811117
91.5426712 -167.8306274 7.8482208
111.0525894 -166.4333038 8.7078447
106.3095627 -165.9210815 11.4064894
89.5952682 -167.1329498 8.5248394
112.1614990 -165.5810089 9.7309351
111.4712296 -165.4359436 10.2700186
110.7988663 -165.3588715 10.7208443
107.4155960 -165.0439148 12.5869417
106.7605362 -164.9877777 12.8696938
106.1303711 -164.9666138 13.0695391
89.4467545 -166.0484619 10.3860502
114.0828781 -164.9109802 9.7887821
89.2966537 -165.0960236 11.9708261
85.1898193 -166.1052399 8.2237167
115.2633286 -164.1213989 10.4352484
114.5421066 -163.9608765 11.0813036
113.8648529 -163.8748474 11.5906696
89.1590347 -164.2222748 13.3681850
88.5816650 -164.3161469 13.0204859
87.9960403 -164.4100800 12.6327209
87.3914948 -164.5168457 12.1706390
86.8069916 -164.6237640 11.6912766
86.2377625 -164.7221375 11.2109661
85.6525955 -164.8590088 10.6735363
85.0515137 -165.0354614 10.1038065
84.4613495 -165.2366486 9.5210686
116.4478760 -163.3678436 10.8841372
83.1761169 -164.5944824 9.8679371
118.3784637 -162.8524017 10.2943268
117.6442871 -162.6748505 11.1043577
116.9340363 -162.5091400 11.8491955
116.2398911 -162.3770905 12.5012169
83.1069107 -163.6000061 11.3629141
118.8837128 -162.0031433 11.2221231
82.9745865 -162.6990051 12.7013540
119.4447556 -161.1996155 12.0063229
118.6749878 -161.0307922 12.7998972
82.8497925 -161.8458557 13.9312696
82.2658844 -161.9939270 13.3793793
81.6867447 -162.1264648 12.7893295
81.0980377 -162.2763519 12.1406622
80.5377579 -162.4242249 11.4946747
79.9651566 -162.6035309 10.8023319
79.3670197 -162.8347473 10.0497713
78.1516113 -162.3078766 9.7682724
121.2777328 -159.8378296 12.5263395
78.0429688 -161.3339081 11.2323751
122.5482864 -159.2701263 12.2850428
77.9354706 -160.4801331 12.4339151
123.0675659 -158.4980774 12.8627119
122.3622360 -158.3454437 13.6368465
77.8408127 -159.6171722 13.6002855
123.6405334 -157.7982483 13.2701283
124.9928207 -157.2879333 12.6739416
124.2212296 -157.0959167 13.6237774
123.4212570 -156.9020691 14.5687017
74.2223434 -159.0460968 11.3613005
126.3752975 -156.8146973 11.9186392
126.9581375 -156.1354675 12.1768398
126.1694107 -155.9014435 13.2249556
71.6993790 -157.3159943 11.2179508
127.3473969 -154.5821838 13.6565170
71.6454849 -156.4637604 12.2394447
71.0575943 -156.6892853 11.3874550
70.4093704 -156.0723724 11.5123615
129.2942505 -153.4889679 12.9005432
128.4889526 -153.2571564 14.0004158
70.3641663 -155.2429657 12.4548721
69.7705612 -155.4659119 11.5745068
129.9695587 -152.8922424 12.8154383
69.1320877 -154.8652649 11.6080256
130.6486816 -152.3108063 12.6908712
129.7761841 -152.0360718 13.9433784
69.1037064 -154.0504913 12.5111065
68.5170975 -154.2663879 11.6412468
129.6531525 -151.2523193 14.8980045
67.8787231 -153.6828613 11.5980873
130.3516693 -150.6815033 14.7345257
129.5431671 -150.4712219 15.7788296
67.7736130 -152.1207886 13.2988224
131.6526031 -149.5073700 14.4037886
130.8664246 -149.3092651 15.4553127
67.7504883 -151.3303833 14.0657492
67.1520233 -151.5366211 13.2271938
132.3267365 -148.9371948 14.1503391
66.5082245 -150.9905243 13.0163231
132.9151459 -148.3220062 14.0201788
132.1716309 -148.1387329 15.0324945
66.4899979 -150.2182312 13.7047834
65.9276657 -150.4079437 12.8271179
133.5475311 -147.7487793 13.7877207
66.4640350 -149.4674683 14.3649473
134.1907959 -147.1916809 13.5150175
133.4087372 -146.9775085 14.6166143
66.4180069 -148.7325287 15.0073357
134.7501984 -145.8894043 13.9368811
64.0019455 -148.0454712 12.8250380
136.1282349 -144.1183472 13.6460562
62.7642059 -146.2345734 12.8600664
62.7294617 -145.5027161 13.3960161
62.1437111 -145.7177582 12.4428301
61.5529366 -145.9361725 11.4270563
135.9021606 -142.6505737 15.0000429
135.7801056 -141.9190063 15.6311998
61.4761658 -144.4996643 12.5861340
61.4479752 -143.7803192 13.0914660
137.2354431 -140.9225311 14.4324017
61.4308357 -143.0752106 13.5786467
60.8434334 -143.2788391 12.6425219
137.0865021 -140.1844330 15.0644169
137.8218384 -139.6932068 14.4138613
136.9986877 -139.4778290 15.5893621
60.2751961 -142.0897217 12.5384321
59.7303467 -142.3242035 11.4110661
59.0841141 -141.7688599 11.0970697
138.4889832 -138.5178223 14.2083397
138.3987579 -137.8188019 14.6951332
138.2602081 -137.1081696 15.2287378
57.7880020 -139.4341888 10.7113400
57.2350349 -139.6393433 9.6674137
139.7596588 -136.1724243 13.6553631
57.8004799 -138.7222900 11.1804781
139.6448975 -135.4721832 14.1237583
139.5914764 -134.8054504 14.4821815
58.9022942 -136.2989349 14.2809877
58.8568535 -135.6537170 14.5341997
58.2481880 -135.8466797 13.5849915
57.6579437 -136.0369415 12.6482697
57.6433716 -135.3717346 12.9288273
141.0710144 -132.5939941 13.2683849
141.0223389 -131.9385834 13.5638189
140.9651489 -131.2801361 13.8643322
57.6359863 -133.3847809 13.7758102
57.0225372 -133.5794373 12.8037291
140.9050598 -130.6246490 14.1549826
86.9878235 -128.2924500 35.5186081
86.3923264 -128.3345795 35.3716698
85.8040314 -128.3768768 35.2147522
85.2136536 -128.4205933 35.0426674
140.8643188 -129.9827728 14.3975706
56.4604492 -132.4521027 12.2827806
55.8247185 -132.6670074 11.1832018
140.8189392 -129.3412170 14.6244221
102.7387924 -126.4566803 37.0505180
102.1232452 -126.4554520 37.0953217
101.5028915 -126.4716492 37.1285820
100.8754272 -126.4853897 37.1461334
96.6410980 -126.5941620 37.1014519
96.0277176 -126.6324234 37.0655594
95.4260788 -126.6998444 37.0147438
94.7836838 -126.7244568 36.9402885
56.4565048 -131.8038483 12.4987526
140.7646637 -128.6993256 14.8326817
100.8843002 -125.8948975 37.1829033
94.7438812 -126.0730515 36.9851303
56.4330978 -131.1598511 12.6945906
108.3300552 -125.2551804 36.4302635
100.8733444 -125.2964401 37.2188492
97.8022385 -125.3749847 37.2246971
56.4379425 -130.5079041 12.9105444
142.4134521 -127.8591919 12.5419836
100.8869781 -124.7098618 37.2536774
97.7894592 -124.7762604 37.2616196
56.4234161 -129.8719635 13.0589600
55.8146095 -130.0685272 12.0296154
55.2235336 -130.2604828 11.0128632
142.3658752 -127.2262039 12.7119579
106.4251862 -124.0623627 36.7467918
105.8053894 -124.0633240 36.8398514
105.1944733 -124.0625229 36.9248924
104.5646896 -124.0598831 37.0078430
103.9268417 -124.0662003 37.0802994
103.2964325 -124.0647354 37.1455231
102.1063385 -124.0884705 37.2403450
101.4604874 -124.0727310 37.2552719
100.2176743 -124.1820984 37.2852402
99.6516495 -124.1349030 37.2880554
97.7866516 -124.1822739 37.2921829
86.9233017 -124.7020721 35.8323936
86.3474808 -124.7452927 35.7293282
85.8493652 -124.7871780 35.6479454
83.9068604 -124.9221649 34.9913254
55.2166176 -129.6196136 11.1655588
142.3421173 -126.5996170 12.8484278
110.1711197 -123.4957275 36.1050110
109.5398254 -123.4869843 36.2388573
108.9016571 -123.4733200 36.3610420
108.2877045 -123.4731369 36.4573479
106.4358597 -123.5289383 36.7368011
105.7773361 -123.5094681 36.8287697
105.1792068 -123.4762573 36.9126701
102.1495895 -123.5542450 37.1944656
100.1851501 -123.5429535 37.2866669
99.6406708 -123.5404663 37.3017960
55.2102242 -128.9796906 11.3266220
142.2828217 -125.9629211 13.0406847
107.7356796 -122.9269028 36.4607697
94.1842651 -123.1105804 37.1429329
93.5765686 -123.1370163 37.0682793
92.9546585 -123.1692429 36.9908333
92.3436050 -123.2035522 36.9071960
91.7474213 -123.2410049 36.8101273
91.1383057 -123.2722168 36.7013664
90.5285339 -123.2995529 36.5870132
89.9341507 -123.3284531 36.4739113
142.3037720 -125.3543167 13.1066818
92.3138962 -122.6213303 36.9174805
142.2770691 -124.7322388 13.2390213
83.9135971 -122.5743561 35.0886421
142.2317505 -124.0888977 13.3925962
98.4006805 -120.6464767 37.2388000
97.7764664 -120.6540833 37.2838440
85.7413101 -121.2420197 35.5971527
82.7366791 -121.4507523 34.6215286
98.3643646 -120.0449524 37.3244019
85.7811203 -120.5854568 35.7104988
82.7256012 -120.8650284 34.6022148
142.1729431 -122.2600632 13.5821009
82.7272644 -120.2745514 34.5878639
82.1246185 -120.3252716 34.3763084
79.1688385 -120.5714798 33.2610741
143.9138489 -122.1086960 10.5493097
143.0178223 -121.8716583 12.0911589
142.2098694 -121.6871719 13.3958797
83.3434906 -119.6343994 34.7878761
82.7573776 -119.6742096 34.5819969
82.1495361 -119.7260284 34.3700066
79.1841583 -119.9791107 33.2497520
143.9053192 -121.5068512 10.5348530
97.7761765 -118.3150253 37.1914024
97.1758347 -118.3306427 37.1824646
82.7317047 -119.0966797 34.5451546
82.1224976 -119.1452408 34.3315811
79.1770554 -119.3935013 33.2100983
143.8847046 -120.9061813 10.5097332
97.7787399 -117.7505264 37.0406532
82.7560425 -118.5088196 34.5056000
82.1397858 -118.5574799 34.2897720
81.5344925 -118.6066055 34.0788116
80.9498901 -118.6537094 33.8697853
80.3539352 -118.7036514 33.6488457
79.7667465 -118.7537689 33.4139786
79.1661606 -118.8095398 33.1567993
143.8860168 -120.3110580 10.4573803
82.7357407 -117.9292526 34.4388046
80.9444046 -118.0710754 33.8082886
80.3632355 -118.1180954 33.5951233
79.7738876 -118.1684647 33.3640709
79.1518784 -118.2262878 33.1003685
143.8964691 -119.7165451 10.4003630
83.3292389 -117.3005753 34.5803719
82.7357025 -117.3464661 34.3757057
80.9462128 -117.4879456 33.7481155
143.9308929 -119.1283340 10.3018742
143.0274506 -118.9066925 11.8287020
142.1632843 -118.7038345 13.2396975
83.3241043 -116.7197647 34.5142212
82.7289505 -116.7659836 34.3083267
142.1701660 -118.0977173 13.2194462
110.1201782 -115.3248444 35.6599960
82.7210846 -116.1860657 34.2361565
142.1772461 -117.5110168 13.1692247
82.7431488 -115.6016769 34.1709862
82.1330338 -115.6502533 33.9559593
81.5309677 -115.6979446 33.7434349
142.2433472 -116.9389038 12.9100685
79.7701721 -115.2607346 32.9993820
79.1703262 -115.3147659 32.7487450
142.2635345 -116.3741455 12.6980619
142.2791595 -115.8068390 12.4784174
82.7544937 -112.7149887 33.6902046
82.1587219 -112.7623367 33.4831238
81.5738754 -112.8080978 33.2762070
54.0100136 -117.0587387 9.4643602
82.7308578 -112.1426239 33.5573006
55.1807899 -116.1403351 11.3268042
54.5883598 -116.3070679 10.3063936
54.0417404 -116.4650421 9.3455238
110.2278290 -110.7500153 34.7591400
109.5864792 -110.7442017 34.8953323
82.7778473 -111.5679398 33.4483490
55.1920090 -115.5504913 11.1897926
141.5739441 -112.7649536 12.7797089
140.7730255 -112.6079865 13.9201775
82.7899399 -110.9956360 33.3195038
140.7804871 -112.0396881 13.7119141
99.0807800 -109.6708679 35.7736473
98.4685593 -109.6847153 35.7739677
95.4119339 -109.7847366 35.5743904
94.8001785 -109.8037567 35.4976387
83.3923492 -110.3815308 33.3717194
82.7956009 -110.4244995 33.1756210
140.8606873 -111.4854889 13.3650427
107.7628937 -109.0020981 34.7830353
99.7105255 -109.0941086 35.6035614
99.0975189 -109.1062012 35.6033478
98.4766388 -109.1211777 35.6039581
95.4124146 -109.1371765 35.5053482
94.1894150 -109.2976608 35.4822235
93.6181564 -109.2551651 35.3964233
83.9819412 -109.7715454 33.3987923
55.1753120 -113.7962952 10.6382055
140.8636627 -110.9279251 13.0869312
107.7735977 -108.4616089 34.6443863
107.1505890 -108.4554672 34.7721786
106.5188828 -108.4521484 34.8826828
105.8798447 -108.4574432 34.9728889
94.1721191 -108.6685562 35.2815742
93.6194000 -108.6947174 35.2216721
92.9825134 -108.7158127 35.1617851
92.3774948 -108.7284546 35.1058464
83.9787064 -109.2022781 33.2299423
55.1724472 -113.2144241 10.4297018
93.0152206 -108.1560059 34.9841118
89.9875336 -108.2825165 34.5461502
142.6177368 -110.1520538 9.8362808
