-149.0422516 -78.3055954 -54.7254906
-150.5556335 -78.4538345 -55.9114342
129.2097931 -66.0612259 15.3892269
70.5494843 -66.9320374 15.7835217
69.4093323 -67.0897980 14.3249846
68.2712326 -67.2590637 12.6978655
-99.2199631 -77.2233200 -65.7274780
-100.3484955 -77.0407257 -63.6213455
-101.5136642 -76.8917007 -61.7835426
-102.6822128 -76.7663422 -60.1905861
-103.8783569 -76.6425095 -58.7063332
-105.0817566 -76.5275574 -57.3635292
-148.7320557 -76.7685089 -52.6997643
-150.2273407 -76.8838043 -53.7704582
-151.7633057 -77.0405426 -54.9785995
129.5456238 -65.0525208 13.1244955
128.0293732 -64.9285889 14.8865795
126.6054459 -64.8048172 16.4788055
125.1275330 -64.6898346 18.0469780
123.7297058 -64.5732193 19.3413715
72.9683685 -65.5948715 16.7628460
71.8095779 -65.7328873 15.4558287
70.6816406 -65.8830872 14.0616217
69.5338745 -66.0486832 12.4606190
-97.8413849 -75.8135300 -65.4436188
-98.9723206 -75.6406784 -63.3002853
-100.1260376 -75.4927216 -61.4364853
-151.4420776 -75.4821320 -53.0008659
-153.0088501 -75.6471100 -54.2787666
-154.5695801 -75.8200150 -55.6736107
126.8988647 -63.7870865 14.2272682
125.3840332 -63.6830292 15.9538250
123.9347076 -63.5671387 17.4485588
73.0759354 -64.5424500 14.9965477
71.9313889 -64.6898956 13.6172771
70.8084335 -64.8435669 12.1111488
-96.4889984 -74.4405365 -65.3726044
-97.6034164 -74.2543945 -63.1923943
-98.7704849 -74.0915146 -61.2264595
-99.9355316 -73.9573669 -59.5344887
-151.1890717 -73.9710464 -51.2716331
-152.7019348 -74.0952682 -52.4211693
-154.2414093 -74.2464371 -53.6971092
125.6941223 -62.6720428 13.5439692
124.2026825 -62.5597763 15.2596064
122.7903671 -62.4473915 16.6107998
121.4130325 -62.3589172 17.8141403
75.5233536 -63.2372437 15.6433878
74.3678894 -63.3728523 14.4423389
73.2185287 -63.5048141 13.0590620
-94.0243988 -73.3078232 -68.1772690
-95.1344376 -73.0670929 -65.5147858
-96.2865982 -72.8712616 -63.1863556
-97.4185333 -72.7236710 -61.2352371
-153.9750824 -72.7357178 -51.9838448
124.5512619 -61.5314331 12.8522654
123.0681152 -61.4582176 14.3187847
121.6749878 -61.3555756 15.6573124
75.6580505 -62.1951027 13.6835337
74.5054474 -62.3322983 12.3479004
73.3809814 -62.4798431 10.9053068
-93.8254318 -71.7061157 -65.7724609
-94.9401474 -71.5289612 -63.4475136
-96.0995255 -71.3582382 -61.3471832
-97.2523499 -71.2232361 -59.5476303
-153.7391205 -71.2426758 -50.4448547
-155.2740631 -71.3780518 -51.6941071
-156.8123016 -71.5218658 -53.0624123
123.3979263 -60.4606247 11.6360931
121.9662781 -60.3674316 13.1707287
120.5510559 -60.2741051 14.5405197
119.1397400 -60.1804276 15.7615013
117.7747116 -60.1018829 16.8039284
116.4179230 -60.0386505 17.7251568
78.1320114 -60.9227943 13.9732237
76.9751434 -61.0447884 12.8095284
-92.5314560 -70.3703461 -66.2459183
-93.6332169 -70.1827850 -63.8004341
-94.7731400 -70.0084305 -61.6364594
-156.5808716 -70.0324860 -51.5319366
-158.1716614 -70.1916809 -53.0063248
122.3349304 -59.3679123 10.2562160
120.8885880 -59.2879143 11.8099422
119.4151535 -59.1973190 13.2765608
118.0266266 -59.1097565 14.4589291
116.6626740 -59.0290642 15.4863348
78.2928619 -59.9018173 11.7142925
-92.3506622 -68.8459473 -64.3348236
-93.4751892 -68.6762924 -62.0758209
-94.6233749 -68.5239792 -60.0860748
-156.3469086 -68.5534973 -50.1050301
-157.9249420 -68.6954117 -51.5359573
118.3432388 -58.1286888 11.7439480
116.9407806 -58.0553703 12.9668074
115.6136780 -57.9814034 13.9611387
114.2381668 -57.9156303 14.8636761
83.1329956 -58.4593353 13.5836506
81.9807434 -58.5573006 12.6895638
80.7934570 -58.6580811 11.6104374
79.6435089 -58.7769852 10.4670639
78.4959412 -58.9008408 9.1584015
-92.1874313 -67.3564682 -62.6994972
-93.3298416 -67.2028275 -60.6122627
-94.4894257 -67.0656586 -58.7486458
-156.1701050 -67.1081848 -48.8662300
-157.7203979 -67.2383041 -50.1694336
-159.2774658 -67.3781586 -51.5915222
117.3000870 -57.0440941 9.9795904
115.9299164 -57.0026321 11.1396151
114.5312500 -56.9458618 12.2017527
83.3333969 -57.4479904 11.1180010
82.1850586 -57.5580444 10.1308985
81.0115509 -57.6608963 8.9517546
-92.0389709 -65.8837891 -61.2552032
-93.2027130 -65.7406540 -59.3164520
-94.3823395 -65.6062317 -57.5183296
-155.9985352 -65.6722107 -47.7445221
-157.5459595 -65.7989044 -48.9811096
-159.0512543 -65.9144440 -50.2919884
-160.6676941 -66.0799866 -51.8327942
114.8950577 -55.9665794 9.0053196
113.4913254 -55.9218216 10.1271925
112.1310730 -55.8621178 11.0526867
110.8046722 -55.8089104 11.8759346
109.4896698 -55.7662888 12.5601845
108.1652145 -55.7295914 13.0988941
106.8579178 -55.7137260 13.5647364
105.5686951 -55.6956329 13.9440622
104.3185730 -55.6824455 14.2416611
90.6811447 -55.9792557 12.9305344
89.4750977 -56.0415955 12.3935852
88.2846222 -56.1089401 11.7864027
87.0994644 -56.1878357 11.0735321
85.8982315 -56.2745285 10.2214642
84.7353210 -56.3703537 9.3031254
83.5727386 -56.4627342 8.2618580
82.4178467 -56.5543480 7.1158514
-93.1010742 -64.2948532 -58.1295624
-94.2803650 -64.1698380 -56.4103889
-158.8903198 -64.4821777 -49.1795807
-160.4541931 -64.6174469 -50.6235962
-162.0492096 -64.7720947 -52.2206154
112.5153427 -54.8908920 7.6104722
111.1525650 -54.8659744 8.6193933
109.8301544 -54.8137321 9.3862667
108.4752731 -54.7887421 10.1154156
107.1589661 -54.7655106 10.6894302
105.8634796 -54.7229881 11.1586533
104.5844498 -54.6990929 11.5411682
90.9164581 -54.9885750 10.2039223
89.7181854 -55.0552597 9.5920544
88.5331192 -55.1334915 8.9060717
87.3550491 -55.2130775 8.0782547
86.1664581 -55.2979660 7.1186004
84.9995651 -55.3727112 6.0580015
-93.0018158 -62.8586845 -57.0699806
-94.1809235 -62.7424927 -55.4187469
-158.7317810 -63.0552521 -48.1588898
-160.2840729 -63.1839333 -49.5292511
-161.8571472 -63.3207626 -51.0558319
-163.5282593 -63.5043449 -52.7999496
111.6477585 -53.9323883 4.2862000
106.2091675 -53.7912140 7.7668657
104.9245834 -53.7701454 8.2646198
103.6204224 -53.7432938 8.6012573
102.3431473 -53.7359009 8.8174925
101.0684433 -53.7320251 8.9563732
99.8073730 -53.7484436 9.0578556
98.5703506 -53.7661438 9.0570936
97.3064651 -53.7867546 8.8976307
96.0763855 -53.8243637 8.6862411
94.8323975 -53.8654938 8.3927832
93.6382065 -53.9224129 8.0595512
92.4214401 -53.9743309 7.5315838
91.2188110 -54.0372925 6.9221802
90.0202026 -54.1097565 6.2200661
-91.7401581 -61.5571747 -57.8677902
-92.9158783 -61.4360619 -56.1210899
-94.0902634 -61.3385391 -54.5444908
-161.6910706 -61.8927231 -50.0027504
-163.3007507 -62.0432587 -51.6589699
106.7007675 -52.8606758 3.2345629
105.3887634 -52.8198395 4.0051413
101.4500961 -52.8273964 5.1071777
100.1911011 -52.8463097 5.2189898
98.9329224 -52.8585701 5.2387390
97.6721039 -52.8863869 5.0974431
96.4406815 -52.9227867 4.8733282
95.1921082 -52.9345207 4.4986534
93.9921494 -52.9569626 4.0585532
-91.6627579 -60.1327324 -56.9635925
-92.8321152 -60.0314560 -55.2828903
-94.0295105 -59.9240723 -53.7263489
-161.5361938 -60.4690208 -49.0514870
-163.1062775 -60.5996628 -50.6322250
-90.4866791 -58.8387184 -57.6945496
-91.5875778 -58.7287712 -56.1491394
-161.4026031 -59.0595207 -48.2081985
-162.9970398 -59.1956711 -49.7372131
-164.6175842 -59.3481560 -51.4171028
-90.3821335 -57.4459457 -56.9854736
-91.5245285 -57.3302345 -55.4096184
-161.2938690 -57.6618004 -47.4658318
-162.8462982 -57.7826843 -48.8997116
-164.4651184 -57.9261322 -50.5492401
-166.1255188 -58.0955849 -52.3518791
-90.2880859 -56.0557556 -56.3453026
-91.4564667 -55.9428787 -54.7657928
-164.3266907 -56.5171928 -49.7551041
-165.9596100 -56.6705666 -51.5223389
-91.4036636 -54.5599976 -54.1946564
-164.2193909 -55.1208153 -49.0609055
-165.8208771 -55.2593803 -50.7613525
-91.3664551 -53.1843224 -53.7047615
-164.1219940 -53.7324448 -48.4576721
-165.7119446 -53.8638992 -50.1093636
-167.4009705 -54.0240364 -52.0066681
-91.3295593 -51.8147850 -53.2741432
-164.0441589 -52.3533745 -47.9529305
-165.6395569 -52.4808884 -49.5712280
-90.1202545 -50.5309486 -54.4810753
-91.2972488 -50.4485893 -52.8774490
-124.9772415 -49.6327820 -34.3991547
-126.2942352 -49.6481972 -34.2854500
-127.5893173 -49.6517181 -34.2014122
-128.8970947 -49.6645851 -34.1451111
-163.9771118 -50.9796028 -47.5142212
-165.5465393 -51.0990372 -49.0746689
-167.2040100 -51.2394257 -50.8666687
-88.9057541 -49.2642059 -55.7542992
-90.0687866 -49.1746063 -54.1075478
-91.2563019 -49.0919800 -52.5698471
-124.9504166 -48.2985611 -34.1951027
-126.2594376 -48.3093224 -34.0857086
-127.5577011 -48.3211365 -34.0095024
-128.8686829 -48.3332405 -33.9556046
-163.9116516 -49.6084518 -47.1309509
-165.4936523 -49.7270851 -48.6761818
-167.1246033 -49.8596115 -50.3951569
-87.6708221 -48.0103035 -57.2454987
-88.8647995 -47.9065208 -55.4634857
-112.1711273 -47.0199013 -37.1087532
-113.4423828 -47.0059586 -36.6522369
-114.7032318 -46.9927368 -36.2240448
-115.9685059 -46.9803238 -35.8204689
-117.2461548 -46.9742203 -35.4577522
-118.5114822 -46.9665146 -35.1367340
-119.7976532 -46.9625244 -34.8532028
-121.0676270 -46.9648323 -34.6072235
-122.3657990 -46.9678802 -34.3813362
-123.6377640 -46.9640999 -34.1863594
-124.9362640 -46.9764404 -34.0329018
-128.8643799 -47.0062408 -33.7979736
-167.0376587 -48.4819641 -49.9893227
-168.7223663 -48.6289558 -51.8586426
-87.6501236 -46.6488533 -57.0125656
-88.8561020 -46.5472565 -55.2098236
-112.1634369 -45.6895790 -36.9785156
-113.4359131 -45.6749077 -36.5214386
-114.6935272 -45.6649818 -36.0940971
-115.9559097 -45.6537247 -35.7014351
-117.2311096 -45.6482201 -35.3461456
-118.4929276 -45.6429291 -35.0226250
-119.7786942 -45.6414909 -34.7342606
-121.0531540 -45.6406784 -34.4865608
-122.3623505 -45.6395950 -34.2584305
-123.6354523 -45.6452522 -34.0638123
-128.8471375 -45.6821365 -33.6754913
-166.9837036 -47.1149292 -49.6926613
-168.6666718 -47.2560997 -51.5627022
-87.6354446 -45.2916641 -56.8211899
-88.8361435 -45.1962852 -55.0384979
-112.1439667 -44.3687172 -36.8969955
-115.9452057 -44.3330154 -35.6359940
-121.0411911 -44.3145065 -34.3926811
-122.3429794 -44.3167305 -34.1616669
-123.6105957 -44.3190155 -33.9708099
-124.9082031 -44.3233109 -33.8236313
-126.2184753 -44.3362579 -33.7102013
-127.5193329 -44.3462257 -33.6207886
-128.8100281 -44.3478241 -33.5606384
-130.1112366 -44.3656044 -33.5481491
-131.4489594 -44.3852463 -33.5706024
-132.7701721 -44.4044838 -33.6252441
-134.1013031 -44.4236984 -33.7101326
-135.4158325 -44.4467468 -33.8191528
-136.7470245 -44.4701080 -33.9765778
-166.9596558 -45.7544136 -49.4791641
-87.6265793 -43.9389381 -56.6840515
-88.8259888 -43.8480911 -54.9234619
-112.1472168 -43.0408936 -36.8290138
-115.9399414 -43.0122223 -35.5938873
-121.0376587 -42.9952278 -34.3292923
-122.3313293 -42.9953423 -34.0881157
-123.6088257 -42.9990845 -33.9075928
-130.1109619 -43.0483589 -33.4742889
-131.4428101 -43.0637207 -33.5080414
-132.7451477 -43.0956421 -33.5566063
-135.4370728 -43.1396980 -33.7483902
-136.7569122 -43.1487160 -33.9256439
-166.9558716 -44.3997955 -49.3355865
-168.5567627 -44.5224342 -51.1039963
-86.4707947 -42.6847343 -58.4496765
-87.6232834 -42.5915108 -56.6182022
-88.8218155 -42.5025749 -54.8536758
-107.1111069 -41.7949066 -39.0279465
-108.3887329 -41.7713013 -38.3963242
-109.6409988 -41.7588425 -37.8421555
-110.9152985 -41.7677994 -37.3269653
-112.1475372 -41.7221680 -36.8176346
-136.7406616 -41.8261414 -33.8954010
-166.9175873 -43.0441933 -49.2078819
-85.2819366 -41.4438477 -60.5499458
-86.4745789 -41.3380241 -58.4479370
-87.6200714 -41.2473221 -56.6008148
-88.8183746 -41.1598549 -54.8252068
-107.1252441 -40.4729843 -39.0375137
-108.3933640 -40.4513397 -38.4151039
-112.1457748 -40.4027100 -36.8238220
-135.4309692 -40.4766655 -33.7307663
-136.7478485 -40.5088005 -33.9092865
-166.9152222 -41.6957016 -49.1652756
-168.5451050 -41.8149567 -50.9680557
-84.1435089 -40.2098007 -62.8845367
-85.3055420 -40.0971336 -60.5969925
-86.4861908 -39.9937439 -58.4808731
-107.1298828 -39.1546593 -39.0921745
-108.3962250 -39.1333885 -38.4591446
-134.1009064 -39.1488609 -33.6867828
-135.4269104 -39.1696167 -33.8013802
-136.7492676 -39.1915970 -33.9524689
-166.9307861 -40.3510399 -49.1978531
-168.5285339 -40.4650307 -50.9689789
-81.9633026 -39.1458206 -68.7122269
-83.0494080 -38.9916039 -65.6009064
-84.1693802 -38.8641853 -62.9988747
-85.3115540 -38.7545090 -60.7206306
-86.4922104 -38.6538086 -58.5895004
-107.1462250 -37.8374176 -39.1701279
-108.4099045 -37.8172379 -38.5388222
-134.1156006 -37.8358803 -33.7799377
-135.4257660 -37.8550453 -33.8817787
-136.7555847 -37.8771667 -34.0264893
-166.9557800 -39.0096741 -49.2963104
-81.9765091 -37.7973251 -68.9354172
-83.0581818 -37.6496620 -65.8592072
-84.1952362 -37.5220261 -63.1732559
-107.1627808 -36.5216751 -39.2814941
-108.4216995 -36.5026207 -38.6652527
-134.1430511 -36.5221939 -33.8990631
-166.9738464 -37.6705933 -49.4446182
-83.0903931 -36.3076248 -66.1270065
-84.2096024 -36.1823463 -63.4389992
-107.1739349 -35.2079468 -39.4419250
-108.4354706 -35.1905060 -38.8274956
-109.6947174 -35.1808472 -38.2614479
-117.2777481 -35.1005898 -35.6145782
-118.5435944 -35.1169472 -35.2829933
-131.4994354 -35.1775017 -33.8859444
-132.8215332 -35.1941910 -33.9569550
-134.1502838 -35.2121391 -34.0435905
-166.9919281 -36.3351936 -49.6533241
-168.6300354 -36.4388962 -51.4228058
-82.0000916 -35.1067848 -69.5919647
-83.1238556 -34.9692802 -66.4723511
-84.2426834 -34.8451614 -63.7333527
-109.7028275 -33.8630142 -38.4470291
-110.9745560 -33.8502159 -37.9068565
-112.2229614 -33.8368835 -37.4050293
-113.4866486 -33.8267555 -36.9384499
-114.7483978 -33.8173676 -36.5039673
-118.5601044 -33.8043175 -35.4661942
-119.8522186 -33.8044281 -35.1622429
-121.1188049 -33.8018341 -34.9065628
-131.5211639 -33.8695526 -34.0704651
-132.8457642 -33.8834572 -34.1299553
-134.1914978 -33.9011421 -34.2220612
-135.5066986 -33.9207687 -34.3455963
-136.8386536 -33.9428978 -34.4972763
-167.0774384 -35.0028229 -49.9788132
-168.6869202 -35.1037369 -51.7335777
-82.0523758 -33.7684097 -70.0986023
-83.1739807 -33.6341705 -66.8921051
-84.2799225 -33.5113449 -64.1406174
-109.7291870 -32.5525131 -38.6743622
-111.0067596 -32.5395050 -38.1199150
-112.2535706 -32.5291595 -37.6214752
-113.5150681 -32.5178490 -37.1626282
-114.7742462 -32.5068703 -36.7325401
-118.5841446 -32.4976196 -35.6571846
-119.8823166 -32.4986076 -35.3645782
-126.3121796 -32.5147285 -34.4167786
-131.5556183 -32.5618019 -34.2979660
-136.8666077 -32.6339493 -34.7087021
-167.0903320 -33.6710472 -50.2671967
-168.7492371 -33.7700043 -52.0914803
-82.0947800 -32.4358063 -70.7603607
-83.2150955 -32.3038559 -67.4733200
-84.3273163 -32.1819878 -64.6455841
-119.9002457 -31.1873016 -35.6185684
-128.9845123 -31.2285690 -34.5582161
-130.2793732 -31.2406712 -34.5365791
-131.6117706 -31.2529888 -34.5617180
-136.9135590 -31.3241482 -34.9642792
-167.1641083 -32.3428497 -50.6825905
-83.2755127 -30.9748631 -68.1113586
-84.3931732 -30.8544903 -65.2012482
-119.9420929 -29.8865776 -35.9058990
-121.2164612 -29.8825989 -35.6444931
-122.5072479 -29.8881111 -35.4139748
-129.0187531 -29.9212933 -34.8373222
-130.3097534 -29.9358521 -34.8292313
-131.6394806 -29.9512596 -34.8484650
-132.9617004 -29.9625587 -34.8985519
-134.2853699 -29.9796734 -34.9775505
-135.5973969 -29.9993324 -35.0940628
-136.9472961 -30.0184879 -35.2644043
-167.2657318 -31.0159321 -51.1991730
-83.3301086 -29.6457825 -68.8472137
-84.4613037 -29.5317078 -65.8385010
-114.8859787 -28.5900917 -37.6205673
-116.1541824 -28.5844975 -37.2219467
-117.4316635 -28.5832176 -36.8581924
-118.6996002 -28.5791454 -36.5194359
-119.9932022 -28.5839024 -36.2201157
-121.2563019 -28.5817451 -35.9804764
-122.5674210 -28.5837269 -35.7523193
-126.4345245 -28.6029205 -35.2817535
-127.7307510 -28.6117764 -35.1999550
-129.0530090 -28.6158810 -35.1646347
-164.1207581 -29.5181999 -48.4229546
-165.7096100 -29.6019611 -49.9889832
-167.3479309 -29.6916466 -51.7436600
-84.5159302 -28.2080956 -66.6396179
-114.9352417 -27.2908020 -37.9718323
-116.2071838 -27.2771263 -37.5790367
-120.0352402 -27.2742023 -36.5857697
-121.3181152 -27.2741337 -36.3460732
-122.6130676 -27.2813759 -36.1234589
-123.8874969 -27.2830315 -35.9361610
-125.1808472 -27.2891846 -35.7776260
-126.4908905 -27.2929726 -35.6530914
-127.7816162 -27.3080406 -35.5648880
-129.0934601 -27.3146782 -35.5199318
-164.2285309 -28.1981850 -49.0004807
-165.7981262 -28.2811089 -50.5744820
-167.4598541 -28.3683643 -52.3845825
-84.5885391 -26.8855019 -67.5105743
-85.7012939 -26.7857018 -64.7858353
-86.8330765 -26.6947193 -62.3950539
-114.9881973 -25.9848518 -38.3731003
-116.2522125 -25.9763947 -37.9900513
-120.0921783 -25.9742966 -36.9840164
-121.3679123 -25.9763870 -36.7340279
-164.3261108 -26.8790913 -49.6299973
-165.9248657 -26.9609680 -51.2700157
-84.6664581 -25.5618286 -68.5043411
-85.7895584 -25.4699898 -65.6673660
-86.9132309 -25.3792706 -63.1904221
-115.0391312 -24.6769047 -38.8301163
-116.3077774 -24.6786938 -38.4330826
-117.5838928 -24.6717815 -38.0598679
-118.8408813 -24.6706295 -37.7255936
-120.1410522 -24.6701927 -37.4191780
-121.4172668 -24.6750031 -37.1637268
-164.4413910 -25.5609913 -50.3373337
-166.0532837 -25.6411343 -52.0317955
-167.7482147 -25.7188301 -53.9397125
-85.8606110 -24.1484966 -66.7173920
-87.0106659 -24.0642548 -64.0757980
-161.4167786 -24.1079273 -48.1917267
-162.9817352 -24.1740150 -49.5762253
-164.5595703 -24.2470360 -51.1127357
-166.1928101 -24.3224220 -52.8652458
-85.9697113 -22.8332176 -67.8381500
-87.1009521 -22.7484875 -65.1286163
-161.5508118 -22.7920399 -48.9786911
-163.1239929 -22.8557072 -50.4115219
-164.6822205 -22.9364204 -51.9867401
-87.2186127 -21.4415817 -66.2609558
-88.3152008 -21.3574657 -63.8771706
-89.4856949 -21.2922440 -61.6450920
-161.6888580 -21.4791718 -49.8401909
-163.2515259 -21.5442772 -51.3027763
-87.3148575 -20.1203003 -67.5841980
-88.4190598 -20.0455322 -65.0808868
-89.5736008 -19.9729786 -62.7662010
-161.8539734 -20.1617451 -50.8071594
-163.4198303 -20.2295513 -52.3246384
-88.5545959 -18.7390747 -66.3688049
-89.6996841 -18.6674480 -63.9342422
-162.0022278 -18.8550358 -51.8332825
-163.6033630 -18.9188194 -53.4571114
-88.6761703 -17.4212742 -67.8769379
-89.8125458 -17.3516216 -65.2965393
-162.1814728 -17.5436363 -52.9828186
-163.8239441 -17.5977497 -54.7012367
-88.8161011 -16.1067448 -69.5165100
-89.9678802 -16.0521965 -66.7484665
-159.2278900 -16.1196117 -51.2596092
-160.8065796 -16.1691551 -52.6920776
-162.4035034 -16.2256718 -54.2859306
-88.9612274 -14.7821283 -71.5129929
-90.1222382 -14.7401333 -68.4793167
-159.4492188 -14.8034105 -52.5285034
-161.0131683 -14.8589373 -54.0118408
-90.2627411 -13.4098406 -70.3818054
-91.3888779 -13.3663025 -67.6569366
-92.5239868 -13.3065882 -65.2598572
-156.5559692 -13.3966217 -51.2368584
-158.0910339 -13.4402037 -52.4819908
-159.6431122 -13.4928894 -53.8660698
-161.2581787 -13.5429077 -55.4921875
-91.5803757 -12.0637226 -69.6214447
-92.6865082 -11.9963417 -67.0690765
-156.7518463 -12.0899887 -52.5507050
-158.3165741 -12.1316175 -53.9081955
-92.8891754 -10.7006149 -68.9906921
-93.9900055 -10.6411076 -66.6345139
-95.1307220 -10.5919485 -64.5238342
-153.9532013 -10.6988497 -51.6626778
-155.4736938 -10.7315302 -52.7933807
-156.9812012 -10.7798109 -54.0239067
-158.5670776 -10.8268700 -55.5027237
-94.1797943 -9.3216419 -68.7245560
-95.3221970 -9.2921572 -66.3836060
-154.1785736 -9.3819666 -53.1376801
-155.7109070 -9.4186821 -54.3393936
-157.2399750 -9.4617062 -55.6783180
-158.8568115 -9.5002117 -57.2687302
-95.5162430 -7.9714670 -68.5441132
-96.6776886 -7.9414959 -66.2780991
-97.8265076 -7.8973980 -64.3323975
-154.4242706 -8.0708733 -54.7553062
-155.9933167 -8.0995731 -56.0845108
-96.8893127 -6.6137466 -68.5275574
-98.0328369 -6.5847025 -66.4009018
-154.7016449 -6.7653770 -56.5745163
-156.2739258 -6.7993050 -58.0214386
-98.2549973 -5.2723904 -68.7215347
-99.4132233 -5.2499442 -66.6357422
-100.5625305 -5.2168608 -64.7721405
-151.9350739 -5.3759193 -56.0217438
-153.4713745 -5.4083848 -57.2799149
-155.0304413 -5.4328175 -58.8189278
-99.6552505 -3.9167809 -69.1540375
-100.7880554 -3.8994956 -67.1227798
-152.2584229 -4.0562935 -58.0983582
-101.0395737 -2.5593820 -69.7775040
-102.2343445 -2.5684426 -67.7003632
-103.4083176 -2.5467346 -65.8740005
-104.5730057 -2.5109155 -64.3150482
-105.7615967 -2.4940758 -62.8811264
-146.5859985 -2.6317539 -56.0506859
-148.0431824 -2.6557972 -56.9209442
-149.5564575 -2.6773229 -57.9573669
-151.0500946 -2.7077997 -59.0941620
-152.5909119 -2.7335038 -60.4129105
-102.5064926 -1.2094555 -70.6352386
-103.6647110 -1.2117910 -68.5819855
-104.8413086 -1.2079586 -66.7910004
-106.0195313 -1.1855491 -65.1816559
-146.8915100 -1.3141625 -58.1650848
-148.3669281 -1.3356994 -59.1521645
-149.8919220 -1.3581423 -60.3221321
-105.1322632 0.1319268 -69.7060242
-106.2989960 0.1264548 -67.9114685
-107.4862213 0.1442898 -66.3156433
-108.6887054 0.1652938 -64.8918228
-109.8880310 0.1747485 -63.6398926
-111.1203461 0.1875167 -62.5020828
-141.4115295 0.0863798 -57.4475861
-142.8298035 0.0651991 -58.0515327
-144.2917480 0.0522633 -58.7971420
-145.7308655 0.0293571 -59.6162376
-147.2339478 0.0060612 -60.6011620
-106.6241913 1.4939721 -71.2039108
-107.8030472 1.4553523 -69.3119659
-109.0097198 1.4597216 -67.6948700
-110.1927948 1.4902065 -66.2897644
-111.4025421 1.5058837 -65.0054626
-141.7297668 1.4087349 -59.7752228
-143.1730347 1.3897790 -60.4907646
-144.6565552 1.3755493 -61.3596573
-146.1241150 1.3573781 -62.3253098
-147.6631317 1.3546312 -63.4980164
-111.7375870 2.8187547 -67.9669342
-112.9198456 2.8354514 -66.7093506
-114.1597061 2.8444419 -65.5694733
-115.4001541 2.8542967 -64.5839310
-116.6444626 2.8638313 -63.7173424
-136.4180603 2.7918081 -60.3087006
-137.8318787 2.7846160 -60.7019272
-139.2312317 2.7637224 -61.1711769
-140.6563721 2.7466609 -61.7697563
-142.1022644 2.7349019 -62.4934769
-143.5756378 2.7244024 -63.3420868
-112.1237488 4.2030821 -71.6558075
-113.3017426 4.1869941 -70.1100769
-114.5311890 4.1586332 -68.7536392
-115.7503204 4.1691852 -67.6347046
-116.9988708 4.1736250 -66.6443558
-136.7845154 4.1144381 -63.0695457
-138.2144470 4.1041141 -63.5677338
-139.6385803 4.0910039 -64.1682129
-141.0871277 4.0919638 -64.8835678
-117.3975677 5.5175972 -70.2312698
-118.6262970 5.4960837 -69.1927414
-119.8763123 5.4999361 -68.3161697
-121.1506348 5.5024891 -67.5564117
-122.4281921 5.5172930 -66.9509506
-123.7152786 5.5224466 -66.4156342
-124.9914551 5.5143347 -65.9504395
-126.3258209 5.5132203 -65.6217880
-127.6405334 5.5110140 -65.3986511
-128.9742432 5.5061026 -65.2535477
-130.3139954 5.5003886 -65.1992950
-131.6738434 5.4881988 -65.2329178
-133.0569458 5.4835081 -65.4071198
-134.4181213 5.4660926 -65.6424561
-135.8293610 5.4532652 -65.9896393
-137.2369080 5.4370513 -66.4665375
-138.6957397 5.4506712 -67.0991592
-120.3668823 6.9014421 -72.6557465
-121.6241379 6.8982177 -71.7043533
-122.8935165 6.8693151 -70.9185181
-124.1842651 6.8265409 -70.2635727
-125.4718933 6.8377972 -69.8092651
-126.7954483 6.8413143 -69.4206543
-128.1053162 6.8286238 -69.1173706
-129.4383698 6.8218517 -68.9726868
-130.7883301 6.8149562 -68.9480286
-132.1631622 6.8089519 -69.0748520
-133.5557098 6.8229752 -69.2979355
-134.9450989 6.8496771 -69.6671066
102.2025986 -149.9473572 13.4802847
101.5734711 -149.9801178 13.3769150
100.9465103 -149.9710236 13.4544983
100.3467941 -150.0280151 13.2899609
99.7917252 -150.1136627 12.9555426
99.2587585 -150.1991272 12.5493479
105.7608948 -148.8785095 15.3524284
96.3933029 -149.1959991 15.0613155
110.1711960 -148.1274414 15.3897991
106.0891724 -147.7940674 17.5096531
105.4959412 -147.7356720 17.6888828
96.2014999 -148.1014557 17.2357006
95.5894928 -148.2048950 16.9879971
94.9927368 -148.2737579 16.7340298
94.4058075 -148.3399048 16.4203281
110.5596237 -147.1495514 17.1533184
109.8853912 -147.0523987 17.6083984
106.5781555 -146.8057404 19.1995068
90.6981430 -147.9343872 15.9340458
90.1161880 -148.0870361 15.4206648
113.0686722 -146.4930420 17.3002338
112.3690948 -146.3855438 17.8488636
111.6735458 -146.2803040 18.3515415
110.9935608 -146.1894379 18.7690067
110.3264313 -146.1190796 19.1397648
109.6786118 -146.0574646 19.4998226
109.0212708 -146.0210419 19.7983131
108.3619308 -145.9723663 20.0914345
107.7204056 -145.9608459 20.3078785
107.0642929 -145.9208221 20.5810585
106.4295807 -145.9165497 20.7784176
93.4647369 -146.5007019 19.6559258
92.8782120 -146.5849304 19.3451462
92.2973404 -146.6586761 19.0199280
91.6944275 -146.7295685 18.6364346
91.0946655 -146.8314819 18.2016678
90.5325928 -146.9111938 17.8400936
89.9268112 -147.0506744 17.3852501
89.3180923 -147.2218170 16.8894653
87.5109177 -146.6829834 16.7856846
115.3763809 -144.9375610 18.8079453
114.6954880 -144.8258820 19.3586903
114.0107727 -144.7254181 19.8654671
87.3181534 -145.6374054 18.6805496
86.7242355 -145.8106232 18.1647453
117.9559021 -144.4473724 17.8625965
84.8693466 -145.3206787 17.9812813
117.7246017 -143.4625244 19.6686001
84.7611084 -144.3791656 19.4574852
84.1860504 -144.5211182 18.8833370
83.5710297 -144.7184753 18.1483669
82.4070435 -144.1306000 18.1886482
81.8891449 -144.3199005 17.2351532
120.9514542 -142.3291016 19.0897923
120.2529526 -142.2094269 19.8420734
119.5494308 -142.0418701 20.6609287
118.8075867 -141.9348602 21.3661613
82.2575226 -143.1227417 19.7159595
81.6700897 -143.2781372 19.0648308
81.0705643 -143.5017853 18.3731346
121.4302902 -141.5252075 19.9081383
80.9874573 -142.6303558 19.7418938
122.6924057 -140.9554443 19.7592220
121.9150085 -140.7519989 20.6525764
121.2413788 -140.6283569 21.3466816
80.8684082 -141.8083191 20.9137173
80.3150864 -141.9329376 20.3371487
79.7277756 -142.1083069 19.6217194
79.1551514 -142.2751465 18.8981953
122.4735947 -140.0434723 21.2097969
123.8307114 -139.5082397 20.8248405
123.0432587 -139.3229370 21.7320099
122.3045578 -139.1831055 22.5136414
125.1388092 -138.9681702 20.3716717
77.2104721 -140.2100525 20.2593269
125.7002792 -138.2686157 20.7691517
124.9410629 -138.0861664 21.6887684
77.1266098 -139.3940735 21.3458710
128.3150635 -137.2667236 19.4546928
127.5007858 -137.0325623 20.5921097
126.7902679 -136.8798981 21.5018024
126.1081696 -136.7563019 22.3078499
74.6487503 -138.4801636 20.4671497
128.9040985 -136.5772705 19.7139187
73.4640198 -138.0139008 19.8985977
128.6925354 -135.7142029 21.0118313
73.4051437 -137.2074432 20.8511810
72.8196182 -137.4008789 20.0411873
70.9109344 -134.7573395 21.2127743
69.1885376 -135.2614288 18.4895096
68.5360947 -134.7742920 18.4161053
68.4139557 -133.2411499 20.2692337
68.3846207 -132.4694672 21.0742912
67.7943192 -132.6683044 20.1834450
67.1725845 -132.1025238 20.0352325
133.4255676 -129.3287506 22.7487354
67.1662598 -131.3324738 20.8352413
66.5748596 -131.5387268 19.8845444
67.1303024 -130.5953827 21.5586205
134.7935333 -128.2321777 22.1888180
67.0876389 -129.8670349 22.2575512
66.4739304 -130.0733643 21.3654537
65.8661957 -129.5104523 21.1516171
65.2751541 -129.7015228 20.2083340
136.1422424 -127.1273880 21.3389282
135.3026276 -126.9106827 22.6231709
134.5343475 -126.7474976 23.7261391
65.8198090 -128.7925568 21.7644501
137.4819031 -126.0615692 20.4735699
64.6258087 -127.7073288 21.2816639
64.0330353 -127.8963013 20.3431721
137.3475647 -125.3126221 21.2937012
64.6009598 -126.9911346 21.8595867
64.5688934 -126.2928238 22.4161339
63.9861946 -126.4640884 21.5555668
137.1579132 -123.8861237 22.7270947
137.8084869 -123.3487091 22.2984905
137.0578613 -123.1811981 23.3640728
62.1945000 -125.6157837 19.7761192
138.4073181 -122.1310120 22.3881149
62.1397743 -124.2102280 20.8623486
61.5506516 -124.4063644 19.8599682
138.2824554 -121.4205704 23.0185909
62.1196785 -123.5148010 21.3600903
138.9898071 -120.9153900 22.4232349
138.2138519 -120.7412796 23.5387630
62.1185455 -122.8167877 21.8811073
61.5277367 -123.0050659 20.8979549
60.9592667 -123.1824646 19.8962250
139.7122192 -119.7649536 22.1518784
139.5743256 -119.0597229 22.7349339
60.8961716 -121.1282806 21.2841816
140.3560486 -118.5923004 21.9304180
139.5004425 -118.3853836 23.2026997
60.8753700 -120.4577484 21.6748352
60.8409081 -119.7934113 22.0744839
60.8114738 -119.1317215 22.4958076
60.2290916 -119.3017960 21.5404968
140.9692535 -116.7761002 22.0304127
60.7761765 -118.4784317 22.8590221
140.8629608 -116.0959702 22.5104237
60.7469482 -117.8269501 23.1758385
140.7011871 -114.1473312 23.5806236
93.3991394 -111.9638367 44.5645256
92.7735519 -112.0163879 44.4754524
92.1764908 -112.0368500 44.3861198
91.5671844 -112.0704041 44.2759247
90.9850616 -112.0971375 44.1589127
90.4077682 -112.1238480 44.0316162
140.6182556 -113.4927521 23.9175587
93.3739777 -111.3721085 44.6724396
90.3713913 -111.5424500 44.1439934
142.1506653 -113.1894989 21.7717743
93.3474808 -110.7934265 44.7632675
87.9955902 -111.0837402 43.6719627
58.3586197 -115.2215729 20.9693451
57.7601128 -115.4016037 19.9391937
142.9986420 -112.7671814 20.6372375
142.0867157 -112.5400314 22.1091347
93.3323364 -110.1915131 44.8562431
92.7293320 -110.2159348 44.7747269
87.9732208 -110.4852295 43.7742615
58.3576965 -114.5674973 21.2551689
142.9217529 -112.1122589 21.0108299
142.0581512 -111.9081039 22.3878765
90.9320831 -109.7145615 44.5655289
87.9705048 -109.8744278 43.8731956
58.3451691 -113.9213104 21.5304260
90.9110336 -109.1169891 44.6295891
90.3269272 -109.1414642 44.5084496
89.7246170 -109.1765518 44.3762131
89.1337891 -109.2063446 44.2422104
88.5422974 -109.2433395 44.1009254
87.9523163 -109.2815704 43.9521294
58.3198586 -113.2855530 21.7520523
102.9246902 -108.1167984 45.5652199
102.3198318 -108.1357040 45.5923843
143.6313477 -110.3989487 20.4030018
143.5420837 -109.7487335 20.7259369
106.5880585 -106.9117432 45.3470650
105.9690475 -106.9103470 45.4295464
105.3607864 -106.9137650 45.4957886
104.7443161 -106.9167633 45.5529671
104.1414566 -106.9262619 45.6033058
103.5293961 -106.9364777 45.6529808
93.8562851 -107.2097931 45.3132820
143.4889221 -109.1125031 20.9796143
104.1273041 -106.3437805 45.6671715
143.4727020 -108.4915848 21.1584892
107.7754135 -105.7271957 45.2641678
93.2558823 -106.0459061 45.3109322
92.6499252 -106.0728836 45.2076492
92.0473633 -106.1079178 45.1018829
91.4434052 -106.1263504 44.9919739
143.4249268 -107.8634567 21.3635178
91.4238815 -105.5560074 45.0150490
143.3775940 -107.2406082 21.5358047
111.4904709 -104.5757217 44.6337204
109.0227203 -104.5676956 45.1259613
108.3912506 -104.5639038 45.2317657
102.8598099 -104.5941315 45.8405914
91.4379578 -104.9528351 45.0604820
90.8594055 -104.9789658 44.9666405
90.2525635 -105.0151367 44.8600845
57.0979691 -109.1835556 21.0863628
56.5292168 -109.3353500 20.1434460
144.2135620 -106.8175354 20.2887039
143.3296814 -106.6206131 21.6907082
111.4934158 -103.9963608 44.6570244
102.8599701 -104.0128784 45.8183479
57.0816650 -108.5611572 21.2189560
111.4847794 -103.4155579 44.6718864
103.4962997 -103.4270020 45.7524719
102.8563690 -103.4247131 45.8645325
89.0765686 -103.8872223 44.6902390
88.4932938 -103.9199295 44.5495796
87.8884277 -103.9636459 44.3953285
87.2612915 -104.0060883 44.2259789
84.9227066 -104.1497955 43.5305939
84.3141479 -104.1967545 43.3183861
57.0552979 -107.9448013 21.3265438
111.4644470 -102.8261108 44.6782455
98.0225449 -102.9498291 45.8454247
97.4191360 -102.9636383 45.8395500
57.0634460 -107.3211136 21.4593639
111.4668808 -102.2494202 44.6611824
98.0187302 -102.3664093 45.8559303
55.8785400 -107.0184555 19.5643520
111.5127029 -101.6742096 44.5974731
55.8859253 -106.3990707 19.6437340
112.7296524 -101.1047516 44.3391304
55.9151840 -105.7741928 19.7612934
112.7039032 -100.5242004 44.3246384
96.7897034 -100.6634064 45.7138939
96.1936951 -100.6759415 45.7377167
95.6181488 -100.6803055 45.7877388
86.0708160 -101.1518402 43.8716545
85.4965591 -101.1862640 43.6989021
55.9107780 -105.1616364 19.8195190
86.0683746 -100.5690308 43.8718071
85.4882278 -100.6038437 43.6979752
84.8982086 -100.6437988 43.5206833
84.3176346 -100.6755142 43.3406029
82.5549545 -100.8019180 42.7182693
81.9517517 -100.8488083 42.4887543
81.3568115 -100.8939438 42.2557678
80.7764816 -100.9355087 42.0208244
57.0430794 -104.2590256 21.7685509
95.2908096 -99.4094238 46.6256943
94.9082642 -99.3002014 47.4650307
94.5356598 -99.1943283 48.2799530
94.1715012 -99.0912399 49.0754776
80.7716599 -100.3528442 42.0055161
57.0257721 -103.6527481 21.7962341
112.7013397 -98.7898254 44.2305298
95.2945251 -98.8287277 46.6164284
94.9084320 -98.7200165 47.4563332
94.5352631 -98.6151733 48.2695541
94.1763229 -98.5143585 49.0532608
80.7751465 -99.7697983 41.9766121
56.9965172 -103.0529251 21.7817364
112.7068253 -98.2170792 44.1824684
80.7753525 -99.1896820 41.9324570
56.9945564 -102.4495087 21.7837219
115.2246094 -97.6868439 43.4281540
114.5893097 -97.6727524 43.6183052
113.9517746 -97.6614761 43.7989960
113.3355408 -97.6521912 43.9657631
111.5422058 -97.6488571 44.2761307
80.7552948 -98.6134033 41.8708076
57.0122910 -101.8442688 21.7916622
115.2278595 -97.1117859 43.3726463
111.5364380 -97.0726700 44.2293510
80.7626038 -98.0337067 41.8138885
56.9925041 -101.2513046 21.7232132
115.2401352 -96.5373764 43.3077011
55.8493805 -100.9279938 19.8245201
115.2479095 -95.9657745 43.2293777
55.8505211 -100.3313599 19.7626915
81.9518509 -96.2144547 42.0802307
55.8695831 -99.7307129 19.7259407
82.5634995 -95.5958710 42.2368965
81.9542313 -95.6387177 42.0004082
55.8663788 -99.1368561 19.6419964
112.7444916 -94.2158279 43.6366959
112.1918259 -94.2256699 43.7645454
82.5481567 -95.0204926 42.1501770
81.9562225 -95.0628586 41.9223785
81.3629913 -95.1051636 41.6945190
80.7719803 -95.1475983 41.4620972
80.1963425 -95.1908951 41.2238426
79.6116333 -95.2363052 40.9672241
55.8608627 -98.5453568 19.5395546
112.7425385 -93.6477051 43.5326996
112.1902618 -93.6460724 43.6631203
55.8603859 -97.9545670 19.4291592
145.0646210 -95.7283325 18.1636829
55.8809128 -97.3623962 19.3341885
145.0819244 -95.1583328 17.9453049
81.3786163 -93.3822174 41.4015198
79.6218109 -93.5133743 40.6589851
55.9062157 -96.7722855 19.2234936
55.2754478 -96.9224319 18.1351929
143.4376678 -94.2599716 20.5425568
143.4525299 -93.6915588 20.3290482
84.3412094 -92.0476456 42.2035370
143.4767456 -93.1292572 20.0642357
85.5480957 -91.4126587 42.4381752
55.9217377 -95.0189285 18.7389603
55.2938766 -95.1658249 17.6418667
144.3482513 -92.7168884 18.4421196
143.5066833 -92.5688019 19.7786808
88.4990845 -90.6815720 43.1103401
87.9207230 -90.7146072 42.9526634
87.3240433 -90.7460022 42.7877998
86.7152405 -90.7770691 42.6200294
86.1113968 -90.8067627 42.4576607
85.5381012 -90.8403320 42.3030930
107.8355637 -89.6470261 43.6870995
93.8727798 -89.8929825 43.9052505
93.2869263 -89.9126282 43.8292274
88.4920883 -90.1102676 42.9671059
87.9251785 -90.1476822 42.8142967
87.3267212 -90.1788177 42.6508865
86.7195892 -90.2086334 42.4876175
86.1369095 -90.2406693 42.3348083
85.5485764 -90.2709656 42.1750221
107.8579330 -89.0849991 43.5184555
107.2495956 -89.0862885 43.6112823
106.6462784 -89.0839539 43.6897812
102.9545822 -89.1072464 44.0788116
102.3610382 -89.1128616 44.0962563
97.4895554 -89.2209930 44.0829964
96.8831635 -89.2316742 44.0519943
93.8828964 -89.3265076 43.7425652
93.2979355 -89.3508453 43.6678391
55.9213600 -93.2690048 18.1868782
142.8584442 -90.7320175 20.1813049
142.0296478 -90.6008759 21.4112225
106.7173615 -88.5279007 43.5076141
102.9645081 -88.5469208 43.8951988
102.3403549 -88.5614014 43.9152908
93.8992767 -88.7676849 43.5828247
93.3278732 -88.7839279 43.5081177
89.7243347 -88.9266281 42.9297829
55.9285011 -92.6909180 17.9547424
142.0880432 -90.0425568 21.0816383
106.7178040 -87.9493866 43.3466187
104.8060303 -87.8981476 43.5669975
90.3246078 -88.3340607 42.8833847
89.7343216 -88.3649597 42.7578621
89.1311798 -88.3899307 42.6264000
55.9259071 -92.1138611 17.7016773
142.1162872 -89.4872971 20.7674370
102.9823532 -87.4243240 43.5540352
90.3358459 -87.7711411 42.7118797
57.0877914 -91.2826996 19.3952656
142.1751862 -88.9378128 20.3752918
103.0054779 -86.8617401 43.3697624
99.9564285 -86.9094162 43.4518318
99.3603592 -86.9197388 43.4531479
98.7559128 -86.9432220 43.4464836
95.7645264 -86.9827423 43.3273430
95.1707535 -86.9654236 43.2641983
94.5404739 -86.9888611 43.1584167
93.3417206 -87.0230560 42.9966240
92.7426300 -87.1079330 42.9598999
90.3433228 -87.2053375 42.5386620
57.1091690 -90.7080383 19.1575260
56.5362663 -90.8331757 18.2127304
143.0701141 -88.5208588 18.6771812
142.2109680 -88.3788300 20.0308380
89.7649536 -86.6714096 42.2397003
89.1623154 -86.6990814 42.1046448
89.1620102 -86.1275635 41.9157982
142.3421478 -87.2770615 19.2199783
92.1700592 -85.4418945 42.2947273
89.2012329 -85.5726013 41.7295418
56.0024071 -89.2585678 16.2719479
142.4359436 -86.7316208 18.7205811
92.1905823 -84.8897705 42.0795631
91.5908585 -84.9088211 41.9842033
89.2123718 -85.0087280 41.5201759
86.2296066 -85.1518021 40.7230186
85.6458054 -85.1861267 40.5461349
85.0749435 -85.2266312 40.3722763
84.4544983 -85.2545319 40.1739540
56.0145760 -88.6894455 15.9215603
56.0182991 -88.1197891 15.5512409
140.9443665 -84.8473053 19.8988533
57.2050591 -86.7337036 16.9326172
56.6181984 -86.8617096 15.8795118
141.0605469 -84.2985306 19.3340416
57.2143364 -85.6048431 16.1291294
141.2222900 -83.2126160 18.6811161
57.2351837 -85.0427856 15.7151442
85.7609787 -81.2656860 38.9251328
87.5726471 -80.6191025 39.1718330
86.9651108 -80.6425247 39.0045891
86.3798523 -80.6757660 38.8340530
85.8159409 -80.7231522 38.6661301
139.8255005 -81.3845596 18.9192848
58.4615097 -83.1297150 16.4610348
57.8631134 -83.2417755 15.4208078
140.7680664 -80.9708328 17.0042610
139.8888855 -80.8502960 18.3497543
58.4845123 -82.5706406 16.0118523
58.4893188 -82.0064087 15.5114107
140.0688019 -79.7930603 17.0520935
140.1854095 -79.2583542 16.3065147
59.7016525 -80.6831589 16.5021782
59.1282082 -80.7857819 15.5458775
59.7293358 -80.1258240 15.9882870
138.7368011 -77.9765244 17.4520779
59.7367821 -79.5710068 15.4132662
138.8570557 -77.4365158 16.7118073
138.1861877 -76.8035278 17.1325722
137.4059448 -76.7172852 18.2208195
60.9405746 -78.2667923 16.1680927
60.3484497 -78.3670807 15.1943274
137.5137634 -76.1737976 17.5177479
60.9672356 -77.7194290 15.5767250
-128.4133759 -90.0591278 -69.0631104
-129.0844574 -90.0457230 -69.0047913
60.9927826 -77.1753082 14.9531031
60.4200020 -77.2750244 13.9896650
-132.8460999 -89.1756439 -66.6427383
61.0264626 -76.6335068 14.3218393
-118.1730270 -88.4925842 -68.8602982
-118.7754593 -88.4238586 -68.2457047
-119.3893661 -88.3595428 -67.7193451
-120.0270615 -88.2605286 -67.1941376
-132.5160217 -88.1612320 -64.2558365
-133.2294006 -88.2493286 -64.4260330
-133.9214478 -88.3056335 -64.6088257
-134.6182709 -88.3370590 -64.8239517
-135.3433990 -88.3668060 -65.1189041
-136.0583496 -88.4414215 -65.6037445
136.2577362 -74.4095230 17.4250641
61.0377350 -76.0820770 13.6204510
-116.0654526 -87.7152481 -68.3107529
-140.1569977 -87.8374710 -65.6441116
-114.0146179 -86.9789581 -68.1421509
-114.6200943 -86.8876343 -67.4038162
-115.2179718 -86.7825775 -66.7026443
-115.8227921 -86.7174530 -66.1065903
-136.2030029 -86.5954437 -61.5752182
-136.9305878 -86.6450119 -61.8797226
-137.6454010 -86.6700516 -62.1863861
-138.3769684 -86.7038040 -62.5619850
-139.0782623 -86.7423782 -62.9113960
-139.8322296 -86.8440247 -63.3605461
-140.6061554 -86.9767914 -63.8695793
136.4589996 -73.4186020 15.6299143
62.2888527 -74.7997818 14.2808256
136.5372620 -72.9135742 14.7299414
62.3091011 -74.2535477 13.5378189
-110.0248032 -85.6355667 -69.0566330
-110.6076355 -85.5109406 -68.0002365
-111.1981812 -85.4062653 -67.0599518
-111.7863846 -85.3133316 -66.2481842
-141.5322723 -85.2905731 -60.9386749
-142.2717743 -85.3742447 -61.4235878
-143.0470886 -85.4599991 -61.9764786
137.6154938 -72.5359192 12.0460339
136.7255554 -72.3961716 13.6758118
135.9300842 -72.2865677 14.9492741
135.1279449 -72.1887894 16.1456833
135.3022156 -71.6547241 15.1495285
62.3943748 -73.1821594 11.9843941
-107.2699814 -84.1953125 -68.7781067
-107.8658142 -84.0481339 -67.6900635
-144.0804901 -83.8818436 -59.6908836
63.5768051 -72.4616547 13.1741629
63.0100250 -72.5633545 12.1826811
-106.5192490 -83.3656769 -67.8108826
-145.3514404 -83.1749725 -59.2217484
63.6223564 -71.9443970 12.3333397
-105.2076035 -82.6605606 -68.0066223
-105.7766113 -82.5585327 -66.9737549
-106.3528976 -82.4484024 -65.9723816
-145.1142731 -82.2872314 -57.7878227
-145.8944244 -82.3964844 -58.3584785
-146.6669159 -82.4845963 -58.9403915
134.0828705 -69.9278412 14.5700197
65.9450531 -70.9960785 15.2707415
-105.0259323 -81.7923279 -66.2970963
-104.3110199 -81.0766449 -65.6598358
-104.8614578 -80.9438629 -64.7021103
-147.7653961 -80.9597397 -57.3849220
-148.5233612 -81.0361099 -57.9890862
-149.3147583 -81.1298294 -58.6861000
-150.1199036 -81.2257462 -59.4358444
132.8640137 -68.7434692 14.5484695
-102.9305038 -80.3609467 -66.1335602
-103.5607758 -80.2768326 -65.0626907
66.0944977 -69.4246063 12.7545347
-101.0961609 -79.9037170 -67.9968567
-102.8276291 -79.5589294 -64.7038040
-103.4000931 -79.4810257 -63.7799301
131.5311279 -67.6087265 14.5875587
66.1711197 -68.9035950 11.9004078
-100.9682693 -79.0198517 -66.3879318
-151.8244781 -79.0246277 -57.4701042
132.5516663 -67.1724701 12.1455078
131.7129059 -67.0979614 13.3909292
-99.1293793 -78.5680847 -68.5003738
-99.6851120 -78.4214325 -67.2519531
-100.2431335 -78.3098526 -66.1167526
-100.8095016 -78.2143707 -65.0580826
-151.6212463 -78.1950150 -56.2894592
-152.4476471 -78.3145294 -57.0223579
131.8996735 -66.5776215 12.1408234
131.0828857 -66.4884033 13.3620205
130.2811890 -66.4107742 14.4944172
67.3747482 -67.6470108 11.8386192
-98.4336548 -77.8385696 -68.2746735
130.4499664 -65.8787460 13.3871059
-97.7393723 -77.1069946 -68.0657120
-98.2985992 -76.9884491 -66.8496094
-152.8663025 -76.8060303 -55.4216003
68.6481781 -66.4359436 11.6796732
68.0911789 -66.5206375 10.8240089
-97.0347977 -76.4253845 -68.0038223
68.6953201 -65.9094162 10.6165800
-96.9325790 -75.5811462 -66.5924301
128.6500702 -64.1618881 12.6586771
127.8856277 -64.1284637 13.5923500
69.9204865 -65.2274780 11.3735390
69.3111649 -65.3050461 10.4120760
-155.5628510 -74.8032684 -55.2753906
128.0914307 -63.5999832 12.2983646
69.9764938 -64.7065964 10.2659588
-95.5803452 -74.2068253 -66.5979462
126.7958298 -62.9902382 12.7650175
72.3191986 -63.8717804 12.4764299
71.7387238 -63.9456062 11.6898785
-155.2650452 -73.2708969 -53.4131203
126.9638748 -62.4858780 11.4377708
72.3755035 -63.3597069 11.3766870
-93.1437759 -73.1209412 -69.7223053
-155.1080017 -72.4839020 -52.5648575
-155.8647308 -72.5625076 -53.2241402
-156.6481781 -72.6463852 -53.9490013
-157.4740601 -72.7524414 -54.7574654
126.3774948 -61.9323463 11.0313444
125.5676956 -61.8659782 12.1302462
72.4506531 -62.8421288 10.2455568
-93.0641937 -72.2751236 -68.3358612
-158.1551208 -72.0782318 -54.7077179
-92.3983078 -71.6151428 -68.6094360
-92.9723206 -71.4692764 -67.1183472
-157.9959717 -71.2936249 -53.8343124
-158.8018494 -71.4030914 -54.6128159
124.3756714 -60.7855339 11.1255817
74.9199448 -61.5303040 11.0431242
74.3495026 -61.6026268 10.3040352
73.7748947 -61.6646461 9.5188475
73.1958847 -61.7198143 8.6900349
-91.7274094 -70.9723053 -68.9842987
125.4307327 -60.3644791 8.3066864
124.6472855 -60.2730598 9.4330101
74.9948807 -61.0094948 9.7803106
-91.0596390 -70.3338013 -69.3831711
-91.6137161 -70.1877060 -67.9076309
-159.2591095 -69.9236069 -53.8497124
123.3234253 -59.6544571 9.8482409
77.3929291 -60.2551880 11.4077625
76.8229904 -60.3230438 10.7447844
-91.5068359 -69.4183426 -66.8727036
77.5005188 -59.7584839 10.1479616
-91.4446640 -68.6338272 -65.8140411
121.5786514 -58.5336189 9.0250854
120.8201141 -58.4818954 9.9207354
120.0790558 -58.4314842 10.7174606
119.3207550 -58.4194107 11.5025349
77.5972748 -59.2753830 8.7776566
-90.7906799 -67.9888382 -66.2058258
-91.3395996 -67.8872452 -64.9668655
-160.5629578 -67.8829117 -53.1602135
-161.3972626 -67.9993515 -54.0150070
119.5423203 -57.8892708 9.8790493
-91.2515488 -67.1478806 -64.1421127
-160.4138489 -67.1317520 -52.4028854
119.0207291 -57.3610382 8.9810104
118.2736664 -57.3369713 9.7834349
80.0915756 -57.9906731 8.7651491
79.5137100 -58.0325356 8.0930691
-91.1918030 -66.3859711 -63.2911835
-161.9748383 -66.6009674 -53.4107971
-161.8107605 -65.8369141 -52.7213669
-162.6763916 -65.9530334 -53.6382751
116.5992508 -56.2374573 8.2846613
115.8564606 -56.2506447 8.9823875
81.4794922 -56.8817024 6.9920444
-91.6620636 -64.8145294 -60.7265205
-92.2513657 -64.7487411 -59.7650375
-163.3861237 -65.3010330 -53.9189911
-164.2367706 -65.3993607 -54.9142952
116.1054382 -55.7338142 7.0535975
81.6051178 -56.3549232 5.3008189
-92.2073746 -64.0266266 -59.1613579
-163.2343140 -64.5375748 -53.2321968
114.8762970 -55.1857338 6.4953918
114.1562500 -55.1796837 7.1673908
113.4465256 -55.1850586 7.7687473
84.0420380 -55.6847382 6.0725913
-92.1570282 -63.3030472 -58.6086617
113.6963806 -54.6743965 5.6738482
-92.0781326 -62.6075478 -58.1620255
110.4705353 -54.1461143 6.3731394
89.0484314 -54.4007721 6.5946884
88.4668274 -54.4283829 6.2028055
87.8717270 -54.4409752 5.7198162
87.2703552 -54.4684143 5.2016115
86.6790314 -54.4977036 4.6398072
-164.6022797 -62.5430222 -53.3027802
89.2006226 -53.9077301 4.6241188
-164.4633636 -61.8027382 -52.7692413
107.5388107 -53.0920296 4.0242996
104.2530899 -53.0374756 5.6447530
103.6104584 -52.9881821 5.8539085
102.9610214 -52.9761848 5.9593201
102.3048859 -52.9609566 6.0871978
92.9956894 -53.2699661 4.8640513
92.3640823 -53.2731323 4.4732394
91.7626114 -53.2721519 4.0922503
91.1801987 -53.2974586 3.7347400
90.5735703 -53.3321266 3.3060119
89.9757767 -53.3692856 2.8137336
104.5936279 -52.5174751 3.4634099
93.1855927 -52.7381287 2.4423003
103.1044540 -52.1530457 2.1375751
102.1866150 -52.1024818 1.2047076
101.5385895 -52.1031876 1.3070620
100.8878632 -52.0997391 1.4175456
100.2568893 -52.1046715 1.4979713
99.6296234 -52.1060333 1.5487356
98.9809570 -52.1203003 1.4993134
98.3407593 -52.1416702 1.3833823
97.7215881 -52.1511078 1.2962173
97.1065826 -52.1687775 1.1864502
96.4847870 -52.1946602 1.0054045
-165.9305573 -59.8509827 -53.0261879
-165.8230743 -59.1224403 -52.5351181
-89.5449066 -56.4104424 -57.2566223
-167.3112030 -57.1691895 -53.2340813
-168.1826019 -57.2630234 -54.2899284
-89.4799576 -55.7156143 -57.0008392
-167.2175140 -56.4514313 -52.8041801
-89.9423447 -55.0429840 -56.3059921
-90.4894409 -54.9978371 -55.5809364
-167.1443787 -55.7390862 -52.3944855
-90.4694595 -54.3062401 -55.3024864
-167.0751953 -55.0336266 -52.0281410
-167.9351501 -55.1279564 -53.0339432
-168.7994537 -55.2206039 -54.0837669
-90.4763031 -53.6018982 -55.0161705
-90.4668350 -52.9089432 -54.7953796
-166.9035950 -52.9358521 -51.0534897
-166.8567657 -52.2420425 -50.7752991
-167.7012787 -52.3209572 -51.7215157
-168.5486145 -52.4051056 -52.6997375
-169.3869476 -52.4869652 -53.6920052
-168.4964905 -51.7068253 -52.4316444
-89.2526627 -50.2099457 -55.5851593
-168.4275360 -51.0080643 -52.1347046
-88.0233612 -49.6809387 -57.1366959
-87.9836044 -49.0063095 -57.0114326
-125.9314728 -47.3114700 -33.9779892
-126.5706177 -47.3179359 -33.9327774
-127.2315369 -47.3284760 -33.8973770
-127.8802567 -47.3304291 -33.8688812
-127.8805389 -46.6671448 -33.7968445
-124.5901871 -45.9786415 -33.9702301
-127.8637695 -46.0003815 -33.7356033
-124.5923920 -45.3175812 -33.9147301
-125.2427368 -45.3226624 -33.8406181
-127.8634491 -45.3404541 -33.6818504
-86.7466278 -45.7095375 -58.2475433
-113.0799103 -44.6890526 -36.5708580
-113.7197952 -44.6863708 -36.3489189
-114.3744583 -44.6779213 -36.1289330
-114.9992676 -44.6695786 -35.9280319
-116.8919144 -44.6639175 -35.3798904
-117.5358353 -44.6567345 -35.1972351
-118.1731262 -44.6511116 -35.0248413
-118.8092117 -44.6525536 -34.8666573
-119.4648590 -44.6396599 -34.7156754
-120.0988235 -44.6418152 -34.5851784
-168.1907501 -46.1911507 -50.8677025
-169.0456848 -46.2624969 -51.8189812
-86.7489014 -45.0275726 -58.1473274
-116.8973999 -43.9982834 -35.3410378
-120.0917816 -43.9875908 -34.5441055
-168.1797485 -45.5095711 -50.7580452
-86.7629623 -44.3462791 -58.0458794
-116.8940277 -43.3344955 -35.3084602
-120.0843582 -43.3249321 -34.5192299
-124.5677032 -43.3345947 -33.8143120
-127.8356857 -43.3523369 -33.5110359
-128.4875031 -43.3598824 -33.4903145
-129.1737061 -43.3702621 -33.4869385
-133.7666931 -43.4370766 -33.6245193
-86.7509995 -43.6727409 -58.0179214
-120.0768890 -42.6678886 -34.5060081
-124.5697632 -42.6734581 -33.7895393
-113.0583115 -42.0429840 -36.4348984
-114.9944534 -42.0256920 -35.8818474
-115.6293869 -42.0383644 -35.6940765
-116.2902069 -42.0163383 -35.4962578
-119.4521713 -42.0057907 -34.6269722
