-88.2896347 -38.1210365 -48.1443558
-89.4251022 -38.0391159 -46.5716362
-90.6004791 -37.9746323 -45.0321846
-131.9526367 -37.4761047 -27.4346657
-133.2734985 -37.4942322 -27.5666847
-134.5928955 -37.5172462 -27.7446480
-135.9513855 -37.5493622 -27.9717979
-137.2746887 -37.5706139 -28.2162189
-138.6318207 -37.6056709 -28.5076256
-160.0776520 -38.4291687 -39.8338089
-161.6461029 -38.5251465 -41.3652115
-163.2727051 -38.6549263 -43.1798935
-88.1937485 -36.7582207 -47.5402222
-89.3622360 -36.6837082 -45.9713440
-90.5539856 -36.6161118 -44.4494247
-131.8956909 -36.1428375 -27.0408707
-133.2236328 -36.1653671 -27.1756897
-134.5477600 -36.1889572 -27.3491859
-135.8891144 -36.2128143 -27.5603714
-137.2329712 -36.2391739 -27.8053818
-138.5610809 -36.2639542 -28.0854473
-159.9728394 -37.0631561 -39.1668358
-161.5202332 -37.1502075 -40.6485596
-163.0971680 -37.2430077 -42.2885475
-88.1353302 -35.3969650 -46.9836769
-131.8529510 -34.8194504 -26.6891499
-133.1790771 -34.8348083 -26.8151207
-138.5259857 -34.9400024 -27.7236156
-163.0252533 -35.8854713 -41.6285782
-88.0965576 -34.0392380 -46.4769363
-131.8035278 -33.4949379 -26.3725700
-133.1338806 -33.5123138 -26.4976044
-138.4774475 -33.6130562 -27.3956566
-162.9182739 -34.5205193 -41.0140228
-164.5458984 -34.6265793 -42.7462997
-88.0562439 -32.6902924 -46.0385399
-123.9538727 -32.0962563 -26.0850163
-125.2564774 -32.1054001 -25.9946632
-126.5422363 -32.1124458 -25.9484100
-127.8568497 -32.1303902 -25.9464455
-129.1441956 -32.1415329 -25.9652786
-130.4696808 -32.1582489 -26.0130615
-131.7702942 -32.1756973 -26.0978146
-133.1006775 -32.1916275 -26.2268620
-134.4264069 -32.2173843 -26.3979397
-135.7575226 -32.2379341 -26.5937157
-137.0988007 -32.2611313 -26.8241653
-138.4311829 -32.2864914 -27.0942783
-162.8421631 -33.1616096 -40.4921227
-164.4288177 -33.2558746 -42.1637955
-166.1224365 -33.3755226 -44.0652008
-86.8491898 -31.4060936 -47.2857819
-88.0392532 -31.3405514 -45.6420364
-123.9276962 -30.7792912 -25.8551311
-125.2105408 -30.7861614 -25.7645645
-126.5085602 -30.7948818 -25.7215595
-127.8184357 -30.8089924 -25.7223511
-129.0939331 -30.8155212 -25.7329044
-130.4327393 -30.8372841 -25.7765350
-131.7446136 -30.8579350 -25.8590755
-133.0685577 -30.8728313 -25.9808540
-134.3825226 -30.8918991 -26.1443214
-135.7178955 -30.9153652 -26.3394604
-137.0532227 -30.9370499 -26.5646763
-138.3948822 -30.9648247 -26.8348999
-162.7832794 -31.8095226 -40.0503197
-164.3585205 -31.8980904 -41.6877975
-86.8062592 -30.0646343 -46.9911766
-87.9997101 -30.0002518 -45.3367767
-121.3494110 -29.4553719 -25.9411392
-122.6167908 -29.4587784 -25.7906647
-123.8934021 -29.4630909 -25.6669388
-125.2031250 -29.4784775 -25.5766602
-130.4121094 -29.5222244 -25.5868874
-131.7128296 -29.5380020 -25.6549530
-133.0434265 -29.5552998 -25.7724094
-134.3713684 -29.5792065 -25.9375305
-135.6910553 -29.5977516 -26.1279945
-162.7119446 -30.4576530 -39.6556587
-164.2920380 -30.5442047 -41.2748795
-85.6363983 -28.7829514 -48.3879814
-86.7903748 -28.7219238 -46.6972046
-87.9810715 -28.6624947 -45.0609207
-121.3271255 -28.1420765 -25.7806396
-122.5972595 -28.1470966 -25.6341496
-123.8970413 -28.1544685 -25.5171871
-131.6998138 -28.2275620 -25.4890289
-133.0283508 -28.2442818 -25.6087379
-134.3350525 -28.2625847 -25.7676582
-135.6714020 -28.2843933 -25.9565678
-162.6584625 -29.1121979 -39.3395576
-164.2362366 -29.1950932 -40.9379349
-165.8827057 -29.2904739 -42.7388611
-85.6065903 -27.4442101 -48.1705933
-106.1840973 -26.8807297 -30.1290855
-107.4395676 -26.8677254 -29.5485268
-108.6743011 -26.8572979 -29.0165348
-109.9370193 -26.8466358 -28.5112076
-111.1801529 -26.8406353 -28.0717754
-112.4401398 -26.8352852 -27.6577034
-116.2210464 -26.8272038 -26.6105042
-117.4770126 -26.8275719 -26.3219337
-118.7662354 -26.8258362 -26.0465183
-120.0235901 -26.8276901 -25.8310280
-121.3189697 -26.8321457 -25.6525669
-122.5815201 -26.8363323 -25.5089760
-134.3240509 -26.9506493 -25.6294727
-135.6528015 -26.9684753 -25.8184643
-165.8442078 -27.9411030 -42.4450417
-84.3886185 -26.1725502 -49.8581657
-85.6023865 -26.1034718 -47.9739380
-106.1815948 -25.5676746 -30.0289326
-107.4362488 -25.5569000 -29.4596043
-108.6796875 -25.5453815 -28.9259109
-109.9436569 -25.5348263 -28.4280319
-111.1656189 -25.5315533 -27.9935951
-112.4438019 -25.5215015 -27.5495396
-116.2085419 -25.5158577 -26.4989548
-117.4690781 -25.5127106 -26.2065792
-130.3695679 -25.5912247 -25.1906624
-134.3088226 -25.6401424 -25.5306282
-135.6487274 -25.6603413 -25.7198372
-165.7999420 -26.5948086 -42.2027397
-84.3991547 -24.8327961 -49.7177200
-85.5912933 -24.7695141 -47.8557892
-106.1735229 -24.2585087 -29.9667625
-107.4328995 -24.2469883 -29.4071655
-112.4226913 -24.2177010 -27.4944305
-116.1954956 -24.2097969 -26.4134331
-117.4504700 -24.2089252 -26.1398525
-129.0297546 -24.2683525 -25.0580082
-130.3725891 -24.2842255 -25.1399422
-131.6737671 -24.2988396 -25.2228279
-132.9893341 -24.3141880 -25.3274307
-134.2929840 -24.3298244 -25.4586277
-135.6340637 -24.3488808 -25.6485214
-165.7619019 -25.2505722 -42.0363235
-84.3974228 -23.4977646 -49.6698380
-85.5882492 -23.4374828 -47.7835007
-106.1848221 -22.9482841 -29.9331665
-107.4375687 -22.9383240 -29.3894482
-134.2946472 -23.0228767 -25.4136906
-135.6329956 -23.0420570 -25.6192665
-165.7477417 -23.9117260 -41.9623833
-167.4155426 -23.9987984 -43.8797989
-82.1309357 -22.2969933 -53.8832092
-83.2611542 -22.2267723 -51.6588287
-84.4090118 -22.1642551 -49.6483612
-85.5888824 -22.1070557 -47.7740173
-106.1661835 -21.6421776 -29.9517956
-107.4394302 -21.6309757 -29.3723412
-135.6423035 -21.7358780 -25.6195774
-82.1217346 -20.9618568 -53.9709930
-83.2766495 -20.8932037 -51.6977463
-84.4164276 -20.8336716 -49.6947784
-85.5959854 -20.7787685 -47.8179207
-106.1884766 -20.3349743 -29.9783707
-107.4454880 -20.3260078 -29.4005489
-109.8727188 -20.3701286 -30.2886124
-135.6369629 -20.4298954 -25.6529007
-79.9240417 -19.7893372 -59.5109787
-81.0050812 -19.7022514 -56.6299744
-82.1308975 -19.6276131 -54.0944786
-83.2770615 -19.5622635 -51.8386002
-106.1947861 -19.0307350 -30.0636063
-129.0528870 -19.0551281 -25.1754456
-130.3966370 -19.0668125 -25.2298794
-131.6838074 -19.0793266 -25.2924385
-134.3209381 -19.1012745 -25.5278339
-135.6537018 -19.1266174 -25.7414665
-165.7702637 -19.9092197 -42.0672989
-167.4192352 -19.9841957 -43.9671516
-79.9591751 -18.4512939 -59.7209778
-81.0265121 -18.3668804 -56.8172607
-82.1585999 -18.2951736 -54.2544136
-83.2987900 -18.2321701 -51.9927864
-106.2084045 -17.7259560 -30.1831989
-116.2424469 -17.6938267 -26.6443787
-117.5100479 -17.6950226 -26.3390808
-130.3981018 -17.7650127 -25.3238907
-135.6793823 -17.8239231 -25.8579140
-165.8111267 -18.5790138 -42.2451630
-79.9827576 -17.1162415 -60.0822525
-81.0575256 -17.0341854 -57.0950890
-106.2302628 -16.4224739 -30.3238621
-107.4950333 -16.4175415 -29.7298069
-108.7267151 -16.4099464 -29.2050171
-109.9805298 -16.4040890 -28.7075539
-111.2123108 -16.3982830 -28.2411537
-114.9893265 -16.3950691 -27.0872688
-116.2628098 -16.3949966 -26.7813148
-117.5138016 -16.3965874 -26.5058289
-118.8054504 -16.3979931 -26.2465172
-120.0650940 -16.4005966 -26.0176201
-121.3431778 -16.4049187 -25.8020592
-130.4137573 -16.4650898 -25.4566498
-135.6929016 -16.5218964 -26.0020332
-165.8668671 -17.2492809 -42.4818153
-80.0188065 -15.7827835 -60.5188942
-81.0914230 -15.7037144 -57.4867134
-106.2553406 -15.1212482 -30.4987965
-107.5081406 -15.1112041 -29.9310799
-108.7464218 -15.1065769 -29.3978271
-109.9978180 -15.1030865 -28.8851395
-111.2393265 -15.0981045 -28.4177074
-116.2906342 -15.0959406 -26.9699669
-117.5347748 -15.0972786 -26.6896210
-118.8226471 -15.0983248 -26.4269218
-120.0919113 -15.0993509 -26.1929493
-123.9353333 -15.1187458 -25.7214451
-125.2493439 -15.1237040 -25.6715698
-126.5303192 -15.1341791 -25.6131992
-127.8271637 -15.1464233 -25.5815697
-129.1226349 -15.1522369 -25.5956383
-130.4435120 -15.1649857 -25.6367340
-131.7433472 -15.1757355 -25.7049427
-133.0711975 -15.1893339 -25.8282776
-134.3911743 -15.2050190 -25.9906139
-135.7307129 -15.2190485 -26.1856289
-165.8945923 -15.9217529 -42.7570000
-81.1279373 -14.3743658 -57.9673271
-108.7738190 -13.8082380 -29.5978489
-110.0313187 -13.8024235 -29.0921688
-111.2705383 -13.7963505 -28.6344547
-115.0416107 -13.7962523 -27.4737778
-116.3146057 -13.7963562 -27.1645660
-117.5689011 -13.7970295 -26.8825054
-118.8504715 -13.7996111 -26.6233006
-125.2468262 -13.8285389 -25.8502960
-162.7407837 -14.4805393 -39.7351227
-164.3007355 -14.5362310 -41.3120995
-165.9434814 -14.5964298 -43.1191711
-80.0798416 -13.1117182 -61.6343079
-81.1899872 -13.0470610 -58.4897423
-108.7998657 -12.5058823 -29.8429260
-110.0597839 -12.5011530 -29.3406677
-111.2984009 -12.4986820 -28.8851013
-115.0749741 -12.4981709 -27.7060986
-116.3555603 -12.5009995 -27.3904247
-117.6014557 -12.4994545 -27.1131897
-118.8886719 -12.5048018 -26.8565197
-120.1549683 -12.5017185 -26.6383686
-125.2865448 -12.5267239 -26.0817986
-162.8091125 -13.1603355 -40.1311798
-164.3836212 -13.2140760 -41.7432060
-80.1485748 -11.7789068 -62.3505859
-81.2470856 -11.7190580 -59.1194763
-108.8313599 -11.2051144 -30.1310158
-110.0920639 -11.2014427 -29.6302719
-115.1047897 -11.1954441 -28.0034561
-118.9273911 -11.2066898 -27.1458092
-120.1891251 -11.2071400 -26.9328995
-121.4865570 -11.2115602 -26.7525291
-122.7598267 -11.2098150 -26.6061707
-162.8813477 -11.8390017 -40.5814400
-164.4716187 -11.8912668 -42.2300301
-166.1293030 -11.9398041 -44.0551910
-81.3008957 -10.3897591 -59.8830185
-108.8731003 -9.9073811 -30.4595585
-110.1359253 -9.9019232 -29.9577789
-115.1540527 -9.9001808 -28.3287182
-118.9628067 -9.9054985 -27.4655228
-120.2278595 -9.9094629 -27.2433243
-121.5224533 -9.9184875 -27.0602818
-122.7943344 -9.9186296 -26.9066296
-162.9538116 -10.5202618 -41.0798035
-164.5555115 -10.5679111 -42.7620163
-81.3745422 -9.0609350 -60.7475052
-82.4792480 -9.0105429 -57.7210503
-83.5929718 -8.9560738 -55.1084785
-108.9100876 -8.6006985 -30.8350048
-110.1816483 -8.6072903 -30.3216171
-111.4176178 -8.5985394 -29.8726730
-112.6855392 -8.6023712 -29.4382076
-113.9364853 -8.5982418 -29.0456657
-115.1992645 -8.5974636 -28.6857967
-131.9550018 -8.6763945 -27.1290169
-133.2807922 -8.6880188 -27.2481308
-134.6020050 -8.7033091 -27.4195766
-135.9302979 -8.7215872 -27.6272469
-137.2709351 -8.7336960 -27.8612041
-138.6138153 -8.7466965 -28.1310730
-163.0586700 -9.1990805 -41.6730156
-164.6712646 -9.2427349 -43.3982582
-82.5502472 -7.6843576 -58.6405678
-83.6680908 -7.6333380 -55.8890724
-108.9683456 -7.3032312 -31.2389641
-110.2288208 -7.3052258 -30.7321434
-111.4595947 -7.3006783 -30.2738743
-112.7335281 -7.3006992 -29.8285370
-113.9871521 -7.3004036 -29.4306221
-115.2462234 -7.3024178 -29.0629997
-131.9906921 -7.3785319 -27.5031319
-138.6673737 -7.4468737 -28.5394802
-163.1507874 -7.8823957 -42.3238220
-82.6322250 -6.3563657 -59.6615715
-83.7480621 -6.3130398 -56.8043213
-132.0533447 -6.0690985 -27.9295750
-138.7421570 -6.1420341 -28.9994583
-163.2953796 -6.5605574 -43.1686478
-82.7242584 -5.0266581 -60.7951431
-83.8450317 -4.9892769 -57.8043213
-132.1297150 -4.7619495 -28.4068756
-136.1224518 -4.8165026 -28.9468479
-137.4653778 -4.8278131 -29.2017059
-138.8216553 -4.8379321 -29.5006599
-163.3889313 -5.2508907 -43.9518318
-83.9113770 -3.6534052 -58.9622765
-85.0357285 -3.6274862 -56.3523216
-86.1805496 -3.5967922 -53.9878616
-132.2026062 -3.4701924 -28.9506493
-133.5329285 -3.4883368 -29.0775623
-134.8603210 -3.4995575 -29.2616024
-136.2088470 -3.5076432 -29.4873657
-160.3839264 -3.8442605 -41.5413780
-161.9591370 -3.8795552 -43.1105194
-163.5946808 -3.9133682 -44.8978310
-85.1536102 -2.3071375 -57.4573784
-86.2726898 -2.2750733 -55.0386429
-132.2742310 -2.1798072 -29.5125637
-133.6176147 -2.1870091 -29.6594429
-134.9424744 -2.1961057 -29.8432579
-136.2830200 -2.2119286 -30.0664940
-160.5223083 -2.5254714 -42.4412689
-162.1243591 -2.5564389 -44.0965958
-85.2546234 -0.9763662 -58.7529068
-86.3840485 -0.9561709 -56.2104950
-157.5885315 -1.1486411 -40.6075897
-159.1428223 -1.1742898 -41.9668579
-160.6884766 -1.2057754 -43.4447098
-86.4980011 0.3680882 -57.5485039
-157.7406921 0.1685150 -41.5755119
-159.3073425 0.1463363 -43.0010643
-160.8827515 0.1231676 -44.5622025
-86.6405716 1.7001852 -58.9959526
-87.7435608 1.7178369 -56.5372009
-88.8804626 1.7380910 -54.2844200
-157.9132690 1.4900951 -42.6540985
-159.4733582 1.4647572 -44.1317902
-87.8860245 3.0405798 -58.0239525
-89.0121231 3.0632453 -55.6599541
-158.1120148 2.8141012 -43.8569145
-159.6928864 2.7969882 -45.4125481
-88.0229797 4.3847466 -59.7554893
-89.1521072 4.3908458 -57.2264748
-155.2208252 4.1755319 -42.3875351
-156.7706909 4.1622286 -43.7115822
-158.3054810 4.1422477 -45.1392746
-89.3279495 5.7096949 -58.9136734
-155.4109192 5.4957952 -43.6548615
-89.4975281 7.0525317 -60.9386024
-90.5985107 7.0657821 -58.3497124
-91.7372665 7.0694914 -56.0713997
-155.6379089 6.8267365 -45.0874329
-90.7424316 8.4220085 -60.2923431
-91.8992767 8.4117327 -57.9192009
-155.8856201 8.1580038 -46.6688690
-92.0931396 9.7501087 -60.0048828
-93.2194748 9.7434473 -57.6880836
-94.3505020 9.7447872 -55.6193275
-150.0735779 9.5302553 -43.3049393
-151.5752869 9.5311432 -44.3804779
-153.0561066 9.5099554 -45.5350037
-154.6066895 9.5026379 -46.8975182
-156.1461029 9.4910736 -48.4030495
-92.3066254 11.1188641 -62.4846916
-93.4286804 11.0837955 -59.9343338
-94.5528564 11.0788794 -57.6377907
-150.3017578 10.8621092 -44.8399734
-151.8036499 10.8585806 -45.9893036
-153.3364410 10.8545170 -47.2934151
-154.8992920 10.8524046 -48.7529449
-93.6390076 12.4627399 -62.5201416
-94.7628174 12.4277000 -59.9314880
-95.9157639 12.4167185 -57.7171936
-97.0652161 12.4143219 -55.7874756
-150.5675964 12.2053490 -46.5737762
-152.0693359 12.1819296 -47.8178253
-96.1497116 13.7667923 -60.1209946
-97.2819901 13.7573900 -58.0033035
-150.8446198 13.5326366 -48.4913864
-97.5237503 15.1282835 -60.5558205
-98.6828613 15.0925722 -58.4201317
-99.8010406 15.1009064 -56.6249657
-100.9841156 15.0881386 -54.9391899
-102.1598358 15.0856152 -53.5012054
-145.2189484 14.9032154 -46.2445869
-146.6659241 14.9025211 -47.1338348
-148.1587982 14.9003325 -48.1672668
-149.6421356 14.8925791 -49.3203087
-151.1768494 14.8926334 -50.6878548
-98.9452209 16.4467068 -61.1949425
-100.0648727 16.4317360 -59.1277161
-101.2262802 16.4338703 -57.2908936
-102.3936157 16.4200325 -55.6478729
-145.4993744 16.2478313 -48.2106323
-146.9537201 16.2407780 -49.1844711
-148.4712219 16.2512112 -50.3645973
-100.3403473 17.8407040 -62.1982269
-101.5172882 17.7836838 -60.0459061
-102.6733170 17.7800598 -58.2159309
-103.8438034 17.7749443 -56.6044998
-105.0139618 17.7629833 -55.1471329
-142.9020386 17.5996704 -48.6134911
-144.3333435 17.5949936 -49.4555817
-145.8341064 17.6058731 -50.4765930
-102.9505920 19.1886539 -61.2272491
-104.1361389 19.1159058 -59.3482056
-105.2915344 19.1010323 -57.7151909
-143.2259521 18.9512482 -50.9457092
-144.6820984 18.9499245 -51.9123383
-146.2007751 18.9613914 -53.1062775
-104.4630585 20.5431423 -62.7606964
-105.6180267 20.4745960 -60.8281555
-106.7869797 20.4601097 -59.1980438
-107.9846344 20.4441833 -57.7235374
-109.1653595 20.4322891 -56.4181900
-110.3929520 20.4266243 -55.2563362
-137.8133240 20.3068485 -50.4886284
-139.2442017 20.3125477 -51.1145439
-140.6811523 20.3152161 -51.8459396
-142.1141052 20.3110275 -52.6626282
-143.6276550 20.3420296 -53.6800690
-108.3126831 21.8639526 -60.9698029
-109.4915085 21.8179989 -59.4841766
-110.7175446 21.7845306 -58.1487465
-138.1837616 21.6761932 -53.1654053
-139.6284332 21.6811543 -53.9057350
-141.0775909 21.6932068 -54.7365036
-111.0877914 23.2239494 -61.6975288
-112.2746277 23.1528625 -60.3297348
-113.4987869 23.1341457 -59.1344948
-114.7237625 23.1331596 -58.1304169
-115.9587402 23.1257439 -57.2316017
-117.1956635 23.1208553 -56.4457130
-118.4611969 23.1099911 -55.7474709
-127.5434418 23.0667419 -53.5349884
-128.8852539 23.0576878 -53.5372086
-130.2350464 23.0555496 -53.6477509
-131.6145325 23.0661068 -53.8806839
-132.9667969 23.0514088 -54.1353226
-134.3733368 23.0530891 -54.5304718
-135.7512665 23.0441933 -54.9982300
-137.1869965 23.0511017 -55.6132927
-138.6213684 23.0768585 -56.3407059
-116.3666458 24.5181694 -60.8324356
-117.6008530 24.4691124 -59.8552666
-118.8546219 24.4767437 -59.1055756
-127.9422989 24.4399719 -56.6459312
-129.2923737 24.4440193 -56.7078323
-130.6445923 24.4367676 -56.8443146
-132.0236969 24.4182892 -57.1188164
-133.3974457 24.4224472 -57.4886818
-134.8269653 24.4366055 -58.0001793
-136.2421265 24.4809704 -58.6261559
-118.1359482 25.9522247 -64.6239471
-119.3587646 25.9394531 -63.5230484
-120.6156387 25.9346123 -62.6956940
-121.8803711 25.9209518 -62.0162125
-123.1647720 25.9082832 -61.4685249
-125.7885208 25.8047142 -60.8428459
-127.1086578 25.8088417 -60.7021294
-128.4455261 25.8183250 -60.6670265
-132.5917664 25.8640518 -61.4104385
106.1292419 -130.7949524 22.0703201
110.4030991 -129.9466095 22.8700867
109.7422714 -129.8994904 23.2188129
109.0727844 -129.8373260 23.5438480
108.4486694 -129.8086090 23.7342377
107.1939545 -129.7852020 24.2348003
106.5392914 -129.7370758 24.4339161
105.8877792 -129.7261963 24.4837780
105.2411652 -129.7199707 24.5919342
104.6253586 -129.7121124 24.6378746
96.7139359 -130.2196655 22.6585541
96.1747208 -130.3587036 22.3351135
95.6004562 -130.4871979 21.9379768
98.9118423 -129.0670319 25.8482227
97.1448746 -129.1446228 25.1660519
94.2092514 -129.6696930 23.3965168
113.2373810 -128.2655182 25.3335056
112.5730286 -128.1952972 25.7166462
111.8832626 -128.1030731 26.1214943
98.7464066 -128.1976776 27.4991531
98.1599121 -128.2448883 27.3102913
97.5680161 -128.2708435 27.1221962
96.9714050 -128.3014221 26.8751335
94.0387878 -128.6826172 25.3120651
93.4406509 -128.8028564 24.8976173
92.8605270 -128.9146423 24.4486084
92.2988205 -129.0190735 23.9748249
116.8303833 -126.8135529 26.0601234
89.1210022 -127.7119751 24.8799019
88.5411911 -127.8353500 24.2639465
87.9910583 -127.9906082 23.5484390
87.8605728 -127.0506744 25.2359772
119.2162323 -125.4323349 27.0969067
118.4997864 -125.3101120 27.7218399
117.8166199 -125.2102280 28.2717609
87.7196732 -126.1502991 26.8401375
120.3910370 -124.7370605 27.4358673
122.3085785 -124.2141113 26.8377266
121.5505371 -124.0523376 27.6639957
120.8563690 -123.9429398 28.3362255
120.1664886 -123.8244095 28.9860020
84.0711212 -125.2492905 26.0628872
83.5029602 -125.4020004 25.3759842
122.8523254 -123.4534454 27.5959930
122.6552963 -122.6038742 29.0352383
127.3302689 -121.8518982 26.0033875
126.5666122 -121.6601715 27.0604973
125.8588104 -121.5247879 27.9408741
125.1351089 -121.3923416 28.7905083
81.3960953 -122.4802551 28.4204674
80.8453217 -122.5983200 27.7487812
80.2735138 -122.7525101 26.9937706
79.7037811 -122.9230194 26.2141113
79.1297379 -123.1050644 25.3667450
79.0341873 -122.2758255 26.6379051
127.6614761 -120.2643356 28.0829773
78.9392853 -121.4767990 27.8021679
78.3780212 -121.6452026 27.0776081
127.4953766 -119.4685440 29.3784485
76.6149750 -121.3168640 25.6605320
128.1005096 -118.8358536 29.7216282
127.3476257 -118.6946793 30.5635605
76.5512466 -120.4954376 26.8351746
76.4896240 -119.6929703 27.9186707
75.9888840 -119.8209610 27.0963497
130.8452911 -117.7637939 28.5002708
130.0710907 -117.5246048 29.7782402
128.5533600 -117.3302994 31.3124599
76.4302063 -118.9212494 28.9163437
131.3395233 -117.1826477 28.5647259
76.3420792 -118.1955414 29.8481159
131.8776093 -116.5195313 28.7701378
131.1367493 -116.3765182 29.7299385
76.2413864 -117.4738159 30.7436085
75.6751251 -117.6150589 30.0417233
132.4970703 -115.9087753 28.8378086
73.9111862 -117.3058624 28.6320782
73.8763123 -116.5434875 29.5141258
73.2978439 -116.7141342 28.7224483
132.1853485 -114.3836365 30.9634628
72.6785431 -116.1324387 28.7483120
133.5962982 -113.9458466 29.9207268
132.7787628 -113.7646713 30.9982395
132.0200958 -113.6303177 31.9384594
72.6398544 -115.3772812 29.5645409
72.0605316 -115.5450974 28.7580280
133.4319153 -113.1858521 30.8887081
71.4389801 -114.9623489 28.7172680
135.6882019 -112.9635010 28.4095459
134.8708038 -112.7687531 29.6264973
134.0442352 -112.5823441 30.8093281
133.2904816 -112.4444046 31.8025265
71.4061813 -114.2174606 29.4843712
70.8375549 -114.3756332 28.6141491
136.1510620 -111.6090927 29.3105507
70.1367798 -112.3652420 30.0646553
135.8478851 -110.1407776 31.1777630
70.0972366 -111.6721039 30.7380028
69.5144119 -111.8314285 29.9210396
67.7143860 -110.8874207 28.5738888
66.5244064 -109.7915955 28.0380802
65.9568100 -109.9588928 27.0617924
138.3131561 -107.1894302 30.7746468
66.5123215 -109.0717087 28.7110119
139.0099335 -106.6595993 30.3052578
138.1816101 -106.4765244 31.5024395
66.4595947 -108.3938293 29.2951279
65.8836060 -108.5516281 28.3959274
65.2761459 -108.0270233 28.0032177
64.7106171 -108.1955872 27.0040302
138.0187836 -105.1347885 32.8012009
65.2595367 -107.3227005 28.6036339
139.5279694 -104.6863785 31.1646500
138.7254791 -104.5459366 32.3215599
137.9129028 -104.4560928 33.3900375
140.1836548 -104.2194061 30.6012344
139.4240265 -104.0833130 31.7383003
138.6377106 -103.9394302 32.8506584
137.8257446 -103.7887192 33.9446983
140.8745575 -103.6981659 30.0362606
64.0186386 -105.6089706 28.3827286
64.0004654 -104.9254379 28.8982277
86.8726807 -101.0501175 48.5874481
86.2664948 -101.1005783 48.3549690
85.6889877 -101.1510620 48.1280670
85.1211395 -101.1856995 47.9053955
63.9775963 -104.2572327 29.3800621
63.3874779 -104.4268570 28.4284306
142.2457886 -102.0320358 29.3552055
63.9523926 -103.5881500 29.8431759
87.9949951 -99.7623520 49.4467316
62.7691040 -103.2426834 28.3754807
142.0102539 -100.6638031 30.5800457
87.9826584 -99.1382675 49.6604805
87.3918304 -99.1755524 49.4715500
62.7660141 -102.5634232 28.8162289
62.1943932 -102.7330933 27.7987499
61.6342163 -102.8983536 26.7561169
141.9834900 -100.0273285 30.9957085
141.8336182 -99.3408813 31.5842743
61.5638542 -100.9048843 28.1087513
60.9921188 -101.0655441 27.1059704
61.5623665 -100.2352219 28.5227623
143.1570282 -97.0585480 30.9580173
143.0876312 -96.4133453 31.3317451
61.4893150 -98.3042908 29.5567074
60.9206467 -98.4500046 28.5953274
143.0307922 -95.7767487 31.6712856
61.4719849 -97.6608963 29.9009819
61.4266205 -97.0323105 30.1707287
97.2098312 -92.6939316 53.2192307
96.6037827 -92.7106857 53.1544533
96.0171280 -92.7173691 53.0813751
95.4364166 -92.7431412 52.9920921
61.4311600 -96.3906937 30.4752102
60.8428268 -96.5385361 29.5327892
60.2445145 -96.6915054 28.5518188
144.4352417 -92.9427948 30.7499733
105.5650253 -90.7335739 53.7037354
104.9606400 -90.7416687 53.7305145
104.3406143 -90.7389069 53.7730255
103.7256088 -90.7481842 53.8089180
144.3888550 -92.3184280 31.0248432
105.5609665 -90.1653671 53.7646866
103.7168350 -90.2271729 53.8830795
144.3344727 -91.6897278 31.3244095
106.7152786 -89.5356064 53.8065224
106.1282272 -89.5554047 53.8243980
91.2151108 -89.9979935 52.6043892
88.3089447 -90.1601791 51.8408852
60.1979103 -93.5263519 29.7860203
106.7066116 -88.9577408 53.8807297
91.2115860 -89.4160385 52.7001190
88.2922516 -89.5680847 51.9216461
60.1770935 -92.9070435 29.9821301
110.3594971 -88.3566971 53.5003815
109.7573700 -88.3637009 53.5971870
109.1513596 -88.3702774 53.6869888
108.5394669 -88.3612289 53.7714996
107.9202042 -88.3613129 53.8465576
102.5035934 -88.5059738 54.1209869
94.7554169 -88.6675797 53.5115509
94.1871872 -88.7295609 53.4212646
91.2037201 -88.8908997 52.8162117
88.2864456 -88.9803391 51.9967194
59.0223236 -92.5644302 28.2162132
146.7272797 -90.3355026 27.6981983
145.8238983 -90.1434021 29.3050785
145.0471344 -89.9568405 30.6378727
144.2608490 -89.8388824 31.8782616
110.3445053 -87.7746811 53.5629768
94.7906952 -88.1074219 53.6102791
91.1404114 -88.2440262 52.8693390
90.6161041 -88.2683029 52.6982880
90.0384216 -88.2980804 52.5495033
89.4670868 -88.3246231 52.3991776
88.8755417 -88.3580780 52.2323570
88.2664032 -88.3979874 52.0490456
59.0468292 -91.9280243 28.4424171
146.6586914 -89.7040329 28.0174484
145.7941437 -89.5277557 29.5112724
112.1463394 -87.1998138 53.2900200
106.0545578 -87.2004852 54.0407562
105.5521469 -87.2000351 54.3669968
101.8487701 -87.2825928 54.2175941
101.2583084 -87.3009033 54.1792221
100.6677246 -87.3248978 54.1429138
100.0872650 -87.3399811 54.1144714
99.4896698 -87.3441315 54.0884438
98.8814468 -87.3658295 54.0510025
94.7984467 -87.5143738 53.6873169
90.6068039 -87.6850586 52.7367287
60.1518860 -91.0472717 30.5086098
59.6033859 -91.1741333 29.5822163
59.0369263 -91.3077393 28.6095791
145.7791290 -88.9201202 29.6642475
105.5743256 -86.6022568 54.3755989
98.8768387 -86.7777557 54.0909386
94.7302856 -86.9198990 53.6712685
90.5951004 -87.1041794 52.7725601
145.7320862 -88.3063431 29.8524628
112.1524506 -86.0460510 53.3764305
95.2999344 -86.3213120 53.7476883
94.7109299 -86.3162231 53.6477737
90.5765839 -86.5251617 52.8085213
145.7154236 -87.7021332 29.9794655
114.0128860 -85.4802094 52.9806671
113.3749313 -85.4690247 53.1253395
112.7526627 -85.4681931 53.2606392
112.1530380 -85.4678955 53.3868866
90.5712662 -85.9425125 52.8420830
145.6703644 -87.0929565 30.1246548
112.7454376 -84.8905258 53.2715988
112.1481934 -84.8913498 53.3978539
90.5697784 -85.3623352 52.8678970
86.5125809 -85.5762329 51.7047997
85.9000931 -85.6158142 51.4985161
85.2963943 -85.6599121 51.2811127
84.7386856 -85.6944122 51.0727043
84.1783218 -85.7234421 50.8567734
83.5823517 -85.7674561 50.6180878
145.6593933 -86.4971008 30.1827126
112.7373734 -84.3128738 53.2832909
91.1417923 -84.7578506 53.0448685
90.5721359 -84.7823486 52.8922920
147.3665314 -86.2224426 27.3571682
113.9855957 -83.7495193 53.0199623
113.3530807 -83.7410660 53.1603584
112.7373886 -83.7384033 53.2933083
87.6457062 -84.3533554 52.1005821
87.0542908 -84.3893890 51.9174538
147.3221893 -85.6167526 27.4682217
83.5575714 -84.0271606 50.6452675
147.3094330 -85.0191193 27.5225964
116.4995956 -82.6759186 52.3830223
147.2798004 -84.4180450 27.5994873
60.0482178 -85.5843124 31.3706436
147.2958679 -83.8288879 27.5863819
117.6804657 -81.5026627 51.9706421
117.1098022 -81.4935150 52.1371651
60.0482178 -84.9860458 31.3873501
147.2619629 -83.2313461 27.6400948
117.6752777 -80.9307251 51.9397087
117.0891113 -80.9217911 52.1129150
116.6472321 -81.0002899 51.8769379
60.0510979 -84.3876419 31.4044914
147.3016968 -82.6502686 27.5533905
60.0316277 -83.7951279 31.3823128
147.3069916 -82.0639801 27.5089779
116.3965302 -79.8101730 52.2553291
115.7709198 -79.7338333 52.4124527
60.0310326 -83.1998215 31.3760624
147.2823944 -81.4737473 27.5014973
115.2091370 -79.1791458 52.5467224
60.0359154 -82.6048431 31.3639240
147.3392639 -80.8997040 27.3483334
115.2078400 -78.6102829 52.4904633
60.0472870 -82.0110397 31.3445702
147.3187408 -80.3124313 27.3157711
113.9797287 -78.0279236 52.7483139
82.3388596 -78.9094315 49.9847221
147.2932129 -79.7253189 27.2824879
113.9723511 -77.4610062 52.6749496
147.3287354 -79.1493530 27.1357441
80.0686417 -77.9246979 48.7473221
147.3712158 -78.5768051 26.9598370
80.6349640 -77.3103638 48.9516792
80.0859604 -77.3505096 48.6818123
145.6654358 -77.7095261 29.7335968
145.6722717 -77.1369247 29.5917606
116.4864273 -75.2272186 51.6653481
115.8717270 -75.2161255 51.8384171
115.2450714 -75.2093811 52.0067139
114.6257935 -75.2028580 52.1658287
81.8432465 -76.0850067 49.3383179
81.2670670 -76.1247787 49.0772362
145.6822968 -76.5685349 29.4049644
84.7438812 -75.3423691 50.3844948
146.5981293 -76.1317596 27.7895660
145.7180634 -76.0035019 29.1634541
84.7373352 -74.7723465 50.2782593
84.7512665 -74.2043381 50.1781006
57.8080521 -77.1728210 26.8041992
84.7546616 -73.6369781 50.0665703
57.8157578 -76.5918045 26.6321564
146.6939697 -74.4385757 27.0213795
145.8214569 -74.3069916 28.4598885
145.0154877 -74.1835327 29.7492371
144.2335358 -74.0717850 30.9301071
84.7676239 -73.0696030 49.9468956
57.8357010 -76.0088120 26.4805737
144.2680511 -73.5044785 30.7028217
85.3549728 -72.4702301 50.0371780
84.7763138 -72.5029373 49.8164635
57.8451843 -75.4268799 26.3095894
144.2785339 -72.9401093 30.4809761
116.5622482 -71.2893600 50.7657890
115.9651337 -71.3341370 50.9497566
114.0625687 -71.3355484 51.4186897
113.4603577 -71.2597961 51.5567665
83.0203171 -72.0374222 48.9812050
58.9876213 -74.6268311 28.0818901
144.3421783 -72.3831635 30.1555424
113.4648666 -70.7018127 51.4140701
83.0341949 -71.4740601 48.8383331
58.9894180 -74.0487137 27.8814106
144.3793030 -71.8266068 29.8397217
116.6513138 -70.1801910 50.4356537
113.4812241 -70.1392059 51.2671814
94.7910614 -70.3718414 52.0007744
85.9661865 -70.7457657 49.8107491
83.0322952 -70.9039230 48.6850777
145.2628632 -71.3757401 28.2666969
144.4017029 -71.2691498 29.5462971
116.6271133 -69.6217651 50.2861328
113.5090179 -69.5739670 51.1079636
110.4349899 -69.5577927 51.7285156
109.8144608 -69.5611877 51.8246574
109.2024994 -69.5660934 51.9122543
108.6066589 -69.5641556 51.9909477
103.7296524 -69.6099472 52.3827019
103.1367264 -69.6114960 52.4073372
95.3903427 -69.7964401 51.8848190
94.7875748 -69.8156815 51.7942390
90.0844955 -69.9803238 50.9193268
89.5053101 -70.0028534 50.7612305
88.9277649 -70.0103989 50.5969849
88.3407440 -70.0051422 50.4066658
86.5578766 -70.1497803 49.8372536
85.9749832 -70.1843185 49.6469879
83.0597687 -70.3403091 48.5417213
82.4958725 -70.3759613 48.3225288
145.3008118 -70.8190460 27.9380436
144.4257813 -70.7086639 29.2665176
116.5885162 -69.0432358 50.1290321
116.0362854 -69.0169678 50.2652359
114.7557678 -68.9543915 50.6029892
108.0038528 -69.0077057 51.8930092
103.1609268 -69.0509872 52.2413826
100.1808624 -69.1045914 52.2403831
94.2164383 -69.2581711 51.5996361
57.9173546 -72.5482178 25.1495800
116.6434860 -68.4873810 49.9409790
115.9995728 -68.4837189 50.1271286
115.3870468 -68.4730072 50.2948418
114.7664185 -68.4682770 50.4600258
108.0133362 -68.4494553 51.7184219
103.1675720 -68.5022736 52.0725594
100.2198410 -68.5421295 52.0659103
94.2084427 -68.6925201 51.4544067
92.4523163 -68.7679443 51.0946655
91.8603363 -68.7943039 50.9657059
91.2756042 -68.8156662 50.8368263
90.6701889 -68.8315125 50.6947899
81.9189301 -69.2808304 47.7008095
81.3524399 -69.3215866 47.4478340
80.7589188 -69.3557739 47.1702499
80.1670609 -69.3915558 46.8784142
57.9482956 -71.9896240 24.8133183
144.6163940 -69.5975342 28.4271126
100.8018799 -67.9742584 51.8629837
100.2219162 -67.9904556 51.8728142
99.7835236 -67.9929276 52.5514603
97.2086334 -68.0515976 51.6332321
91.2795029 -68.2544632 50.6506920
59.1017990 -71.2060928 26.6049366
58.5703850 -71.3298645 25.5834198
58.0097923 -71.4552765 24.4872608
144.6841888 -69.0465622 27.9923115
106.8218307 -67.3409195 51.4914322
106.2311478 -67.3456726 51.5435410
105.6151810 -67.3509750 51.5881386
105.0079193 -67.3604507 51.6248970
100.7920914 -67.4270477 51.6693192
100.2060318 -67.4577484 51.6681595
99.6411819 -67.3937759 51.6194077
99.0126877 -67.3882751 51.5817413
97.8413620 -67.4811630 51.4965210
97.2302933 -67.4994812 51.4333305
96.6245346 -67.5125427 51.3686981
96.0317307 -67.5341034 51.3081589
95.4540253 -67.5572586 51.2418633
91.2973557 -67.6923599 50.4675789
144.7267914 -68.4955978 27.5943279
103.2015610 -66.8255692 51.5179329
100.2201004 -66.8806839 51.4489098
91.3076019 -67.1362534 50.2781258
60.2040634 -69.8427124 27.9387550
103.2291107 -66.2584991 51.3194313
100.2379532 -66.3175201 51.2503548
91.3028412 -66.5660553 50.0765343
90.7285309 -66.5853424 49.9518318
90.1613312 -66.6202698 49.8023415
89.5770874 -66.6455917 49.6421051
60.1964798 -69.2713852 27.6319103
90.7493515 -66.0334930 49.7480850
60.2047768 -68.6992569 27.3183460
102.0575485 -65.1583939 50.8752174
101.4559937 -65.1717834 50.8717804
90.7879028 -65.4873734 49.5471077
60.2352753 -68.1324921 27.0105648
143.2860565 -66.0977249 28.3487511
90.7832184 -64.9237976 49.3145485
143.4077911 -65.5500870 27.7542095
92.5569687 -64.2804031 49.4551277
91.9811401 -64.3020020 49.3370399
91.3764572 -64.3338699 49.2130356
90.7878418 -64.3592682 49.0734253
60.3118896 -67.0087585 26.3382721
144.2935333 -65.1092529 25.9772911
143.4315643 -65.0062714 27.3258724
143.6330719 -63.9193840 26.1219025
142.7632599 -63.8221855 27.4863873
142.0376282 -63.7327461 28.5473862
142.0932312 -63.1944351 28.0354996
60.3376923 -64.7481918 24.6549931
142.9972229 -62.7311668 26.2424088
142.1746521 -62.6526642 27.4526672
60.3518562 -64.1809998 24.1756916
142.2983093 -62.1155128 26.7679672
142.3893280 -61.5857391 26.0802498
104.0697098 -60.1494789 48.6088486
61.5533409 -62.8923111 25.2332001
60.9870491 -62.9770470 24.2707882
143.3188477 -61.1459389 24.0139828
142.4908295 -61.0429726 25.3928528
61.5750313 -62.3288879 24.7477150
61.5991249 -61.7685585 24.2512226
105.9938889 -58.4752617 47.5856628
105.3744354 -58.4703293 47.6252861
104.7654037 -58.4645958 47.6488457
104.1651230 -58.4819832 47.6763191
141.1394043 -59.2655220 25.8551960
62.7846489 -60.4844933 25.0938454
62.1977882 -60.5624313 24.1206532
-129.2091522 -70.7288132 -59.5950165
-132.1154938 -70.7437973 -60.5025101
142.1237030 -58.8284416 23.6160851
141.2810974 -58.7182274 25.0751610
62.8080368 -59.9240723 24.5507641
-117.2834625 -70.0149231 -60.9439697
-117.8882141 -69.9617538 -60.3994522
-118.5008926 -69.9034119 -59.9209290
-119.1345901 -69.8321533 -59.4987144
-128.9170380 -69.7493362 -57.1234818
-130.9910889 -69.7753983 -57.5561066
-131.6696625 -69.8026428 -57.7196007
-133.7971497 -70.0170670 -58.5715714
-134.5355682 -70.0799713 -58.9801216
139.7674713 -57.9935036 26.8768520
-111.9343262 -68.6153717 -61.4290199
-112.5199738 -68.5387878 -60.5807915
-113.1144180 -68.4666824 -59.8142395
-113.7232971 -68.3901520 -59.1268311
-137.5499268 -68.5517502 -56.2785759
140.0110779 -56.9298592 25.2654629
139.2013855 -56.8594589 26.4361458
138.3814697 -56.8007813 27.5547218
64.0463562 -58.1044159 24.7101040
-137.9947968 -67.7447662 -54.6538467
138.4882202 -56.2678566 26.7945080
64.0846024 -57.5553398 24.0915337
63.4809494 -57.6307030 23.0857067
-109.0714417 -67.1129684 -60.1366844
-109.6786728 -67.0008698 -59.2884827
-137.7220154 -66.8601227 -52.8936577
-138.4415283 -66.9323502 -53.2861290
-139.2052612 -67.0073700 -53.7625198
-139.9452972 -67.0619202 -54.2438393
139.4525452 -55.8019943 24.7520943
138.6182556 -55.7286835 26.0101414
65.2027588 -56.8415833 25.1855183
64.6558914 -56.9071083 24.2951984
64.0980835 -56.9747887 23.3646736
138.7669373 -55.1750946 25.2084694
65.2559891 -56.2976418 24.5830250
-106.3458557 -65.6853638 -59.7288628
-106.9521561 -65.5574417 -58.7305298
-141.6778870 -65.5515366 -52.3837929
-142.4536438 -65.6411362 -52.9662704
138.0914307 -54.5647926 25.5074978
137.2882080 -54.5175476 26.5597515
65.2742691 -55.7158852 23.8362293
137.4288330 -53.9795036 25.6900597
-103.1332321 -64.3921509 -60.9852066
-103.6849670 -64.3089981 -59.8815155
-104.2845306 -64.1803284 -58.8103828
137.5791626 -53.4423943 24.7661819
65.3961945 -54.6487885 22.2713795
-102.8412857 -63.4256020 -58.8602066
-145.5455933 -63.4960670 -51.3192825
-102.7584381 -62.7537689 -57.5080948
-145.2969360 -62.6491508 -49.9020653
136.2658386 -52.2840080 25.0482769
66.6213303 -53.4178391 22.9415569
-100.3262558 -62.2426949 -60.0383072
137.2200165 -51.8123665 22.8863354
136.3926239 -51.7594604 24.0986099
66.6398010 -52.8640251 22.1238098
66.0662537 -52.9323959 21.1675110
-100.1888809 -61.3909607 -58.4186211
136.5743866 -51.2141533 23.0258274
66.6826706 -52.3150330 21.3268414
-149.3607178 -60.7291222 -49.9897995
-97.6336136 -60.1595268 -59.9557076
-149.1620941 -59.9501152 -48.7173042
-149.9595032 -60.0667610 -49.3942032
135.2653046 -50.0199356 23.3012829
134.4168243 -49.9749832 24.4896870
133.6788940 -49.9153709 25.4364033
69.0275879 -50.9498215 23.3201122
68.4483566 -51.0060654 22.4305744
-97.5144806 -59.3219833 -58.4324608
133.8656921 -49.3598862 24.4161205
69.0636826 -50.3950882 22.4772968
-96.8016891 -58.6364517 -58.2436981
-97.3895645 -58.5312881 -57.0798187
-150.3818512 -58.5990334 -47.7687454
133.2472382 -48.7782631 24.3920479
132.4737549 -48.7496147 25.3006592
70.2474670 -49.7273941 23.2894955
69.6955109 -49.7900162 22.5039425
-95.0196457 -58.1317482 -60.5015221
132.6419983 -48.2005501 24.2522926
70.3155365 -49.1892776 22.4567070
-94.3457947 -57.4203682 -60.3897781
-94.9163132 -57.3160629 -59.0933952
-151.6419830 -57.2264557 -47.0994110
71.4790421 -48.5271912 23.1398735
70.9109879 -48.5860634 22.3178730
-93.6745758 -56.7429161 -60.3624573
71.5362473 -47.9895325 22.2293186
-92.9971008 -56.0473938 -60.3583488
-93.5553589 -55.9490738 -59.0637093
131.5755463 -46.6116409 22.6635151
71.6075363 -47.4516754 21.3136272
-92.3274231 -55.3670731 -60.4280090
-154.2985077 -55.2443275 -47.0981712
131.7548981 -46.0650139 21.4238491
-91.6792450 -54.6952477 -60.5290527
-92.2358551 -54.5922852 -59.1814995
-154.1357727 -54.4757996 -46.1897812
-154.9570770 -54.5727654 -46.9858856
130.4139709 -45.4243431 22.2172527
72.8709946 -46.2483253 21.0132103
-90.9952316 -54.0398750 -60.7751923
-155.5529327 -53.8925400 -46.7537384
130.6080322 -44.8932800 20.8666916
-90.3380890 -53.3891068 -60.9918137
-90.9118958 -53.2530212 -59.5255127
-155.3769684 -53.1201859 -45.8578529
-156.2133484 -53.2230301 -46.6703911
129.2396240 -44.2525673 21.6909504
74.1175385 -45.0589905 20.4699287
-90.7898178 -52.5180092 -58.4952087
-156.8975372 -52.5607605 -46.6782875
74.1912918 -44.5206070 19.3793335
-90.1818619 -51.8205948 -58.6072731
-90.7088318 -51.7588539 -57.4341888
-156.7268066 -51.7972031 -45.8342819
-157.5771790 -51.8978386 -46.7134857
128.0470428 -43.1612167 20.8652344
75.4274139 -43.8938065 19.9198761
74.8349380 -43.9313889 19.0709381
-89.5553589 -51.1561661 -58.8838654
128.2665558 -42.6293068 19.3275890
-88.3013306 -50.6515083 -60.9224930
-88.8808136 -50.5330353 -59.3854027
-89.4526138 -50.4284363 -57.9709625
-158.0200806 -50.4796600 -45.9324760
127.7150726 -42.0804214 18.7613983
126.9869385 -42.0502625 19.7056065
76.6915207 -42.7158661 19.0722370
-87.6618576 -50.0004616 -61.3850060
-88.2374039 -49.8734550 -59.7817764
76.7627182 -42.1522522 17.8011112
-88.1846390 -49.1009560 -58.6385040
125.1869659 -40.8760033 19.3107948
124.4285431 -40.8412170 20.2262554
123.6590729 -40.8181610 21.1044407
122.9544983 -40.7909317 21.8036461
-88.0739746 -48.3874207 -57.7785797
-158.4809418 -48.3003349 -44.4735985
-159.2983398 -48.4327698 -45.3566742
-160.1706085 -48.5325966 -46.3238678
123.1372147 -40.2451210 20.4184399
-157.5785675 -47.5870552 -43.0406952
-158.3640137 -47.6387825 -43.8231087
-159.1966858 -47.7168083 -44.6933250
81.6080017 -40.2266273 19.7046795
81.0445633 -40.2695656 19.0688782
80.4742126 -40.3147354 18.3672676
79.9100952 -40.3658257 17.6222878
79.3501663 -40.4108391 16.8454819
78.7860107 -40.4486771 16.0406361
-89.6288300 -46.7518387 -52.8306732
-90.2139740 -46.6864700 -51.8466797
-159.0802002 -46.9999084 -44.0247955
-90.1358871 -45.9948807 -51.2841377
-158.9887848 -46.2908211 -43.4029541
-159.7918854 -46.3529930 -44.2428894
-160.6126556 -46.4230423 -45.1174812
-161.4303284 -46.5110207 -46.0170517
121.6115341 -38.6147690 17.7212868
120.9020233 -38.5945778 18.4810905
82.9658585 -39.0953407 18.2371368
-90.0739136 -45.2956848 -50.7323570
-160.5049744 -45.7109985 -44.4723206
83.0978241 -38.5798340 16.7538414
-90.0402756 -44.5893211 -50.1761436
-160.4064484 -45.0084190 -43.8676262
119.9490433 -37.5359001 16.3766994
119.2111130 -37.5736961 17.4301376
118.4856339 -37.5522537 18.1665840
83.2208710 -38.0437088 15.0640230
-88.8187332 -44.0122147 -51.4830971
-88.8026123 -43.3016739 -50.9417458
-161.8524323 -43.7355576 -44.4317818
-162.7021942 -43.8158913 -45.3789024
117.5244293 -36.4163857 15.2598782
116.7812653 -36.3943863 16.0381012
116.1033783 -36.3616333 16.6080341
97.5597839 -36.3289528 21.4842949
96.9338989 -36.3482361 21.3810730
93.3417053 -36.4676704 20.0923748
88.0489349 -36.7129745 16.6740170
87.4907303 -36.7349701 16.2055645
86.9274368 -36.7457466 15.6458855
-161.7370605 -43.0168953 -43.8710938
97.7519226 -35.8013077 20.1223602
93.4787445 -35.9664879 18.6326599
-161.6437073 -42.3139038 -43.3468208
-162.5182953 -42.3996620 -44.2831039
-163.3382874 -42.4698105 -45.1984482
113.8487625 -35.2669411 14.7307777
113.1105270 -35.2872429 15.3349590
112.4427032 -35.2919922 15.7362337
90.6849594 -35.5546532 15.0309534
90.1088028 -35.5644798 14.5822535
89.5227051 -35.5723610 14.0670805
112.7162933 -34.7480621 13.4605503
109.6105042 -34.1855774 13.3764839
108.9356613 -34.1764755 13.7436848
108.2669601 -34.1837158 14.0630350
107.6093063 -34.2017441 14.2931805
100.6174927 -34.2385559 15.3811531
100.0114975 -34.2315483 15.3606396
99.3965988 -34.2182579 15.2316208
98.7905807 -34.2177353 15.1141376
-88.6436386 -39.8054390 -48.7146683
-163.0851288 -40.3662529 -43.6842804
107.9372940 -33.6777954 11.9129801
-88.0651474 -39.1942177 -49.1921043
-88.6090164 -39.1211090 -48.3303146
-162.9747314 -39.6535683 -43.2307625
-164.5206757 -39.0913010 -44.9333649
-87.5245438 -37.7941399 -48.8877716
-164.4853668 -38.4312515 -44.6891518
-87.4452057 -37.1160088 -48.6676483
-87.3559418 -36.4475784 -48.4574127
-164.3333588 -37.0076447 -43.4076462
-134.1918488 -35.1918945 -27.0230179
-134.8415985 -35.1994057 -27.1091099
-135.5083313 -35.2063904 -27.2060719
-136.1972809 -35.2254715 -27.3219795
-136.8652649 -35.2411346 -27.4460983
-137.5209808 -35.2470627 -27.5798397
-164.2687988 -36.3147583 -43.0599747
-134.1655121 -34.5249214 -26.8443546
-137.5106506 -34.5906487 -27.4115849
-164.2215424 -35.6263161 -42.7551880
-165.0809326 -35.6939125 -43.7084045
-165.9432526 -35.7597466 -44.7010269
-134.1345367 -33.8605270 -26.6841717
-137.4949341 -33.9309921 -27.2552128
-134.1182098 -33.2012482 -26.5459099
-134.7728577 -33.2101517 -26.6365681
-135.4467010 -33.2201195 -26.7369556
-136.1189728 -33.2292213 -26.8445816
-136.7983093 -33.2443542 -26.9675026
-137.4604340 -33.2584343 -27.1005287
-86.0155487 -31.7870426 -48.5806274
-165.6480408 -32.3214989 -43.2005692
-85.9610367 -31.1227875 -48.4794960
-165.5972748 -31.6396065 -42.9351234
-85.9371109 -30.4500675 -48.3383217
-126.1647186 -29.8037701 -25.5752182
-126.8396683 -29.8177586 -25.5644417
-129.4502258 -29.8893471 -25.5754871
-165.5407562 -30.9555683 -42.6952705
-85.3410797 -29.8133221 -49.0524025
-85.9347000 -29.7759380 -48.1761055
-126.1207199 -29.2073860 -25.4818611
-165.4974365 -30.2777672 -42.5018158
-166.3644409 -30.3364925 -43.4800644
-167.2015839 -30.3916321 -44.4367218
-124.8763809 -28.4883709 -25.4779987
-129.4045105 -28.5235157 -25.4169064
-130.0668793 -28.5330715 -25.4407654
-130.7367706 -28.5461769 -25.4692383
-167.1432190 -29.7082157 -44.2332306
-124.8831482 -27.8381348 -25.4092026
-130.7240601 -27.8915062 -25.3904762
-84.6955643 -27.8319225 -49.6168098
-123.5384293 -27.1712284 -25.4493580
-130.7174072 -27.2340050 -25.3160172
-133.3459320 -27.2648373 -25.5358829
-84.6962204 -27.1587276 -49.5080719
-123.5413284 -26.5186863 -25.3888874
-133.3488922 -26.6124020 -25.4781723
-118.4468994 -25.8428040 -26.0216904
-119.0742035 -25.8436794 -25.9011154
-119.6853561 -25.8449707 -25.7967987
-120.3402405 -25.8481884 -25.6970387
-120.9854126 -25.8514500 -25.6056671
-121.6237564 -25.8527927 -25.5236931
-122.2598648 -25.8558636 -25.4524555
-122.8734589 -25.8535728 -25.3908558
-123.5357132 -25.8591995 -25.3294220
-129.3825378 -25.9115391 -25.1474762
-133.3248444 -25.9528599 -25.4325142
-118.4343796 -25.1915379 -25.9805279
-121.6329803 -25.2024784 -25.4631157
-129.3565369 -25.2504616 -25.1170025
-131.3350525 -25.2740421 -25.2341824
-131.9792328 -25.2809277 -25.2786465
-132.6566467 -25.2903366 -25.3354301
-133.3214111 -25.2990704 -25.4008732
-108.3628616 -24.5672073 -29.0309467
-108.9683914 -24.6014328 -28.8057060
-110.8918304 -24.6144924 -28.0582752
-111.4839630 -24.5462723 -27.8344059
-118.4232025 -24.5361385 -25.9538765
-108.3305359 -23.9477425 -29.0559902
-110.9302902 -23.8999443 -28.0137978
-111.4771194 -23.8924484 -27.8081055
-118.4286118 -23.8817463 -25.9345036
-119.0679779 -23.8843536 -25.8199291
-167.0011139 -24.9819355 -43.4165688
-167.8584747 -25.0290089 -44.4211121
-108.3153458 -23.2690792 -29.0500278
-111.4758148 -23.2404728 -27.7898655
-112.1118088 -23.2378616 -27.5774002
-112.7279968 -23.2376957 -27.3736954
-118.4367218 -23.2310467 -25.9289303
-119.0712738 -23.2325039 -25.8170547
-128.6851044 -23.2859344 -25.0003929
-129.3582611 -23.2915459 -25.0426826
-132.6671906 -23.3316097 -25.2542038
-133.3246460 -23.3379574 -25.3129787
-82.9905090 -23.2430782 -52.1366158
-83.5179749 -23.2125340 -51.1616020
-111.4640427 -22.5891953 -27.7847614
-118.4297714 -22.5793934 -25.9282265
-133.3404999 -22.6861019 -25.2903500
-108.3533783 -21.9511852 -28.9724789
-109.5111847 -21.9986134 -29.4452591
-110.2002106 -21.9899540 -30.1051559
-110.8589706 -21.9374237 -27.9799213
-111.4601364 -21.9358692 -27.7828217
-134.6107483 -22.0470600 -25.4417553
-81.2428741 -22.0227966 -55.7929955
-108.3736420 -21.2893524 -28.9715977
-108.9529877 -21.3100929 -29.2002926
-109.5724487 -21.3304710 -29.6963997
-115.8943787 -21.2695179 -26.4016781
-116.5191345 -21.2732334 -26.2724686
-117.1381531 -21.2656021 -26.1463890
-134.6236420 -21.3944187 -25.4405479
-81.2503433 -21.3541126 -55.8297005
-108.3463211 -20.6465797 -29.0085049
-108.9382019 -20.6700802 -29.2983589
-115.9035797 -20.6210938 -26.5112305
-116.5447006 -20.6252041 -26.3785858
-79.5952759 -20.8200054 -60.2641869
-80.1847000 -20.7701225 -58.6245689
-80.7291794 -20.7250500 -57.1560936
-81.2829132 -20.6836376 -55.8241425
-108.3649445 -19.9951458 -29.0402298
-108.9487534 -20.0102577 -29.3420258
-112.1132889 -19.9780121 -27.6555195
-112.7475357 -19.9752598 -27.4213600
-130.7077484 -20.0458088 -25.1752892
-134.6724701 -20.0695877 -25.4864559
-107.1314316 -19.3486061 -29.5997887
-107.7628403 -19.3457432 -29.3209457
-108.9428787 -19.3569126 -29.3686275
-109.5432510 -19.3832111 -30.0116177
-112.1111298 -19.3267231 -27.6964912
-128.1047058 -19.3702583 -25.1256256
-107.1259232 -18.6960926 -29.6537075
-127.4410324 -18.7171154 -25.1693935
-128.0923004 -18.7192955 -25.1796856
-79.0528870 -18.8582478 -62.3343811
-107.1510010 -18.0459023 -29.6975689
-115.2873077 -18.0195274 -26.8653965
-118.4582443 -18.0185242 -26.0940037
-129.3946533 -18.0826206 -25.2580967
-131.3574219 -18.1001968 -25.3420582
-132.0187988 -18.1060410 -25.3819351
-133.3813477 -18.1175404 -25.4987907
-134.0018921 -18.1287746 -25.5732040
-134.6728668 -18.1363220 -25.6705685
-167.0101318 -18.9646378 -43.5759697
-167.8743286 -19.0024414 -44.5859909
-79.0764923 -18.1871204 -62.4522743
-107.1694260 -17.3945217 -29.7525692
-110.2728653 -17.3763809 -28.4689312
-110.8849030 -17.3739147 -28.2420654
-111.4759064 -17.3703308 -28.0289669
-115.3110733 -17.3698196 -26.9115086
-118.4601746 -17.3699455 -26.1762562
-129.3924408 -17.4329224 -25.3086472
-131.3740997 -17.4489441 -25.3943291
-134.6831207 -17.4851379 -25.7353058
-79.0932388 -17.5168629 -62.6461906
-125.4978485 -16.7597027 -25.4249306
-126.1404953 -16.7645626 -25.4016953
-129.4119568 -16.7797794 -25.3748817
-131.3905945 -16.7972355 -25.4587784
-134.6883850 -16.8347607 -25.8090153
-79.1258774 -16.8462791 -62.8452797
-125.5502701 -16.0976887 -25.5229473
-126.1846313 -16.1040020 -25.4966564
-126.8539047 -16.1087151 -25.4654942
-127.4741058 -16.1160278 -25.4401321
-128.1269531 -16.1191692 -25.4296818
-128.7567596 -16.1231594 -25.4384613
-129.4327240 -16.1288528 -25.4592495
-131.4055328 -16.1452904 -25.5391426
-134.0463104 -16.1745148 -25.8020496
-134.7015228 -16.1822910 -25.8934231
-79.1455231 -16.1787529 -63.0718460
-115.3187027 -15.4179735 -27.1429424
-79.1640930 -15.5102835 -63.3528709
-114.6966095 -14.7664366 -27.3966370
-115.3422470 -14.7630205 -27.2459049
-167.1647644 -15.6356764 -44.2724648
-79.1857986 -14.8424129 -63.6749725
-79.7569504 -14.8011513 -61.7517776
-80.3246002 -14.7603817 -59.9875984
-123.6368637 -14.1353970 -25.8739567
-124.2880173 -14.1472178 -25.8464279
-167.1727753 -14.9718266 -44.4444046
-80.3304443 -14.0956144 -60.2853470
-124.2971649 -13.4961395 -25.9336071
-167.2314911 -14.3063498 -44.6762772
-121.0669937 -12.7747831 -26.4163780
-165.6004181 -13.5862589 -42.9752960
-112.2406311 -12.1710215 -28.6282864
-112.8784714 -12.1705694 -28.4173241
-113.5140457 -12.1680107 -28.2147961
-114.1308746 -12.1729059 -28.0305901
-121.1222229 -12.1918945 -26.5614243
-165.6595306 -12.9220362 -43.2194786
-111.0187607 -11.5258427 -29.2072926
-111.6282120 -11.5240631 -28.9909668
-112.2527084 -11.5255404 -28.7743740
