117.0784912 -22.6455708 36.4160538
114.4978256 -22.6221352 37.5072861
111.9719696 -22.6127377 38.3233833
109.4682770 -22.6107197 38.8645821
107.0033875 -22.6186123 39.2177315
104.5524139 -22.6346798 39.3298073
102.1316681 -22.6632748 39.2539520
99.7270355 -22.6966743 38.9831047
97.3403320 -22.7393017 38.5162277
94.9748383 -22.7905807 37.8343353
92.6255493 -22.8481598 36.9335251
90.2948761 -22.9200478 35.8003845
87.9739380 -23.0008202 34.3975372
85.6818695 -23.0927658 32.6994743
-89.5954514 -27.8431225 -41.0677719
-91.9496613 -27.7399044 -38.0399437
-94.3210754 -27.6484394 -35.4469910
-96.7211838 -27.5782509 -33.2033195
-99.1402359 -27.5165520 -31.2629623
-148.5112762 -27.8743820 -28.8500118
-151.4119720 -27.9790936 -30.7604504
112.4229279 -20.4283772 34.3116722
109.8858566 -20.4198875 34.9831352
107.4084167 -20.4291134 35.4368820
104.9421692 -20.4409313 35.5949020
102.5056076 -20.4670391 35.5605698
100.0923462 -20.4955978 35.2744293
97.7020569 -20.5415764 34.7742119
95.3341827 -20.5884666 34.0227547
92.9880905 -20.6516876 33.0110283
90.6595535 -20.7236404 31.7092743
-89.4136505 -25.1249943 -39.0989151
-91.7829361 -25.0306549 -36.2416573
-94.1584167 -24.9554596 -33.7777710
-96.5754089 -24.8912945 -31.6422653
-98.9882355 -24.8410320 -29.7861862
-148.2534790 -25.1762848 -27.1920891
-151.1454468 -25.2741699 -28.9869900
-154.0949860 -25.3849106 -31.1521721
105.4267654 -18.2566376 30.9137535
102.9803772 -18.2797890 30.9416294
100.5581818 -18.3069801 30.6256180
98.1603851 -18.3540134 30.0476170
-89.2641449 -22.4264030 -37.4707832
-148.0485992 -22.5025120 -25.8017769
-150.9145508 -22.5891914 -27.4924507
-153.8415680 -22.6867981 -29.5261707
-156.8636475 -22.8030090 -32.0104218
103.6729507 -16.1271248 24.4249458
-89.1539154 -19.7498379 -36.1418648
-147.8708801 -19.8425846 -24.6368313
-150.7250671 -19.9206657 -26.2571526
-153.6453552 -20.0108910 -28.2046413
-156.6387634 -20.1132851 -30.5398598
-89.0611954 -17.0893555 -35.0732536
-111.0058823 -16.8201351 -20.7416286
-113.5069504 -16.8162346 -20.0189743
-116.0192413 -16.8207703 -19.4402275
-118.5538177 -16.8247871 -18.9883804
-121.0986862 -16.8365288 -18.6773529
-123.6553802 -16.8472977 -18.4967690
-126.2413559 -16.8697739 -18.4665813
-128.8341675 -16.8914871 -18.5534878
-131.4556885 -16.9205418 -18.7976246
-134.0937195 -16.9521103 -19.1877289
-153.4720459 -17.3482094 -27.1138191
-156.4538879 -17.4420319 -29.3602123
-88.9839783 -14.4413052 -34.2244720
-110.9445648 -14.2130690 -20.1267548
-113.4412384 -14.2113771 -19.4186993
-115.9565659 -14.2133551 -18.8456974
-126.1717072 -14.2642574 -17.8752708
-128.7616882 -14.2860203 -17.9510498
-131.3756256 -14.3109179 -18.1850491
-134.0185699 -14.3413773 -18.5670547
-153.3457031 -14.7015648 -26.2620678
-156.3022766 -14.7826319 -28.4177895
-86.5676727 -11.8559294 -36.3549156
-88.9329147 -11.8041811 -33.5776520
-101.0163422 -11.6493034 -23.9578247
-103.4662323 -11.6349487 -22.6484528
-105.9305420 -11.6228313 -21.5126553
-108.4097900 -11.6156063 -20.5224857
-110.8914185 -11.6133537 -19.6738834
-113.3905792 -11.6118202 -18.9612961
-133.9542694 -11.7379045 -18.0904903
-136.6155396 -11.7693310 -18.6012115
-139.2916718 -11.8045673 -19.2675896
-153.2493744 -12.0634251 -25.6250324
-156.1933594 -12.1365604 -27.7180290
-159.2213898 -12.2212915 -30.2448902
-86.5331116 -9.2184792 -35.8656960
-88.8993454 -9.1743908 -33.1333160
-100.9864273 -9.0457487 -23.6073456
-139.2487640 -9.2017860 -18.9189949
-153.1851196 -9.4345865 -25.1810627
-156.1237640 -9.4994488 -27.2347107
-159.1315918 -9.5742702 -29.6817856
-86.5140228 -6.5885844 -35.5852127
-88.8824615 -6.5515480 -32.8657532
-100.9745178 -6.4478068 -23.4096622
-139.2295685 -6.6036625 -18.7218018
-159.0909729 -6.9356627 -29.3702488
-86.5105667 -3.9634628 -35.4993210
-88.8841400 -3.9339800 -32.8012619
-100.9701920 -3.8533316 -23.3469372
-103.4243469 -3.8475509 -22.0649605
-139.2243652 -4.0091357 -18.6577721
-159.0737457 -4.3024378 -29.2647247
-162.1759491 -4.3689766 -32.2028122
-81.8615570 -1.4057987 -42.4004211
-84.1818924 -1.3700992 -38.7252808
-86.5321655 -1.3414423 -35.5958405
-88.8972397 -1.3189847 -32.9017944
-100.9908981 -1.2614471 -23.4336014
-103.4448166 -1.2583996 -22.1478157
-139.2365417 -1.4176166 -18.7444611
-159.0899048 -1.6728327 -29.3600826
-162.1935272 -1.7302973 -32.3108864
-81.9008102 1.2316569 -42.7800102
-84.2121658 1.2580597 -39.0576744
-86.5656586 1.2785783 -35.8923111
-88.9326706 1.2942218 -33.1770897
-101.0141678 1.3291166 -23.6645603
-139.2794342 1.1733823 -18.9737358
-159.1429443 0.9544883 -29.6738472
-81.9651947 3.8688188 -43.3781204
-84.2678375 3.8867319 -39.6033630
-101.0651703 3.9203601 -24.0560875
-131.3667297 3.8152747 -17.8073692
-133.9934082 3.7993932 -18.1623707
-136.6542053 3.7819762 -18.6725655
-139.3385010 3.7637298 -19.3466377
-159.2441406 3.5815985 -30.2199097
-82.0409164 6.5083175 -44.2755585
-84.3424759 6.5168109 -40.3821335
-101.1202011 6.5113544 -24.5800018
-118.5503235 6.4589701 -18.5209618
-121.0885010 6.4487219 -18.2105980
-123.6479950 6.4369678 -18.0377579
-126.2340546 6.4273453 -17.9969158
-128.8125916 6.4122024 -18.0758247
-131.4360962 6.4003782 -18.3078766
-134.0714417 6.3852124 -18.6723232
-136.7350311 6.3715172 -19.1887894
-139.4183960 6.3561292 -19.8717003
-159.3652039 6.2103882 -30.9817295
-82.1496811 9.1529160 -45.4724731
-84.4363785 9.1509266 -41.4309044
-86.7768555 9.1459961 -38.0646362
-89.1385345 9.1409750 -35.1787109
-101.2033768 9.1057692 -25.2654514
-103.6599731 9.0974836 -23.9357681
-106.1159821 9.0920172 -22.7710075
-108.5977936 9.0808840 -21.7597160
-111.0808029 9.0725250 -20.8911037
-113.5878983 9.0613832 -20.1614380
-116.0973663 9.0524578 -19.5913658
-118.6273727 9.0394402 -19.1365891
-153.5298157 8.8782806 -27.1583328
-156.4875336 8.8604269 -29.3464146
-159.5218964 8.8420925 -31.9820194
-84.5662994 11.7887335 -42.7310638
-86.8924561 11.7757683 -39.2306633
-89.2404022 11.7662964 -36.2637024
-101.3024445 11.7039070 -26.1128464
-103.7518921 11.6947775 -24.7558174
-106.2133026 11.6822767 -23.5781746
-108.6922455 11.6704254 -22.5372391
-111.1783600 11.6609316 -21.6692047
-113.6838303 11.6511459 -20.9475536
-116.2015228 11.6418247 -20.3698273
-118.7340851 11.6300154 -19.9112358
-153.6954498 11.5000982 -28.2202377
-156.6770935 11.4908524 -30.5054703
-84.7136993 14.4410725 -44.4174995
-87.0199051 14.4167557 -40.7003632
-89.3736343 14.3941364 -37.5720634
-91.7457123 14.3741264 -34.8982773
-94.1401062 14.3590136 -32.5698738
-148.1138306 14.1366472 -25.8682423
-150.9842682 14.1330957 -27.5393639
-153.9094238 14.1303997 -29.5432587
-156.9163513 14.1299782 -31.9562035
-84.9082489 17.0951843 -46.4624252
-87.1892395 17.0648499 -42.4884033
-89.5242767 17.0370483 -39.1940651
-91.8917236 17.0080566 -36.3803139
-94.2827911 16.9823132 -33.9484825
-148.3349304 16.7617493 -27.2488861
-151.2173767 16.7638149 -29.0055332
-154.1634216 16.7688789 -31.1216259
-87.3941422 19.7266865 -44.6783905
-89.7125931 19.6862049 -41.1214294
-92.0624695 19.6508560 -38.1535645
-94.4453430 19.6196022 -35.6013412
-96.8500977 19.5912876 -33.3975220
-99.2758255 19.5626316 -31.4693184
-148.5870056 19.3961182 -28.8805523
-151.4975433 19.4078255 -30.7715988
-154.4679871 19.4194355 -33.0342789
-89.9336090 22.3567696 -43.4776268
-92.2663651 22.3107204 -40.2719765
-94.6392975 22.2699108 -37.5593262
-97.0390472 22.2329788 -35.2202606
-99.4545898 22.2000141 -33.2040482
-148.8801575 22.0444164 -30.8158531
-151.8240662 22.0665684 -32.8650589
-92.5143356 24.9860630 -42.8298264
-94.8791504 24.9376850 -39.8822021
-97.2627487 24.8900909 -37.3740463
-99.6695251 24.8523273 -35.2504578
-102.0976639 24.8196850 -33.3878288
-104.5418930 24.7863045 -31.7849541
-107.0031128 24.7605343 -30.4298916
-109.4814758 24.7383060 -29.2521324
-137.9697876 24.6508732 -27.6784496
-140.7205200 24.6589279 -28.6276207
-143.5093079 24.6719170 -29.8309975
-146.3433380 24.6880226 -31.3024998
-149.2360687 24.7110062 -33.1219406
-152.2141113 24.7387238 -35.3747330
-95.1562347 27.6249542 -42.6748734
-97.5231400 27.5682297 -39.9403114
-99.9215317 27.5213127 -37.6346245
-102.3415527 27.4790573 -35.6554337
-104.7822723 27.4433212 -33.9691582
-107.2389526 27.4150963 -32.5333023
-109.7173538 27.3859005 -31.2938328
-138.2811890 27.3044930 -29.8368721
-141.0379639 27.3184090 -30.8737335
-143.8622742 27.3404388 -32.1998940
-146.7285461 27.3662224 -33.8462639
-97.8354034 30.2734108 -43.0426636
-100.2184143 30.2151508 -40.4908257
-102.6294785 30.1636677 -38.3283463
-105.0631943 30.1238632 -36.5263329
-107.5180817 30.0858040 -34.9788055
-109.9927673 30.0550003 -33.6774826
-133.2011108 29.9601307 -30.8354874
-135.8972473 29.9667854 -31.4813652
-138.6446991 29.9845486 -32.3835564
-141.4292450 30.0060539 -33.5473595
-144.2879333 30.0373001 -35.0585938
-100.5796661 32.9426270 -43.9736595
-102.9716644 32.8771782 -41.5567551
-105.3979111 32.8252373 -39.5519562
-107.8434677 32.7840958 -37.8769455
-110.3155060 32.7425575 -36.4601669
-133.5825195 32.6514664 -33.6198158
-136.3084869 32.6668625 -34.3767014
-139.0850525 32.6903114 -35.4161987
-141.8902893 32.7148361 -36.7471352
-103.3972473 35.6312866 -45.6011467
-105.8003387 35.5668221 -43.2658691
-108.2359314 35.5147896 -41.3737183
-110.6922379 35.4696617 -39.8093834
-113.1869965 35.4362946 -38.5609207
-115.6958694 35.3991585 -37.5444832
-123.3854141 35.3529091 -35.9230919
-125.9970703 35.3517227 -35.8335381
-128.6399078 35.3482895 -35.9486542
-131.3182068 35.3603821 -36.3310394
-134.0383148 35.3708420 -36.9544716
-136.7919464 35.3968544 -37.8630905
-139.6067505 35.4259567 -39.1065063
-108.7229156 38.2906876 -45.8049545
-111.1612091 38.2380867 -43.9679489
-113.6415329 38.1925545 -42.5284729
-116.1581879 38.1632309 -41.4164543
-123.8598022 38.1022720 -39.6625443
-126.4888687 38.1026917 -39.6170235
-129.1502075 38.1062927 -39.8220291
-131.8542786 38.1167831 -40.3098526
-134.6114655 38.1410942 -41.1232300
-116.7391586 40.9638138 -46.4011803
-119.2796021 40.9378586 -45.4248772
-121.8531647 40.9206543 -44.7801819
-124.4573669 40.9097557 -44.4487495
107.9380569 -112.4200134 30.1513176
106.7374878 -112.3367310 30.5958481
105.4458084 -112.4125366 30.4510040
104.1951904 -112.4636002 30.2904243
113.8496704 -110.8100433 32.0678062
112.5353317 -110.7220001 32.7994614
111.2491226 -110.6472778 33.3524971
109.9730453 -110.5871506 33.7888031
108.7201462 -110.5644608 34.0917511
107.4761353 -110.5568314 34.3080597
103.7867889 -110.6405792 34.2842216
102.5899887 -110.6979446 34.0721321
101.3967438 -110.7734528 33.8004570
100.2150345 -110.8619003 33.4167442
99.0347061 -110.9616470 32.9450607
97.8609314 -111.1119003 32.3621674
96.7031937 -111.2563705 31.6313019
95.5489502 -111.4276657 30.7321625
116.0578003 -109.2347565 34.2764816
114.7092590 -109.1128998 35.0806198
113.4290771 -109.0437241 35.7364349
112.1509018 -109.0068283 36.2364845
110.8748245 -108.9795914 36.6521759
109.6075211 -108.9460297 37.0091400
108.3615036 -108.9572525 37.2028961
107.1414871 -108.9681854 37.3290634
103.4667358 -109.0575790 37.2727509
102.2711105 -109.1020203 37.1045723
101.0835190 -109.1706314 36.8402405
99.8994064 -109.2336731 36.5310478
98.6987610 -109.3082657 36.1359062
97.5314026 -109.4243774 35.6028290
96.3790665 -109.5197830 35.0343399
95.2090683 -109.6469193 34.3237152
94.0657578 -109.8028793 33.5328865
119.6599045 -107.9239960 34.7235527
118.3233566 -107.7917252 35.7845917
117.0022430 -107.6796188 36.6523705
115.6725998 -107.5897675 37.3881111
114.3431625 -107.5200043 38.0486526
93.7916336 -108.2001038 36.4237823
92.6333466 -108.3466415 35.6098900
91.5011520 -108.5033417 34.7265015
90.3475800 -108.7290573 33.6856537
120.6022644 -106.3948441 36.7161179
119.2903900 -106.2893982 37.6813049
117.9937210 -106.1999741 38.5173531
116.6786270 -106.1185989 39.2641945
115.3737106 -106.0585709 39.8964958
114.0681534 -106.0072784 40.4329414
93.5594177 -106.6939926 38.8074722
92.3910751 -106.8245239 38.0776901
91.2594681 -106.9542542 37.2936325
90.1142120 -107.1090012 36.3953133
88.9767075 -107.3061523 35.3790588
87.8368225 -107.5178757 34.2386703
124.4298019 -105.3019104 35.7741547
123.0397644 -105.1249084 37.1044884
121.6680374 -104.9809647 38.2619324
120.3103333 -104.8802261 39.2432480
118.9746704 -104.7680588 40.1226997
88.7714081 -105.7598648 37.7811661
87.6333923 -105.9252319 36.7826004
86.4974365 -106.1244278 35.6459656
85.3869858 -106.3400040 34.4278564
125.4344635 -103.8951797 37.1828003
124.0730591 -103.7370758 38.4383087
122.7296677 -103.6107712 39.5490646
121.3827591 -103.5006714 40.5344505
120.0352173 -103.4040909 41.4089737
118.7273712 -103.3337555 42.1407776
88.5685577 -104.3130341 39.8187485
87.4312439 -104.4500885 38.9396820
86.2924042 -104.6157684 37.9241180
85.1884384 -104.7928009 36.8264122
84.0548096 -105.0213242 35.5899696
126.5620880 -102.5444794 38.3875885
125.1260986 -102.3928070 39.5741425
123.7930450 -102.2621994 40.6615677
83.8832397 -103.5138779 37.7470055
82.7619629 -103.7278214 36.5169144
81.6191254 -103.9825897 35.1113968
129.0766602 -101.4107971 37.5433769
127.6632538 -101.2419586 39.0791321
126.2448883 -101.0792465 40.4365005
124.8453369 -100.9317780 41.6169434
123.5354614 -100.8330994 42.5746498
83.7195435 -102.0846710 39.6261063
82.6007080 -102.2625580 38.4951859
81.4741516 -102.4558563 37.2380486
80.3638229 -102.6870804 35.8605919
130.1565857 -100.1177368 38.3048401
128.7681274 -99.9373703 39.7843857
81.3016815 -101.0376282 39.0610161
80.2023392 -101.2311249 37.8087845
79.0736389 -101.4768906 36.4236221
131.3072510 -98.8563690 38.8023033
129.8811798 -98.6758118 40.3547668
128.5190430 -98.5274887 41.6691437
81.1584015 -99.6406403 40.6925888
80.0558319 -99.8177338 39.5240822
78.9275665 -100.0325470 38.2064972
132.5252686 -97.6340942 39.0477448
131.0189514 -97.4197998 40.7696762
78.8029175 -98.6281357 39.8411560
77.6956863 -98.8248367 38.5418015
76.5704803 -99.0643921 37.0685196
133.7118225 -96.4112320 39.2360115
132.2577515 -96.2218704 40.9106483
130.8001862 -96.0485992 42.4253082
78.6748962 -97.2684250 41.2880478
77.5714722 -97.4474564 40.0728760
76.4507065 -97.6516876 38.7005844
75.3528290 -97.8746490 37.2241020
74.2470856 -98.1301270 35.5875931
134.8921814 -95.2105255 39.3136864
133.4604797 -95.0170746 41.0045738
74.1294479 -96.7122803 37.2701530
136.0705719 -94.0261841 39.2760048
134.6653748 -93.8356018 40.9765701
133.2432098 -93.6522369 42.5424957
73.9991455 -95.3518066 38.7024651
72.9054031 -95.5731812 37.1623459
71.8038025 -95.8453522 35.4211578
135.8601685 -92.6632233 40.8706474
71.6956024 -94.4483719 36.9347610
137.1561279 -91.5090637 40.5977478
135.6493683 -91.3152466 42.3028870
71.5972748 -93.0931168 38.2921066
70.4587021 -93.3640823 36.5884857
138.4550781 -90.4014664 39.9939156
136.9427795 -90.1777344 41.9046402
135.4641724 -89.9936600 43.5660477
71.4985504 -91.7578506 39.5056190
70.3757019 -91.9981689 37.8798370
139.7322235 -89.2770691 39.4001198
138.2343140 -89.0546494 41.3710632
136.7646637 -88.8699570 43.1218910
135.2672882 -88.6795654 44.7392426
71.4130859 -90.4455414 40.6139259
70.2942123 -90.6632385 39.0576706
69.1792755 -90.9113846 37.4296341
139.5241699 -87.9448242 40.7480164
138.0524750 -87.7451630 42.5859680
69.1117096 -89.5755539 38.5528221
140.8343811 -86.8566589 39.9981384
139.3432007 -86.6369858 41.9370193
137.8869019 -86.4514618 43.6673737
69.0449219 -88.2639084 39.5913773
67.9345703 -88.4958954 37.9600677
140.6330414 -85.5415649 41.1789474
68.9820709 -86.9742355 40.5327301
67.8673477 -87.1921005 38.9194031
66.7503815 -87.4369278 37.1805382
141.9895172 -84.4746246 40.1972694
140.4894714 -84.2642899 42.1877823
68.9036560 -85.7048874 41.3539658
67.7875519 -85.9097290 39.7937737
66.6896896 -86.1332855 38.1252785
141.8498077 -83.2016449 41.2011108
140.3411255 -82.9954453 43.1208649
66.6294327 -84.8447342 39.0016251
65.5085602 -85.0900955 37.2065849
141.6831665 -81.9227600 42.1511345
140.2321014 -81.7478485 43.9240685
66.5706558 -83.5770111 39.7964592
143.1141968 -80.8849030 40.9104614
141.5596313 -80.6697311 42.9524040
140.1135712 -80.5020676 44.6689682
105.6144257 -79.2982101 60.4791718
104.4422455 -79.3206177 60.4735870
103.2510223 -79.3467255 60.4376373
102.0641022 -79.3796463 60.3865929
66.5123215 -82.3186493 40.5191727
65.4197388 -82.5265503 38.8553810
142.9708405 -79.6271973 41.7212448
141.4653931 -79.4353485 43.6480331
140.0152130 -79.2718353 45.3191757
105.5719452 -78.1176453 60.7993813
104.3941116 -78.1438828 60.7948761
103.2095184 -78.1655579 60.7639236
102.0247574 -78.1965942 60.7169037
66.4652176 -81.0692368 41.1657677
65.3844299 -81.2642517 39.5391960
144.4041595 -78.6039429 40.3053665
142.8715973 -78.3901138 42.4186974
107.9416580 -76.9122314 60.9999809
106.7265778 -76.9348984 61.0554848
105.5270233 -76.9491959 61.0877914
101.9864273 -77.0195847 60.9993057
66.4224472 -79.8310013 41.7389297
65.3198242 -80.0267487 40.1443977
144.2727661 -77.3568344 41.0304527
142.7704010 -77.1612473 43.0465584
107.9038391 -75.7501602 61.2668648
106.6943893 -75.7639084 61.3260269
101.9518433 -75.8505936 61.2567902
66.3885956 -78.5955353 42.2728157
65.2663345 -78.7897720 40.7082443
144.1843719 -76.1340561 41.6182289
142.6719971 -75.9439163 43.6027412
107.8735046 -74.5883789 61.5047607
106.6601868 -74.5941620 61.5696716
101.9163818 -74.6798401 61.4994202
98.3922043 -74.7894287 61.1378326
97.2196808 -74.8267059 60.9833488
96.0286484 -74.8656006 60.7998772
94.8608170 -74.9118118 60.5708427
93.7147522 -74.9611206 60.3128281
92.5537491 -75.0151749 60.0282669
91.3970795 -75.0633316 59.7102814
90.2103424 -75.1271210 59.3451996
66.3544617 -77.3694534 42.7412033
65.2284164 -77.5592117 41.1964493
64.1321716 -77.7538986 39.5625267
63.0432625 -77.9651337 37.7889175
61.9025040 -78.2188721 35.8204041
145.6421814 -75.1301117 39.9940491
144.0978241 -74.9156799 42.1560364
142.6098633 -74.7364960 44.0615005
107.8409424 -73.4206390 61.7170601
106.6263733 -73.4393997 61.7763481
105.4401703 -73.4474945 61.7954941
103.0753403 -73.4805984 61.7560120
101.8891449 -73.5274734 61.7101974
98.3627319 -73.6297226 61.3472328
97.1802902 -73.6619720 61.1991348
96.0125504 -73.7037811 61.0115433
94.8255692 -73.7545013 60.7683830
93.6891403 -73.7920303 60.5297318
92.5235901 -73.8465652 60.2471695
91.3493881 -73.9073639 59.9072418
90.1775742 -73.9632492 59.5523834
66.3192902 -76.1540146 43.1427383
65.1911392 -76.3390884 41.6348381
64.0792694 -76.5311813 40.0278091
62.9878845 -76.7367172 38.2935104
61.8821411 -76.9677277 36.3592606
60.7613907 -77.2284393 34.2559166
145.5529480 -73.9097900 40.5084763
112.6260986 -72.2391815 61.3436928
111.4020691 -72.2463150 61.5275536
110.2117157 -72.2499771 61.6794701
109.0019226 -72.2523422 61.7979431
107.8110962 -72.2627411 61.8887749
106.5940399 -72.2779007 61.9507446
105.4121017 -72.2957001 61.9849548
104.2286072 -72.3156967 61.9849472
103.0405273 -72.3403320 61.9508247
101.8591461 -72.3691406 61.8883362
100.6718369 -72.3970947 61.7959099
99.5076294 -72.4247360 61.6780167
98.3311615 -72.4685593 61.5359879
97.1598053 -72.4999084 61.3806229
91.3236771 -72.7435913 60.0947342
90.1582870 -72.7970734 59.7516861
89.0231476 -72.8543777 59.3974762
87.8695221 -72.9164124 58.9965363
64.0456009 -75.3109818 40.4430008
62.9566460 -75.5085297 38.7513885
61.8489838 -75.7315826 36.8488731
145.4743195 -72.6996002 40.9456787
112.6016769 -71.0885010 61.5045776
111.3662109 -71.0842438 61.6900940
110.1726456 -71.0929260 61.8216324
109.0192871 -71.1126022 61.8778000
107.7843857 -71.1111603 62.0257072
106.5770721 -71.1300430 62.0939598
105.3807602 -71.1401825 62.1395760
104.2016144 -71.1633377 62.1353111
103.0254517 -71.1881943 62.0954208
99.4825897 -71.2766418 61.8503113
91.3191833 -71.5753632 60.2782593
90.1399231 -71.6338806 59.9353867
89.0012131 -71.6904297 59.5746803
87.8418961 -71.7546158 59.1615067
64.0126953 -74.0988541 40.7889519
62.9248886 -74.2893219 39.1351089
61.8032036 -74.5077133 37.2740479
146.9458466 -71.7146072 39.0095406
145.4111023 -71.5017166 41.3097076
117.4566574 -69.9605560 60.6096649
116.2381897 -69.9507141 60.9104118
115.0101013 -69.9425201 61.1880074
113.7914429 -69.9363556 61.4246368
112.5718155 -69.9360962 61.6288185
111.3560638 -69.9407654 61.7983551
106.5530624 -69.9741592 62.2196388
105.3615799 -69.9916687 62.2637825
104.1900253 -70.0144653 62.2476616
102.9979782 -70.0396729 62.2015495
94.7673035 -70.2794418 61.2242050
93.6143494 -70.3231201 60.9846497
92.4460068 -70.3714600 60.7186813
87.8239975 -70.5932312 59.2961235
86.6767578 -70.6583176 58.8671417
85.5234604 -70.7238541 58.4048309
84.3646088 -70.7994766 57.8944969
83.2339249 -70.8715820 57.3699989
63.9840431 -72.8922043 41.0896645
62.9028625 -73.0755997 39.4708786
146.9001007 -70.5177155 39.3545380
145.3593597 -70.3110504 41.6094742
117.4420013 -68.8160172 60.7105865
116.2033005 -68.8000565 61.0216446
114.9887390 -68.7930908 61.2909088
113.7893677 -68.7972870 61.5138016
112.5562592 -68.7887497 61.7188950
93.6001892 -69.1664276 61.1054001
87.7959366 -69.4412308 59.3973007
84.3358841 -69.6435394 58.0030212
83.2132187 -69.7132874 57.4829025
63.9734421 -71.6853027 41.3700714
62.8695335 -71.8716431 39.7332458
146.8397980 -69.3241119 39.6402855
145.3154907 -69.1261749 41.8502502
119.8966675 -67.6991577 60.0726318
116.1986847 -67.6589127 61.0900154
93.5856934 -68.0176544 61.1898613
87.7788239 -68.2894135 59.4667435
84.3317719 -68.4822540 58.1018944
83.1960907 -68.5535278 57.5768471
63.9526596 -70.4890747 41.5770874
62.8537521 -70.6694183 39.9718018
148.4762268 -68.3856888 37.1657104
146.8089905 -68.1434555 39.8182411
145.2895813 -67.9508820 42.0154419
119.8849411 -66.5567627 60.1198578
85.4671097 -67.2612534 58.6576920
84.3183746 -67.3284760 58.1630859
83.1841965 -67.3992004 57.6461067
63.9360046 -69.2983932 41.7413635
62.8370895 -69.4733047 40.1600494
148.4336243 -67.2015305 37.3396873
119.8685379 -65.4154663 60.1431694
118.6383896 -65.3987732 60.5140686
117.3884583 -65.3853683 60.8582001
85.4522400 -66.1131821 58.6896133
84.3112946 -66.1772461 58.2059631
83.1696777 -66.2467194 57.6933060
82.0178146 -66.3200378 57.1325645
80.8833542 -66.3965988 56.5355835
63.9205475 -68.1115875 41.8626747
62.8270111 -68.2814255 40.3005180
61.6918259 -68.4738312 38.5489349
148.4120789 -66.0254059 37.4387970
119.8623581 -64.2780151 60.1374550
118.6323700 -64.2622833 60.5087662
117.3878021 -64.2475433 60.8545914
85.4584732 -64.9624481 58.7025528
80.8679199 -65.2445526 56.5601311
63.9118385 -66.9294891 41.9389648
62.8043671 -67.0998917 40.3612633
61.6752167 -67.2856903 38.6382637
148.4093933 -64.8572235 37.4584007
119.8579254 -63.1431656 60.1030083
118.6206207 -63.1264572 60.4813919
117.3817291 -63.1132660 60.8298721
80.8367767 -64.0999908 56.5578308
61.6744194 -66.0991058 38.7067184
148.3826294 -63.6892014 37.4737473
119.8608475 -62.0110283 60.0377655
118.6246643 -61.9939346 60.4242096
83.1480713 -62.8081207 57.6303711
80.8645096 -62.9496117 56.4971008
61.6719360 -64.9182739 38.7162018
148.3970490 -62.5326767 37.3630867
119.8655090 -60.8809853 59.9477768
118.6288910 -60.8635941 60.3405533
83.1611481 -61.6654091 57.5594864
81.9961624 -61.7358322 56.9919891
80.8583221 -61.8073654 56.4074364
61.6752548 -63.7428703 38.6674500
60.5767822 -63.9282532 36.8460770
148.4243774 -61.3833313 37.1641617
119.8672256 -59.7524033 59.8379822
83.1612930 -60.5261765 57.4594116
82.0010681 -60.5951767 56.8937149
80.8613663 -60.6651840 56.3151245
61.6664429 -62.5732765 38.5585213
60.5805893 -62.7543831 36.7513313
148.4759216 -60.2382736 36.9095421
146.7926025 -60.0288315 39.5401230
145.2718353 -59.8592415 41.6900787
119.8738480 -58.6264420 59.6974106
118.6390533 -58.6118126 60.0689125
117.4125671 -58.5998039 60.3995132
83.1597900 -59.3890839 57.3315506
61.6735229 -61.4050941 38.4297142
60.5861702 -61.5840645 36.6165543
146.8117981 -58.8880501 39.2948952
145.3135986 -58.7227364 41.4060745
119.8900681 -57.5027504 59.5262756
118.6597977 -57.4874306 59.8920670
117.4135208 -57.4775620 60.2317657
84.3095245 -58.1920280 57.6879616
83.1705780 -58.2544556 57.1734543
61.6832008 -60.2407837 38.2507782
60.5840607 -60.4186249 36.4169617
146.8680878 -57.7578392 38.9009666
145.3442993 -57.5898094 41.0865364
119.9107056 -56.3811340 59.3264313
91.2483521 -56.7487068 59.9301147
85.4708405 -56.9992981 57.9951248
84.3230362 -57.0606575 57.5012779
83.1786804 -57.1221733 56.9757233
61.6913071 -59.0807266 38.0178757
146.9227753 -56.6306076 38.4624672
145.4054718 -56.4623642 40.6784210
119.9330368 -55.2620850 59.0928040
115.0152130 -55.2172928 60.4207153
91.2688293 -55.6232414 59.7129631
84.3291931 -55.9309654 57.2792664
83.1822662 -55.9902077 56.7537079
61.6999664 -57.9237480 37.7393379
146.9892883 -55.5045433 37.9875183
145.4570770 -55.3375015 40.2415276
119.9562988 -54.1425362 58.8276558
118.7230301 -54.1284790 59.2086334
117.4759750 -54.1159286 59.5602341
116.2411423 -54.1093559 59.8810234
115.0203400 -54.1025391 60.1658325
113.8006668 -54.0986786 60.4118805
112.6034622 -54.0941696 60.6166077
91.2795639 -54.4986382 59.4804497
90.1102219 -54.5426521 59.1485786
84.3493881 -54.8013611 57.0515671
83.2034607 -54.8606644 56.5256805
82.0479050 -54.9238052 55.9695969
80.9206696 -54.9905167 55.3895416
61.7208786 -56.7706985 37.4175301
60.6037903 -56.9401817 35.5418015
145.5411835 -54.2145157 39.7237206
119.9870834 -53.0280075 58.5417099
118.7388153 -53.0135269 58.9256744
117.5100098 -52.9979820 59.2750626
116.2747040 -52.9919014 59.6021996
115.0569000 -52.9854813 59.8844070
113.8159180 -52.9850845 60.1332779
112.6179504 -52.9828300 60.3415794
111.3990097 -52.9802513 60.5364494
88.9973450 -53.4693336 58.5326958
87.8303223 -53.5156975 58.1385880
86.6751556 -53.5644684 57.7274208
82.0670700 -53.7954865 55.7025986
80.9293060 -53.8594170 55.1133842
61.7336311 -55.6211090 37.0175323
60.6363564 -55.7906113 35.1419945
145.5866394 -53.0977135 39.1886330
110.2346802 -51.8751297 60.3840561
88.9833374 -52.3392906 58.2234573
87.8302307 -52.3908081 57.8328590
86.6841354 -52.4414902 57.4188118
82.0798264 -52.6668854 55.4036980
80.9448853 -52.7330551 54.8161125
61.7498856 -54.4741211 36.5799217
60.6611900 -54.6455383 34.6704330
145.7008820 -51.9835129 38.5030975
110.2744675 -50.7581825 60.0366631
106.6391754 -50.7886314 60.3241997
100.6952972 -50.8745041 60.2539101
99.5316010 -50.9034004 60.1557388
98.3478622 -50.9267845 60.0215721
91.3493729 -51.1332359 58.6308136
87.8681946 -51.2721558 57.5205460
86.7099533 -51.3189163 57.0934906
85.5545883 -51.3711243 56.6473389
84.4111786 -51.4244843 56.1677704
83.2771912 -51.4828453 55.6526413
82.1086121 -51.5433273 55.0787010
80.9619446 -51.6052475 54.4778976
61.7730103 -53.3295784 36.1009979
60.6937714 -53.4987411 34.1726418
145.8125916 -50.8691788 37.7890434
144.2308960 -50.7251205 40.0020752
142.7231750 -50.5916595 41.9665070
110.2805405 -49.6472664 59.7047157
109.0632858 -49.6522980 59.8448029
107.8815002 -49.6616745 59.9149323
106.6748428 -49.6731033 59.9727898
105.4709015 -49.6957779 60.0358734
103.1068115 -49.7074356 60.0373878
101.9222183 -49.7401581 59.9907227
100.7244415 -49.7615433 59.9137573
99.5509186 -49.7802544 59.8080292
98.3751678 -49.8123360 59.6828384
97.2060318 -49.8372650 59.5313416
96.0285187 -49.8659668 59.3445854
94.8761063 -49.9057922 59.1401443
93.6957703 -49.9336472 58.8853340
92.5290756 -49.9740181 58.5969658
91.3738098 -50.0125198 58.2874832
87.8839798 -50.1476555 57.1769028
64.0131836 -51.8854065 39.0437698
62.9084129 -52.0301208 37.3902702
61.8071823 -52.1878815 35.5816345
60.7054062 -52.3518791 33.6075821
144.3291626 -49.6176796 39.2541733
142.8303986 -49.4816170 41.2459259
110.3125000 -48.5405998 59.3473206
109.1028671 -48.5424805 59.4651642
107.9075470 -48.5520554 59.5388756
106.7097778 -48.5607491 59.6099777
105.5063171 -48.5721436 59.6641464
104.3250580 -48.5891228 59.6771278
103.1228943 -48.6037369 59.6547012
101.9513702 -48.6282425 59.6156158
100.7581024 -48.6460724 59.5386467
99.5968170 -48.6718559 59.4377594
98.4018097 -48.6990738 59.3125687
97.2304077 -48.7250481 59.1555748
96.0547028 -48.7497177 58.9643402
94.8865280 -48.7841263 58.7525902
93.7230072 -48.8238678 58.5026207
92.5554810 -48.8619270 58.2116356
91.3942184 -48.8956757 57.9002838
90.2332306 -48.9386902 57.5757561
89.0819321 -48.9818420 57.2108498
87.9188843 -49.0304337 56.8027229
64.0417480 -50.7501144 38.4982033
62.9436150 -50.8926544 36.8344574
61.8357315 -51.0494537 34.9893494
144.4333038 -48.5155487 38.4548912
142.9197540 -48.3778191 40.5074539
91.4313812 -47.7814713 57.5044403
87.9422379 -47.9084358 56.4000015
64.0704193 -49.6140671 37.9004326
62.9753036 -49.7579651 36.2038841
144.5647583 -47.4119492 37.5542412
143.0349426 -47.2770538 39.6765099
91.4635468 -46.6615791 57.0766182
87.9828873 -46.7914085 55.9739189
64.1131058 -48.4808578 37.2639999
63.0240822 -48.6253662 35.5335693
61.8828049 -48.7746201 33.5601768
144.7224121 -46.3124123 36.5502510
143.1553955 -46.1798630 38.7675552
141.6428070 -46.0538902 40.7414932
140.1890411 -45.9453621 42.4503174
64.1568527 -47.3523178 36.5600243
63.0638580 -47.4940758 34.7854767
143.3176880 -45.0777283 37.7552834
141.7692413 -44.9551544 39.8310471
140.2919769 -44.8493080 41.6204262
64.2024765 -46.2245369 35.7788544
141.9201813 -43.8592377 38.7948494
140.4330597 -43.7516251 40.6479073
66.4622269 -44.8429337 38.2098808
65.3519745 -44.9675674 36.6345558
64.2369385 -45.1012802 34.9020882
142.0744171 -42.7735252 37.6384048
140.5733643 -42.6574402 39.5976219
66.5183716 -43.7195015 37.3912544
65.4115601 -43.8445740 35.7746468
64.3094177 -43.9778976 34.0163956
-116.8005524 -52.1517715 -53.6396637
-121.8212357 -52.0584488 -51.0861130
-123.1104279 -52.0053177 -50.8033142
-125.7542572 -52.0200539 -50.6717720
-127.1128845 -52.0873985 -50.7759781
142.2324982 -41.6851997 36.4342308
140.7153778 -41.5713806 38.4960136
139.2520905 -41.4661522 40.2910194
137.7958527 -41.3745193 41.9101067
66.5747299 -42.5978928 36.4947281
65.4611359 -42.7254181 34.8060493
-111.3885956 -50.7518845 -53.2860947
-113.7777405 -50.5829849 -50.8636322
-115.0103226 -50.5083847 -49.9284973
-116.2483673 -50.4698486 -49.1069527
-117.4974060 -50.4547577 -48.4327965
-118.7573547 -50.4344025 -47.8703041
-120.0194244 -50.4163742 -47.4265480
-121.3157654 -50.4089012 -47.0851097
-122.6088181 -50.4120636 -46.8334503
-123.9266815 -50.4311256 -46.7092819
-125.2315140 -50.4226799 -46.6259460
-126.5799408 -50.4502792 -46.6923676
-127.9280930 -50.4834061 -46.8064461
-129.2854919 -50.5035515 -47.0761299
-130.6782684 -50.5428467 -47.4846497
-132.0580902 -50.6192894 -47.9561081
142.4581604 -40.5826378 35.1143951
140.9044495 -40.4758530 37.2598305
139.4189301 -40.3775787 39.1384048
137.9567108 -40.2797623 40.8346176
66.6279984 -41.4801559 35.5020370
65.5281372 -41.6073074 33.7723160
-109.7439880 -49.1490326 -50.3999863
-110.9294128 -49.0981293 -49.2037239
-112.1434250 -49.0551605 -48.1385689
-113.3595657 -49.0101395 -47.2469139
-114.5965118 -48.9733391 -46.4521446
-115.8347931 -48.9358521 -45.7567520
-117.0986481 -48.9156876 -45.1785316
-118.3716431 -48.9004669 -44.6870804
-119.6292038 -48.8956718 -44.3077621
-120.9310608 -48.8969345 -43.9973145
-122.2212906 -48.8957901 -43.7500305
-123.5343857 -48.8982277 -43.5961838
-124.8532104 -48.9129333 -43.5419388
-126.1764679 -48.9327774 -43.5566139
-127.5069199 -48.9386024 -43.6129303
-128.8610840 -48.9697876 -43.8195076
-130.2244873 -48.9886665 -44.0886726
-131.5838013 -49.0232239 -44.4693756
-132.9971924 -49.0749130 -44.9759369
-134.4103699 -49.1420326 -45.5660095
139.5713501 -39.2961769 37.9269943
138.0977020 -39.1919861 39.7060242
68.9105682 -40.1368637 37.5808945
67.8042450 -40.2480125 36.0919495
66.7049866 -40.3672447 34.4572678
65.5926514 -40.4868927 32.6511650
-105.8220444 -47.8361816 -51.0775681
-106.9851379 -47.7341805 -49.5505371
-108.1578827 -47.6672897 -48.2392197
-109.3665314 -47.6047630 -47.0433655
-133.9838867 -47.6068916 -42.5581856
-135.4198303 -47.6647873 -43.1800690
-136.8224030 -47.7224464 -43.8630638
-138.2718811 -47.8298035 -44.7002068
139.7825317 -38.2092781 36.5107651
138.2662964 -38.1097832 38.4334488
68.9925995 -39.0219002 36.5788383
67.8749161 -39.1316872 35.0013046
66.7671814 -39.2479362 33.2918968
-103.1389542 -46.4512711 -50.9425430
-104.2952805 -46.3494034 -49.2846642
-105.4618454 -46.2765770 -47.8143654
-106.6533966 -46.2166138 -46.5162773
-107.8364410 -46.1673012 -45.3981247
-109.0598755 -46.1149063 -44.3575745
-133.6437073 -46.1240540 -40.0229721
-135.0482941 -46.1685867 -40.5504799
-136.4450378 -46.2196121 -41.1617737
-137.8674011 -46.2778168 -41.8746414
-139.3186035 -46.3567581 -42.7030640
-140.7904968 -46.4536819 -43.6779671
140.0267639 -37.1125221 34.9553261
138.4535217 -37.0244446 37.0155754
69.0709686 -37.9108276 35.4681435
67.9493408 -38.0212135 33.8085747
-100.4951401 -45.1178360 -51.3344231
-101.6480103 -45.0043755 -49.5012627
-102.8191605 -44.9187202 -47.8671570
-103.9862442 -44.8465729 -46.4205627
-138.9495544 -44.8572769 -40.1626663
-140.3902130 -44.9180260 -41.0098763
-141.8711853 -44.9983597 -42.0093842
-143.3501587 -45.1003075 -43.1223450
138.6698914 -35.9599800 35.4536781
69.1276321 -36.7999382 34.2046356
68.0323944 -36.9145203 32.5111542
-99.0664978 -43.6885719 -50.2552490
-100.2222977 -43.5842781 -48.3738480
-101.3693085 -43.5006638 -46.7489090
-102.5368042 -43.4404945 -45.3309555
-103.7278290 -43.3767586 -44.0323753
-138.6479797 -43.4075508 -37.9792252
-140.0610657 -43.4617920 -38.7118683
-141.5171051 -43.5257797 -39.5813255
-142.9555664 -43.5896912 -40.5454826
-144.4532013 -43.6740036 -41.6816902
138.9235535 -34.8706894 33.6864510
137.3843384 -34.7809219 35.7690277
135.9182739 -34.6861801 37.5616875
71.4454269 -35.4863510 35.9885406
70.3177185 -35.5826149 34.4853172
69.2261353 -35.6920052 32.8900032
-97.6597748 -42.2835426 -49.3586388
-98.7963715 -42.1837502 -47.5156631
-144.1146698 -42.2066803 -39.3230591
-145.6033783 -42.2981529 -40.4585953
137.6428833 -33.6975098 34.0192223
136.1373901 -33.6127167 35.9372864
71.5301743 -34.3793030 34.6860275
70.4149780 -34.4796867 33.1240387
69.3184662 -34.5847702 31.4218006
-95.1500778 -40.9924507 -50.8229828
-96.2554245 -40.8895111 -48.7180786
-97.4175034 -40.8028030 -46.8488312
-98.5663986 -40.7290268 -45.2356949
-143.8349609 -40.7739410 -37.3152161
-145.2827606 -40.8327560 -38.3113136
-146.8050079 -40.9339104 -39.4852562
-148.3333740 -41.0500488 -40.7804947
137.9467773 -32.6039925 32.0074692
136.3931732 -32.5258179 34.1453018
134.9384308 -32.4517708 35.9233322
133.4753418 -32.3771439 37.5598717
73.8548431 -33.0921402 36.1053772
72.7332230 -33.1781540 34.7416382
71.6274185 -33.2713737 33.2617569
70.5283661 -33.3770370 31.6299019
-93.7885742 -39.6299973 -50.4657593
-94.9051437 -39.5219765 -48.2751617
-96.0278625 -39.4377022 -46.4266052
-146.5029297 -39.4841766 -37.5224762
-147.9838867 -39.5611954 -38.6708527
135.2149963 -31.3561249 34.0863419
133.7111816 -31.3020802 35.8465996
73.9552231 -31.9851456 34.7096519
72.8377991 -32.0748596 33.2762833
71.7379608 -32.1712189 31.7086182
-92.4361954 -38.2671204 -50.2818604
-93.5494003 -38.1655426 -48.0693588
-94.6874695 -38.0730019 -46.1250458
-95.8283997 -37.9986305 -44.4514847
-146.2508240 -38.0664978 -35.7576370
-147.7057037 -38.1286125 -36.8127098
-149.2098083 -38.2109795 -38.0341644
133.9601746 -30.2237129 33.9604950
132.4791412 -30.1594868 35.6903229
131.0630798 -30.0850410 37.1494675
74.0730896 -30.8804932 33.1891861
72.9555054 -30.9737129 31.6567249
-91.1084366 -36.9209900 -50.2885323
-92.2325134 -36.8106384 -47.9783440
-93.3498306 -36.7355309 -46.0487442
-148.9523926 -36.7926788 -36.2904663
-150.4697418 -36.8774872 -37.5519409
-152.0181274 -36.9706650 -38.9902420
132.7505493 -29.0649319 33.7359619
131.2752533 -29.0201283 35.3708038
74.1893158 -29.7796688 31.4866333
73.0764923 -29.8726444 29.8411140
-90.8996887 -35.4755325 -48.1328659
-92.0319748 -35.3913612 -46.0825500
-93.1854553 -35.3112602 -44.2597351
-148.7340851 -35.3977013 -34.7321930
-150.2160645 -35.4654617 -35.8879852
-151.7311401 -35.5397453 -37.2054634
-153.3021851 -35.6465302 -38.7014694
131.5582886 -27.9359837 33.2893028
130.1452789 -27.8800411 34.7977524
128.7672424 -27.8169422 36.1431465
76.5352325 -28.5132351 32.6554947
75.4316559 -28.5985413 31.2175198
74.3247070 -28.6905308 29.5987930
-88.5109329 -34.2546387 -50.8429489
-89.5997314 -34.1456795 -48.4281731
-90.7302933 -34.0526085 -46.2756310
-151.4852295 -34.1345291 -35.6141357
-153.0258942 -34.2185631 -37.0002670
131.8944702 -26.8423367 30.8906460
130.4343567 -26.8117905 32.5997963
129.0090942 -26.7555790 34.1439819
76.6777878 -27.4192600 30.8007698
75.5718842 -27.4931068 29.1904755
-88.3345337 -32.8233643 -48.8638000
-89.4314270 -32.7337494 -46.6572113
-90.5737000 -32.6551247 -44.6812210
-151.2737122 -32.7477036 -34.1965675
-152.7932587 -32.8203201 -35.4843941
-154.3279724 -32.9095421 -36.9043655
129.3370972 -25.6539879 31.8336678
127.8514481 -25.6292839 33.4141846
126.4656830 -25.5754604 34.7456932
81.2989655 -26.0331917 33.9728699
80.1813126 -26.0947304 32.8552132
79.0501099 -26.1668377 31.6078300
77.9389038 -26.2411003 30.2204494
76.8335495 -26.3272133 28.6786652
-87.0547714 -31.5065937 -49.5178604
-88.1808167 -31.4080639 -47.1084290
-154.0884247 -31.5033646 -35.4573441
128.1696777 -24.5379734 31.0130615
126.7328415 -24.5053844 32.5029984
81.4546585 -24.9350853 32.0947266
80.3388290 -25.0001831 30.8843498
79.2082367 -25.0706711 29.4982948
78.1129608 -25.1524754 27.9840088
-86.8807678 -30.1071358 -47.8394203
-88.0444107 -30.0034332 -45.5776520
-153.8838959 -30.1224384 -34.1565437
127.0766449 -23.4120750 29.8758450
125.6479645 -23.3910122 31.3867779
124.2996597 -23.3376389 32.6283875
122.9090347 -23.2970924 33.8043594
121.5575104 -23.2597160 34.7860336
120.2103271 -23.2377472 35.6735039
118.9128876 -23.2141953 36.4329147
83.8762589 -23.7242622 32.2939644
82.7525787 -23.7789612 31.1983814
81.6279449 -23.8434181 29.9777775
-87.9039230 -28.6320038 -44.2934494
-153.6956940 -28.7494850 -32.9809608
-155.2561340 -28.8233261 -34.3847198
-156.7760468 -28.8873596 -35.8437500
126.0385818 -22.2926159 28.4833488
124.6293564 -22.2900848 29.9723892
123.1997910 -22.2422142 31.3302841
121.8329010 -22.1944180 32.4483490
120.4728317 -22.1667328 33.4692307
119.1694336 -22.1304150 34.3219070
84.0617065 -22.6251736 30.0977058
82.9449158 -22.6937923 28.9132309
81.8299408 -22.7692413 27.5463390
-87.7992783 -27.2550240 -43.0885696
-153.5498047 -27.3879337 -31.9364662
-155.0819397 -27.4575214 -33.2347641
-156.6061707 -27.5229225 -34.6369781
-158.2068329 -27.6172371 -36.2475319
125.0529633 -21.1867790 26.7254715
120.7790756 -21.0947266 30.9620399
119.4500351 -21.0626640 31.9322433
118.1292114 -21.0310802 32.8056145
116.7968903 -21.0046730 33.5414200
115.4961395 -20.9885178 34.1657639
114.1985779 -20.9790936 34.7387505
88.8175659 -21.3227367 31.6905289
87.6701736 -21.3729362 30.8353767
86.5280609 -21.4249401 29.8724022
85.4064789 -21.4872932 28.8119602
84.2633820 -21.5486584 27.5991955
-87.6963806 -25.8915577 -42.0217705
-156.4322052 -26.1549702 -33.5585861
-158.0024109 -26.2332420 -35.0975266
-159.6174469 -26.3339691 -36.7838135
119.7831421 -20.0055428 29.1036339
118.4395905 -19.9755993 30.1347980
117.0803375 -19.9533463 31.0266037
115.7687378 -19.9299583 31.7469444
114.4661789 -19.9062767 32.4063187
89.0291748 -20.2416592 29.3108673
87.8965530 -20.2938404 28.3529396
86.7710190 -20.3487682 27.2124329
85.6809692 -20.3995056 25.8993797
-87.6329346 -24.5182877 -41.0192184
-156.2973328 -24.8001385 -32.6044807
-157.8430481 -24.8663273 -34.0700607
-159.4271240 -24.9464493 -35.6967735
120.2271042 -18.9007072 25.5875568
118.8255310 -18.9097424 26.8844604
114.7780914 -18.8347607 29.6726131
113.5059891 -18.8142738 30.3316498
112.1894379 -18.8009796 30.8731766
110.9140167 -18.7899036 31.2627926
109.6422119 -18.7936134 31.6334076
108.3983383 -18.7869644 31.9215183
107.1517029 -18.7938118 32.1376038
96.2558823 -18.9337120 30.8224983
95.0703125 -18.9654846 30.3197975
93.9067917 -18.9949951 29.7209015
92.7338867 -19.0293140 29.0513821
91.5912781 -19.0760269 28.3450241
90.4302292 -19.1148624 27.4548912
89.2816772 -19.1653404 26.4554710
88.1609802 -19.2294769 25.3659878
-86.4097519 -23.2343349 -41.8295593
-87.5490799 -23.1674137 -40.1680183
-159.2590332 -23.5784149 -34.6883316
115.1738281 -17.7720089 26.3295078
113.8488464 -17.7706470 27.1962738
112.5185165 -17.7559433 27.8450089
111.2338867 -17.7283230 28.3421097
109.9579163 -17.7098598 28.7690678
108.6995468 -17.7093544 29.1496239
107.4474106 -17.7160110 29.4321384
96.5241852 -17.8485546 28.0348740
95.3453598 -17.8944244 27.4955578
94.1741943 -17.9202690 26.7908440
93.0077515 -17.9601021 26.0459442
91.8777390 -18.0032482 25.1986446
90.7340851 -18.0411873 24.1453819
89.5958939 -18.0628281 22.9325848
-86.3405228 -21.8855400 -40.9932899
-87.4912949 -21.8137398 -39.3471565
-159.1236877 -22.2249603 -33.7946815
-160.7397461 -22.3135624 -35.4500732
109.0757141 -16.6713791 25.7595310
107.8043823 -16.6742630 26.1297150
106.5299377 -16.6624069 26.3244038
105.2926865 -16.6605587 26.4106712
101.6207657 -16.7009201 26.2917709
100.4068909 -16.7176094 25.9945335
99.2118225 -16.7364197 25.6339664
98.0388412 -16.7674217 25.2608299
96.8454971 -16.7821198 24.6946106
95.6711502 -16.7839680 24.0175896
-86.2674255 -20.5278912 -40.2127876
-87.4205475 -20.4735413 -38.6342239
-158.9829865 -20.8708515 -32.9684830
109.6017151 -15.5867052 21.1657715
108.3134460 -15.5708513 21.7280502
107.0618744 -15.5982342 22.3542061
105.7409592 -15.5593119 22.2860603
102.0407791 -15.5927277 22.1933689
100.8299255 -15.6194544 21.8585815
-86.1873322 -19.1871033 -39.5678596
-87.3625107 -19.1382580 -38.0043068
-158.8646851 -19.5248642 -32.2395821
-160.4414063 -19.5926247 -33.8132591
-86.1357651 -17.8468494 -38.9906502
-87.3158417 -17.8072681 -37.4457169
-158.7738190 -18.1869469 -31.6059628
-160.3105316 -18.2407169 -33.1118813
-86.0791855 -16.5153904 -38.4960442
-87.2761688 -16.4725418 -36.9334450
-158.6936188 -16.8521347 -31.0400543
-160.2454376 -16.9064846 -32.5240326
-86.0459290 -15.1815987 -38.0283928
-87.2466888 -15.1451473 -36.4759712
-117.8749847 -14.8701668 -18.6208305
-119.1285553 -14.8732080 -18.4338074
-120.4096146 -14.8804531 -18.2804794
-121.6772690 -14.8846378 -18.1557121
-122.9604950 -14.8902693 -18.0623207
-124.2535706 -14.8982763 -18.0208435
-158.5927124 -15.5161018 -30.5103760
-160.1518707 -15.5689192 -31.9691734
-161.7210693 -15.6255512 -33.5696716
-84.8660660 -13.8891954 -39.1968384
-86.0118408 -13.8579788 -37.6351776
-87.2062683 -13.8224678 -36.0963898
-117.8396454 -13.5655346 -18.3647366
-119.1087341 -13.5747061 -18.1834602
-122.9271240 -13.5924339 -17.7998543
-124.2288895 -13.5988264 -17.7698784
-158.5344238 -14.1882029 -30.0832462
-160.0709839 -14.2374773 -31.5019302
-161.6480713 -14.2906818 -33.0858536
-163.2591248 -14.3551664 -34.8012123
-84.8228760 -12.5660763 -38.8643875
-115.2987518 -12.2654772 -18.6157112
-116.5499268 -12.2654057 -18.3620262
-117.8294067 -12.2718105 -18.1449356
-119.0759964 -12.2747602 -17.9674149
-122.9016800 -12.2927761 -17.5756569
-124.1936874 -12.2982388 -17.5451546
-125.4769897 -12.3076782 -17.5187321
-126.7862091 -12.3216476 -17.5217400
-130.6661682 -12.3517885 -17.7402630
-131.9905701 -12.3648014 -17.8963203
-161.5826569 -12.9574471 -32.6535492
-84.7971268 -11.2382669 -38.5373116
-115.2677002 -10.9679861 -18.4125690
-124.1686707 -11.0044031 -17.3430099
-125.4495392 -11.0090590 -17.3170776
-126.7566071 -11.0214443 -17.3308105
-130.6556549 -11.0568476 -17.5399971
-131.9726105 -11.0668488 -17.6878109
-161.5162964 -11.6266832 -32.2728310
-163.1065979 -11.6806870 -33.9454498
-83.5901413 -9.9509687 -39.9817886
-84.7815247 -9.9172506 -38.2663116
-102.8220520 -9.6865406 -22.6849117
-104.0588837 -9.6802368 -22.0637264
-105.2802734 -9.6767225 -21.4961128
-106.5358353 -9.6709595 -20.9695358
-107.7452698 -9.6724329 -20.4914932
-109.0053101 -9.6661673 -20.0176144
-110.2437134 -9.6644573 -19.6096058
-111.4971085 -9.6671295 -19.2226467
-112.7377701 -9.6670513 -18.8577652
-114.0022125 -9.6650658 -18.5277557
-115.2565002 -9.6691723 -18.2495155
-125.4260483 -9.7136688 -17.1413841
-126.7309647 -9.7229385 -17.1624184
-128.0140076 -9.7332239 -17.2032127
-129.3268433 -9.7441797 -17.2726974
-130.6184998 -9.7537079 -17.3748150
-131.9541168 -9.7692204 -17.5262547
-133.2567749 -9.7819443 -17.7102261
-134.5845337 -9.7964849 -17.9312057
-135.9098969 -9.8091745 -18.1821709
-137.2398529 -9.8253279 -18.4706993
-161.4727936 -10.2994156 -31.9689960
-163.0507660 -10.3480158 -33.6291389
-83.5712891 -8.6280136 -39.7864990
-84.7667236 -8.5972118 -38.0730896
-102.8232880 -8.3865881 -22.5527573
-110.2251129 -8.3719358 -19.4853344
-111.4889069 -8.3706789 -19.0919018
-112.7332611 -8.3716640 -18.7325420
-113.9825363 -8.3738861 -18.4147511
-115.2402496 -8.3753471 -18.1402893
-116.4914093 -8.3785849 -17.8920612
-117.7735214 -8.3822613 -17.6632156
-119.0340424 -8.3873196 -17.4794140
-120.3120346 -8.3906593 -17.3228779
-128.0016327 -8.4383621 -17.0688953
-129.3228455 -8.4497604 -17.1547813
-130.6231079 -8.4593058 -17.2619209
-131.9437561 -8.4720383 -17.4046288
-133.2348022 -8.4823627 -17.5756569
-134.5751038 -8.4982662 -17.7920094
-135.8973694 -8.5124016 -18.0416946
-137.2274323 -8.5264502 -18.3353672
-161.4436340 -8.9752274 -31.7402210
-163.0185852 -9.0205803 -33.3753014
-83.5676727 -7.3067837 -39.6219444
-84.7577972 -7.2796783 -37.9276886
-102.8075256 -7.0903587 -22.4636497
-110.2112274 -7.0762415 -19.3892651
-111.4796371 -7.0768895 -19.0020714
-127.9964447 -7.1453557 -16.9852333
-129.3170471 -7.1551623 -17.0748539
-130.6052399 -7.1647468 -17.1739655
-131.9280090 -7.1767907 -17.3085403
-133.2278442 -7.1878176 -17.4756737
-137.2160339 -7.2294612 -18.2377033
-161.4136200 -7.6519752 -31.5690327
-163.0007629 -7.6957803 -33.2081146
-83.5682068 -5.9866796 -39.5128899
-84.7545929 -5.9627285 -37.8201218
-102.8073883 -5.7916183 -22.3908482
-104.0383606 -5.7892070 -21.7807026
-105.2604218 -5.7855949 -21.2113934
-106.5053787 -5.7848978 -20.6847439
-107.7349701 -5.7824583 -20.1984997
-108.9841385 -5.7819047 -19.7356911
-110.2154388 -5.7817631 -19.3281746
-111.4666672 -5.7847805 -18.9543419
-131.9140930 -5.8813124 -17.2431412
-133.2243652 -5.8935099 -17.4174824
-137.2195129 -5.9331255 -18.1767082
-161.3942108 -6.3302741 -31.4494095
-162.9607391 -6.3699284 -33.0731506
-164.6092377 -6.4155235 -34.9179306
-81.2591400 -4.7196779 -43.2956924
-82.4299164 -4.6916075 -41.2406769
-83.5491638 -4.6695638 -39.4939842
-84.7580872 -4.6462641 -37.7524109
-105.2515869 -4.4914999 -21.1915150
-131.9169922 -4.5878448 -17.2143211
-133.2272186 -4.5989442 -17.3901424
-134.5471191 -4.6106615 -17.5975742
-135.8814697 -4.6236086 -17.8518085
-137.1983490 -4.6361094 -18.1430016
-164.6015930 -5.0891051 -34.8483200
-80.1205444 -3.4252095 -45.5162888
-81.2621994 -3.3975685 -43.2987213
-82.4247360 -3.3730304 -41.2691536
-83.5688477 -3.3518107 -39.4746628
-84.7525330 -3.3324382 -37.7680664
-105.2604675 -3.1973710 -21.2026978
-116.4853668 -3.2099259 -17.7048073
-130.5971375 -3.2847173 -17.0711174
-131.9111633 -3.2951052 -17.2205772
-133.2224121 -3.3054454 -17.3973618
-134.5545197 -3.3167109 -17.6148148
-135.8839569 -3.3286314 -17.8659611
-137.2111359 -3.3409667 -18.1506920
-164.6063843 -3.7643588 -34.8514709
-77.9002228 -2.1630571 -50.9356232
-79.0218887 -2.1302719 -48.0557938
-80.1511993 -2.1007326 -45.5299950
-105.2574463 -1.9032505 -21.2516174
-106.5270462 -1.9040847 -20.7127895
-133.2282410 -2.0124345 -17.4391060
-134.5561523 -2.0232606 -17.6542282
-135.8888702 -2.0345700 -17.9070282
-137.2090759 -2.0463982 -18.1914444
-164.6185913 -2.4405746 -34.9145660
-77.9336166 -0.8325731 -51.0651436
-79.0540237 -0.8040496 -48.1909409
-80.1572266 -0.7779655 -45.6829758
-105.2738953 -0.6104346 -21.3255062
-106.5302734 -0.6113542 -20.7841263
-107.7575760 -0.6122651 -20.3129578
-109.0129166 -0.6130113 -19.8699417
-110.2432709 -0.6155069 -19.4493675
-135.9032135 -0.7408451 -17.9846764
-137.2403259 -0.7514684 -18.2738838
-164.6537170 -1.1170213 -35.0411606
-77.9222870 0.4995176 -51.3596306
-79.0666885 0.5218233 -48.4481926
-80.1828461 0.5446936 -45.8921432
-102.8445358 0.6828738 -22.5916519
-104.0731812 0.6838914 -22.0013027
-105.2934723 0.6838987 -21.4407425
-129.3424683 0.5988443 -17.2079048
-130.6505737 0.5906887 -17.3220196
-135.9181519 0.5522068 -18.0940437
-137.2508240 0.5422035 -18.3829899
-161.4437103 0.2605751 -31.7141933
-163.0192261 0.2340716 -33.3485413
-79.0972290 1.8477018 -48.7495079
-80.2197876 1.8660805 -46.1583099
