147.5746155 -38.4543076 49.5043488
122.2642975 -37.5802231 67.9697189
121.0127716 -37.5720558 68.3557892
82.4483032 -38.2805099 64.3516541
81.3162842 -38.3349495 63.7152481
64.5877991 -39.5241623 48.0835876
63.4882736 -39.6465530 46.3599548
62.4119949 -39.7762451 44.5144119
61.3081512 -39.9195747 42.4191704
149.2188873 -37.4572830 46.7474747
147.6248932 -37.3307190 49.1194420
122.2793503 -36.4669113 67.7692719
121.0335388 -36.4581795 68.1523590
119.8184128 -36.4525261 68.4881439
118.5884628 -36.4464188 68.8141632
117.3871918 -36.4402618 69.1071930
116.1588898 -36.4395981 69.3688507
114.9677887 -36.4426003 69.5725937
93.8517761 -36.7368279 68.6856461
82.4599991 -37.1545601 64.1554794
81.3187943 -37.2074356 63.5045471
64.5962067 -38.3754578 47.8230057
63.5103645 -38.4950256 46.1052361
62.4356918 -38.6250992 44.2225418
61.3290520 -38.7668762 42.0884247
149.2838593 -36.3303871 46.2921524
147.6945496 -36.2080688 48.6585083
146.1595459 -36.0981216 50.7629242
144.6752625 -36.0038338 52.5860558
114.9901428 -35.3347473 69.3140411
93.8675919 -35.6269302 68.4420776
85.8712387 -35.8895340 65.6125259
84.7342072 -35.9343605 65.0869293
83.5993347 -35.9813194 64.5264130
82.4688797 -36.0302277 63.9201393
81.3300247 -36.0825348 63.2685165
64.6059265 -37.2281952 47.5103722
63.5186729 -37.3462296 45.7759323
62.4481354 -37.4737167 43.8848877
149.3776398 -35.2065048 45.7357407
147.7538605 -35.0864258 48.1915283
146.2244873 -34.9788208 50.3067093
144.7199707 -34.8840714 52.1812286
115.0146790 -34.2201691 69.0668030
113.8125839 -34.2205238 69.2351685
111.4181137 -34.2311096 69.5904236
93.8788834 -34.5074196 68.2006226
89.2975616 -34.6483269 66.7484055
88.1659470 -34.6856651 66.3195496
87.0119705 -34.7271576 65.8529358
85.8822021 -34.7686234 65.3607178
84.7512665 -34.8124199 64.8354340
83.6230087 -34.8601952 64.2766953
82.4924088 -34.9071579 63.6676102
81.3549194 -34.9577637 63.0193405
64.6299591 -36.0840340 47.1687164
63.5363197 -36.2008591 45.4038887
62.4658813 -36.3249207 43.5016479
146.2974548 -33.8630104 49.7847900
144.7850189 -33.7672157 51.6933708
112.6323929 -33.1145134 69.1618652
111.4475327 -33.1240692 69.3012390
110.2496109 -33.1273003 69.4129181
109.0568695 -33.1393623 69.4965591
107.8694305 -33.1435242 69.5518951
106.6902618 -33.1557159 69.5811081
93.8948364 -33.3876076 67.9515152
88.1904831 -33.5678940 66.0614929
64.6438446 -34.9403229 46.7523003
63.5567207 -35.0567665 44.9726639
147.9654846 -32.8386040 47.0250778
146.3742523 -32.7456436 49.1971245
144.8548889 -32.6521645 51.1459351
112.6691742 -32.0037270 68.8588257
111.4615250 -32.0159760 69.0057678
107.8981628 -32.0406036 69.2497406
106.7265701 -32.0472565 69.2692108
95.0742264 -32.2500839 67.9250412
93.9201736 -32.2824974 67.6302338
92.7728424 -32.3106232 67.2856140
91.6332474 -32.3460083 66.9479828
88.2003708 -32.4467545 65.7628326
64.6784515 -33.7995911 46.3097305
63.5783310 -33.9128075 44.4902954
146.4680481 -31.6323586 48.5380669
144.9501648 -31.5382347 50.5295906
112.6914902 -30.8990211 68.5419922
107.9268494 -30.9286251 68.9168625
106.7458801 -30.9385109 68.9428635
103.2331696 -30.9869614 68.8067856
102.0521469 -31.0009689 68.7187653
100.8960266 -31.0207615 68.6119308
99.7181244 -31.0408611 68.4701080
98.5729141 -31.0532990 68.3288422
95.1091614 -31.1428185 67.6095505
91.6572571 -31.2308350 66.6437225
90.5226746 -31.2604389 66.2867889
89.3614731 -31.2967224 65.8752899
88.2207031 -31.3300362 65.4221954
66.8880844 -32.4599228 49.0171623
65.7927017 -32.5552750 47.4753952
64.7163239 -32.6647339 45.7949486
146.5733948 -30.5205364 47.8188095
145.0216675 -30.4264412 49.9006500
112.7266769 -29.7887535 68.1847534
111.5313263 -29.7970924 68.3172913
110.3331299 -29.7984123 68.4217377
109.1577682 -29.8127689 68.5106430
107.9579544 -29.8195438 68.5712280
106.7762604 -29.8330536 68.5921478
105.5963058 -29.8403397 68.5711517
104.4270782 -29.8591728 68.5345688
103.2557449 -29.8802109 68.4710388
102.0841827 -29.8989029 68.3863754
100.9255066 -29.9071808 68.2621765
99.7493439 -29.9303970 68.1157532
98.6039047 -29.9473896 67.9638672
97.4380188 -29.9655743 67.7573242
96.2816772 -29.9995670 67.5171432
95.1347580 -30.0276909 67.2577667
91.6891556 -30.1164169 66.2931671
90.5433350 -30.1468258 65.9163666
89.3846512 -30.1808624 65.4989014
88.2572632 -30.2159882 65.0539246
66.9245224 -31.3240776 48.5220909
65.8220673 -31.4193420 46.9405861
64.7355881 -31.5249767 45.2204475
146.7160034 -29.4059124 46.9898453
145.1266174 -29.3184223 49.1619415
66.9450531 -30.1867828 47.9407654
65.8704071 -30.2836857 46.3772736
146.8249664 -28.2990837 46.1147232
145.2507019 -28.2104034 48.3234215
66.9854813 -29.0554333 47.3301964
65.8945618 -29.1468010 45.7069359
145.3814850 -27.1052170 47.4257698
89.4919586 -26.8374176 64.2543335
88.3516541 -26.8668079 63.7989197
87.2089233 -26.9043903 63.3194008
86.0787277 -26.9432983 62.8159943
84.9288330 -26.9768753 62.2490082
83.7916489 -27.0205936 61.6599197
67.0254517 -27.9217911 46.6613350
65.9398041 -28.0166454 45.0109291
64.8498001 -28.1135101 43.1714401
145.5287781 -25.9942837 46.4263992
89.5304565 -25.7263641 63.7773819
84.9727325 -25.8635902 61.7509003
83.8369598 -25.8997803 61.1558266
67.0721359 -26.7914772 45.9353790
65.9854126 -26.8827744 44.2285271
-117.0871353 -32.9258575 -44.5783005
-118.3313904 -32.9146385 -43.9750633
-119.5830460 -32.8652496 -43.5090408
-120.8862839 -32.8221970 -43.2113075
-122.1755753 -32.8150940 -43.0219498
-123.5036316 -32.8861008 -42.9685555
-124.8251419 -32.9336700 -43.0088921
-126.1809387 -32.9600296 -43.2155914
145.6983948 -24.8845634 45.3144188
144.1683044 -24.8132133 47.4416161
142.6849976 -24.7338753 49.3691521
89.5655899 -24.6094418 63.2508240
85.0055695 -24.7406673 61.2219124
83.8712311 -24.7857685 60.6167221
67.1239090 -25.6606655 45.1344681
66.0364456 -25.7484741 43.3984451
-109.3095856 -31.5897903 -46.0554619
-110.4670868 -31.5389709 -44.6479111
-111.6560669 -31.4895496 -43.4830246
-112.8613434 -31.4196377 -42.4830475
-114.0885773 -31.3932171 -41.6634293
-115.3248596 -31.3605976 -40.9218330
-116.5692749 -31.3501778 -40.3309555
-117.8365555 -31.3513775 -39.8707428
-124.2930908 -31.3605194 -38.9735718
-125.6359482 -31.3783379 -39.0987129
-126.9878998 -31.4025764 -39.3012505
-128.3458557 -31.4190578 -39.6307869
-129.7341614 -31.4776268 -40.0919838
144.3309021 -23.7098770 46.3145065
142.8055420 -23.6329556 48.3872795
89.6152191 -23.4945412 62.7115326
88.4771729 -23.5060730 62.2896423
85.0558701 -23.6230793 60.6593323
83.9124451 -23.6627655 60.0426254
67.1840820 -24.5318031 44.2763824
-108.8262558 -30.0225868 -41.7959595
-110.0167542 -29.9812412 -40.6813812
-111.2264252 -29.9582005 -39.7510147
-112.4372330 -29.9432316 -38.9649315
-113.6814651 -29.9228554 -38.2456093
-114.9273376 -29.9168777 -37.6390877
-116.1853027 -29.9040508 -37.1134911
-117.4438477 -29.8924103 -36.6852493
-123.9038162 -29.9171677 -35.8260880
-125.2259750 -29.9356918 -35.9073257
-126.5601349 -29.9413586 -36.0389671
-127.9106140 -29.9655170 -36.3092995
-129.2798004 -29.9871044 -36.6643143
-130.6341858 -30.0150299 -37.0987854
-132.0464783 -30.0660286 -37.6737709
-133.4592285 -30.1383820 -38.3440514
144.5231018 -22.6078339 45.0764847
142.9632874 -22.5340080 47.2568321
141.5097809 -22.4560852 49.0718651
140.0465698 -22.4027748 50.7316055
89.6626587 -22.3813934 62.1372147
88.5240784 -22.4101009 61.6806564
87.3729858 -22.4425201 61.1696167
86.2351074 -22.4701767 60.6326523
85.1053772 -22.5146255 60.0590363
83.9715195 -22.5517139 59.4502373
69.4226227 -23.2387581 46.5738907
68.3386688 -23.3183270 45.0369911
67.2270584 -23.3970490 43.3178368
-103.7463074 -28.7651634 -43.7426682
-104.9002533 -28.6776028 -42.1591873
-106.0713501 -28.6470165 -40.8079987
-107.2475510 -28.6009674 -39.6238518
-131.6388397 -28.6046906 -34.6503448
-133.0194702 -28.6369781 -35.2112274
-134.4378052 -28.6889420 -35.8853722
-135.8678741 -28.7657833 -36.6804886
-137.3105774 -28.8208961 -37.6243668
144.7413635 -21.4953671 43.6782990
143.1578369 -21.4288464 45.9812660
141.6605988 -21.3581028 47.9374580
140.1838684 -21.2998505 49.6836205
89.7092285 -21.2635193 61.5117493
88.5740356 -21.2964821 61.0470543
87.4213562 -21.3262901 60.5337372
86.2976074 -21.3626232 60.0007019
85.1475601 -21.3944416 59.4128036
84.0096283 -21.4258537 58.7847519
69.4779968 -22.1094017 45.6496849
68.4027710 -22.1897793 44.0692711
-102.2355499 -27.3263397 -41.9080048
-103.3974304 -27.2730312 -40.3903542
-104.5541534 -27.2260761 -39.0562363
-105.7549286 -27.2089882 -37.9128418
-106.9442749 -27.1737289 -36.8672752
-131.3012848 -27.1864357 -32.1077652
-132.6666107 -27.2199440 -32.5929184
-134.0706329 -27.2550335 -33.1767654
-135.4522095 -27.2811279 -33.8127174
-136.8739319 -27.3164024 -34.5974960
-138.3365173 -27.3913059 -35.5490036
-139.8124237 -27.4785538 -36.6155586
141.8292236 -20.2595367 46.7241936
140.3483276 -20.1980038 48.5304108
94.3665085 -20.0446243 62.4151917
93.2181396 -20.0695648 62.0799103
92.0700836 -20.1022873 61.7159004
90.9211426 -20.1201229 61.2996559
89.7727509 -20.1567516 60.8626595
88.6318970 -20.1767540 60.3796043
71.7392044 -20.8407650 47.5983200
70.6641388 -20.9143219 46.2313843
69.5433655 -20.9874592 44.6430206
-98.4957352 -26.0813828 -44.0898247
-99.6332550 -25.9853802 -42.1110954
-100.7584991 -25.9283352 -40.4545364
-101.9195328 -25.8927498 -38.9896812
-139.4078217 -26.0005875 -33.8307419
-140.8745117 -26.0648613 -34.8963509
-142.3717346 -26.1657486 -36.1009293
142.0365143 -19.1471863 45.3482857
140.5098572 -19.1010437 47.2837524
94.4353638 -18.9351196 61.7414360
93.2909164 -18.9593582 61.4124413
89.8313293 -19.0356789 60.1639404
88.6917953 -19.0654755 59.6752625
71.8076019 -19.7204514 46.6360855
70.7229156 -19.7884846 45.1855698
69.6261368 -19.8708458 43.5345039
-97.0660324 -24.6677322 -42.8607216
-98.1828537 -24.6055069 -40.9677734
-99.3307419 -24.5559998 -39.2960815
-100.4843674 -24.5145435 -37.8304291
-101.6634827 -24.4717712 -36.5048485
-139.0550995 -24.5928516 -31.4049873
-140.5061035 -24.6344967 -32.3415222
-141.9595642 -24.6944542 -33.3816528
140.7182770 -17.9919605 45.8672867
139.2628479 -17.9391422 47.6369743
137.8542633 -17.8878059 49.2141647
94.4893112 -17.8192520 61.0116310
93.3490753 -17.8427982 60.6826401
89.8888397 -17.9215984 59.4184341
88.7525787 -17.9498711 58.9286652
71.8769760 -18.5923519 45.5642853
70.7988205 -18.6635571 44.0632820
-94.5284119 -23.3898277 -44.1320381
-95.6393585 -23.3011684 -41.9699631
-96.7770920 -23.2475529 -40.0674515
-141.6311340 -23.2859192 -31.0916920
-143.1061707 -23.3253555 -32.1852722
-144.6021576 -23.3843384 -33.4057846
140.9582977 -16.8760204 44.3439598
139.4402771 -16.8408813 46.2604675
138.0117493 -16.7862225 47.9416046
94.5583801 -16.7070541 60.2418098
93.4103012 -16.7329025 59.9063034
92.2574692 -16.7544975 59.5305977
91.1058350 -16.7756100 59.0975876
89.9496460 -16.8014774 58.6267776
88.8213654 -16.8324413 58.1406403
71.9505615 -17.4652061 44.3972244
70.8810120 -17.5344448 42.8500633
69.7756500 -17.6024475 41.0782433
-93.1587219 -22.0193539 -43.4458466
-94.2604828 -21.9423046 -41.2733994
-95.3766022 -21.8864365 -39.3921394
-96.5380936 -21.8345356 -37.6949997
-141.3416901 -21.9014339 -29.0702705
-142.8112640 -21.9441586 -30.0579338
-144.2653656 -21.9969540 -31.1225967
139.6826477 -15.7393112 44.6617279
138.2120667 -15.6908178 46.4899178
72.0394287 -16.3431568 43.1428947
70.9677048 -16.4083023 41.5008163
-92.8961868 -20.5885067 -40.8017845
-94.0226212 -20.5473995 -38.8985519
-143.9678802 -20.6055546 -29.1523037
-145.4596710 -20.6615868 -30.2925777
-146.9515076 -20.7169991 -31.5570679
-148.5110321 -20.8106956 -33.0183449
139.9808960 -14.6100340 42.8509216
138.4525146 -14.5851393 44.8397217
72.1403961 -15.2166576 41.7685738
-90.4594498 -19.3202934 -42.8047218
-91.5605698 -19.2545605 -40.5519104
-92.6791992 -19.1993599 -38.5778084
-93.8349686 -19.1506901 -36.8168526
-143.7350616 -19.2490425 -27.4219265
-145.1886444 -19.2865639 -28.4365177
-146.6619415 -19.3326130 -29.5876083
-148.1605988 -19.3847599 -30.8915501
138.7477112 -13.4553776 43.0256882
137.1737976 -13.4414787 45.0304031
135.7424622 -13.3935289 46.6503487
76.6297150 -13.8662949 46.1422920
75.5277481 -13.9185705 44.8743515
74.4316101 -13.9746466 43.4929504
73.3454590 -14.0328503 41.9770432
72.2431488 -14.0910358 40.2541389
-90.2404709 -17.9191322 -40.4591408
-91.3590698 -17.8693600 -38.4417191
-146.4027100 -17.9680405 -27.8443089
-147.8902740 -18.0159283 -29.0453472
137.4750519 -12.3105459 43.1784821
135.9606171 -12.2965031 44.9908371
76.7423553 -12.7486448 44.8380585
75.6366882 -12.7948437 43.4873657
74.5246124 -12.8416510 41.9876175
-88.9305420 -16.5872841 -40.5256577
-90.0490265 -16.5468807 -38.4603958
-91.1836243 -16.5012913 -36.6222610
-146.1757965 -16.6138668 -26.2995300
-147.6483765 -16.6555538 -27.4016609
-149.1394653 -16.6971264 -28.6461906
-150.6660767 -16.7564468 -30.0359612
136.2496490 -11.1761646 43.0717392
134.7906799 -11.1501799 44.7545776
133.3888397 -11.1146889 46.2488480
76.8401718 -11.6194115 43.3708801
75.7452240 -11.6688385 41.9513283
-87.6474075 -15.2669668 -40.7662354
-88.7390900 -15.2247744 -38.6397438
-148.9217834 -15.3440657 -27.0977249
-150.4088135 -15.3808069 -28.3781376
-151.9519348 -15.4487228 -29.8282604
135.0515900 -10.0396423 42.8127785
133.6317291 -10.0153561 44.4218826
76.9671173 -10.4945545 41.7876892
75.8769684 -10.5441618 40.2678223
-86.3546066 -13.9603939 -41.2669601
-87.4745941 -13.9021416 -38.9356880
-88.5951080 -13.8515930 -36.9302711
-148.7019043 -13.9928970 -25.6768684
-150.1839294 -14.0341167 -26.8910580
-151.7032776 -14.0864172 -28.2426796
133.9229126 -8.9103231 42.3244019
132.4488220 -8.8857002 44.0014801
131.0578766 -8.8440914 45.4018478
81.5195618 -9.2005415 45.1839943
80.3908005 -9.2365379 44.0471344
79.3021393 -9.2808723 42.8582344
78.1926498 -9.3187904 41.4980698
77.1060104 -9.3686657 40.0345497
-85.1118469 -12.6397858 -41.8110733
-86.2033234 -12.5837154 -39.4352989
-151.4911499 -12.7307529 -26.8233871
-152.9818420 -12.7749996 -28.1852207
134.2974091 -7.7665253 39.8646545
132.7611237 -7.7542686 41.8238411
131.3070068 -7.7454586 43.4446564
81.6507568 -8.0756626 43.5927010
80.5331879 -8.1110344 42.3965721
79.4316101 -8.1505184 41.0971298
78.3229675 -8.1861000 39.6288147
-84.9567032 -11.2750578 -40.0789261
-86.0573578 -11.2331448 -37.8709488
-151.2940369 -11.3913517 -25.5227871
-152.7871857 -11.4283676 -26.8537674
131.6145935 -6.6065526 41.1993446
130.1672516 -6.6182766 42.7535820
128.8194885 -6.5819230 44.0250702
81.7966003 -6.9477262 41.8299370
80.6834488 -6.9835835 40.5416641
-84.8088531 -9.9279375 -38.5385323
-85.9290619 -9.8839903 -36.4651375
-151.1100922 -10.0544910 -24.3317795
-152.5840302 -10.0871716 -25.5735435
-154.1207428 -10.1264763 -27.0417976
130.5224304 -5.4741564 40.2756615
129.0963135 -5.4801788 41.7942886
81.9592819 -5.8224716 39.8551331
-85.8184814 -8.5458536 -35.2007980
-150.9573517 -8.7296619 -23.2742805
-152.4298553 -8.7622814 -24.4649906
-153.9383698 -8.7916145 -25.8301506
129.4873352 -4.3197956 39.1305923
128.0352325 -4.3457503 40.6819038
126.6054535 -4.3312869 42.0640793
125.2547531 -4.3008795 43.2002411
123.9114532 -4.2900281 44.2362785
86.5819092 -4.5657444 42.4010201
85.4523315 -4.5901875 41.3655777
84.3484802 -4.6256371 40.2450752
83.2247925 -4.6534491 38.9494896
82.1496124 -4.6944427 37.6188583
-85.7082901 -7.2168446 -34.1050453
-111.0381317 -6.9930987 -15.1217146
-112.2734375 -6.9948754 -14.7803116
-113.5253220 -7.0009651 -14.4801311
-114.7770844 -7.0023336 -14.2030182
-116.0234680 -7.0054545 -13.9583063
-117.3074036 -7.0107484 -13.7614698
-153.7825317 -7.4622321 -24.7461777
-155.2942352 -7.4981995 -26.1583004
-156.8997955 -7.5618143 -27.7565937
128.4526062 -3.1805494 37.7580833
126.9624252 -3.1992397 39.4384689
125.5624390 -3.1960828 40.7722321
124.1877441 -3.1900756 41.9715500
86.7496567 -3.4292898 40.3099480
85.6444168 -3.4672866 39.2128410
84.5344391 -3.4959960 37.9522018
-85.6455536 -5.8771262 -33.0616531
-110.9728699 -5.7063732 -14.5121775
-112.2123184 -5.7005396 -14.1642170
-113.4484024 -5.7216091 -13.8492985
-114.7048645 -5.7453442 -13.5525436
-115.9604340 -5.7182455 -13.3350868
-117.2306213 -5.7106657 -13.1506567
-153.6380310 -6.1386251 -23.7748375
-155.1331482 -6.1692381 -25.1269150
-156.7058716 -6.2149296 -26.6717873
124.5412750 -2.0467536 39.2889290
123.1940613 -2.0559502 40.4380341
121.8274765 -2.0461540 41.4495735
120.5029755 -2.0295334 42.3186569
119.1947479 -2.0203562 43.1085663
91.4560394 -2.1994970 41.7724800
90.3423080 -2.2336180 41.0170708
89.1893692 -2.2461195 40.0731049
88.0714340 -2.2775350 39.0797234
86.9622345 -2.3100204 37.9688683
85.8552933 -2.3295503 36.7120857
-84.4725189 -4.5951767 -33.7586899
-85.5747681 -4.5496893 -32.1422272
-110.9088058 -4.3966193 -13.9283905
-112.1471252 -4.4046602 -13.5746422
-115.8948059 -4.4169459 -12.7776031
-117.1684494 -4.4199762 -12.5889015
-156.5374451 -4.8788404 -25.6709328
122.1740952 -0.9199516 38.6735001
120.8251495 -0.9173160 39.7054214
119.5053101 -0.9061247 40.6055527
91.6699371 -1.0752592 39.4975014
90.5606995 -1.0969949 38.6233902
89.4271622 -1.1185131 37.5945358
88.3148041 -1.1462438 36.4541092
-84.3913193 -3.2762995 -32.9093475
-85.5135956 -3.2284503 -31.3003826
-110.8417053 -3.1142468 -13.4090557
-112.0899811 -3.1187601 -13.0601168
-115.8333588 -3.1242623 -12.2653084
-117.1086426 -3.1243939 -12.0690069
-156.3779755 -3.5522954 -24.7485580
-157.9649658 -3.5971918 -26.3218956
119.8619537 0.2266153 37.6153908
118.5362854 0.2136675 38.5721817
117.2243500 0.2237569 39.3414459
115.9080963 0.2272781 40.0100212
114.6308594 0.2419342 40.5391464
113.3646240 0.2385918 41.0331078
112.1302261 0.2417396 41.4052162
96.5048141 0.1281003 39.8290634
95.3521652 0.1117559 39.2221642
94.1909027 0.0943202 38.5041962
93.0573196 0.0703759 37.7103081
91.9174194 0.0514230 36.7897606
-84.3220825 -1.9366215 -32.1260223
-85.4449615 -1.9136741 -30.5519371
-113.2822647 -1.8221242 -12.2828217
-114.5311279 -1.8248515 -12.0129662
-115.7791748 -1.8351824 -11.7871494
-117.0508347 -1.8343799 -11.5858421
-156.2619019 -2.2346148 -23.9381390
-157.8052368 -2.2659183 -25.4341335
117.6241302 1.3698899 36.0815582
116.2927322 1.3487891 36.8896103
114.9811020 1.3564153 37.5645142
113.6868591 1.3535153 38.1630478
112.4488678 1.3546137 38.6394577
96.7699127 1.2555033 37.0356064
95.6238632 1.2338984 36.3477554
94.4751511 1.2275501 35.5084572
93.3427277 1.2250764 34.5858192
92.2259445 1.2096624 33.5177765
-84.2256088 -0.6335076 -31.4637527
-85.3745270 -0.6056268 -29.8834686
-113.2323227 -0.5332477 -11.8432512
-114.4803467 -0.5399463 -11.5705891
-115.7222977 -0.5427483 -11.3415861
-116.9894333 -0.5468670 -11.1476822
-156.1549988 -0.9178860 -23.2030888
-157.6886749 -0.9450458 -24.6722908
-159.2938232 -0.9847891 -26.3268623
114.1105423 2.5300648 34.6434212
112.8381500 2.5111408 35.2321930
111.5423431 2.4688866 35.7129211
110.2779617 2.4697154 36.0450287
109.0348969 2.4813209 36.2800369
107.8013916 2.4748302 36.4693680
106.5882645 2.4688475 36.5380402
105.3560791 2.4678464 36.4532394
104.1549530 2.4591742 36.3170280
102.9544678 2.4416699 36.1489601
101.7760925 2.4351187 35.8506699
100.5906372 2.4223461 35.4437256
99.4201508 2.4189541 34.9271851
98.2510681 2.4179235 34.3606911
97.1024933 2.4213474 33.6587219
95.9651031 2.4184444 32.7989349
-84.1601410 0.6833484 -30.7981396
-85.3199921 0.7030871 -29.2622185
-120.7348938 0.7221398 -10.3711910
-122.0161133 0.7159326 -10.3034840
-123.2860718 0.7110185 -10.2645721
-124.5721817 0.7002866 -10.2671432
-125.8626709 0.6926901 -10.3041935
-127.1458206 0.6840171 -10.3763103
-159.1351624 0.3469056 -25.5557861
110.7625122 3.6507978 31.8013630
109.4828186 3.6126363 32.2047424
108.2477722 3.5694191 32.4531593
107.0123291 3.5741062 32.5971298
105.7742004 3.6173172 32.5670471
104.5630035 3.6364324 32.4154625
103.3683929 3.6291358 32.2095413
102.1930618 3.6182339 31.8721294
-84.1138000 1.9986407 -30.2304306
-85.2829971 2.0155582 -28.6955566
-120.6955414 2.0073373 -10.0117702
-121.9718018 1.9998291 -9.9375687
-123.2390137 1.9952772 -9.8882275
-124.5187836 1.9861543 -9.8963947
-125.8130035 1.9790369 -9.9368820
-127.0836716 1.9755006 -10.0011311
-159.0423584 1.6605659 -24.8998871
-84.0735626 3.3090048 -29.7279091
-85.2344208 3.3156433 -28.2180138
-120.6563492 3.2883801 -9.6849632
-125.7741165 3.2655029 -9.5991974
-127.0469894 3.2601554 -9.6635065
-158.9447021 2.9765470 -24.2984829
-160.5313416 2.9505801 -25.9750500
-82.8359299 4.6049018 -30.8826790
-84.0560150 4.6197815 -29.2565155
-85.2099533 4.6226130 -27.7588997
-120.6238480 4.5708008 -9.3839006
-124.4432983 4.5534458 -9.2632561
-125.7478180 4.5448375 -9.3062096
-127.0167160 4.5429869 -9.3679972
-158.8577423 4.2883506 -23.7732353
-82.8253098 5.9138708 -30.4994659
-108.0907898 5.9001651 -11.5407295
-109.3242416 5.8975086 -11.1641998
-110.5640869 5.8944702 -10.8038054
-111.7983475 5.8886318 -10.4703455
-113.0418015 5.8804722 -10.1841688
-114.3129578 5.8834872 -9.9220610
-115.5515900 5.8773556 -9.6981115
-116.8058319 5.8635154 -9.5052338
-118.0585327 5.8667274 -9.3364906
-119.3300247 5.8632054 -9.2109165
-120.5915756 5.8547983 -9.1235313
-121.8731232 5.8457232 -9.0423641
-125.7017288 5.8320308 -9.0423164
-126.9904251 5.8226938 -9.1086111
-158.7850952 5.5976009 -23.3132610
-82.8025284 7.2223377 -30.1475658
-108.0635300 7.1783094 -11.3357038
-109.2986298 7.1746116 -10.9544392
-110.5385132 7.1733384 -10.5841618
-111.7813263 7.1705365 -10.2492867
-113.0293732 7.1644993 -9.9598827
-114.2766571 7.1577787 -9.6963444
-115.5182800 7.1572094 -9.4688187
-116.7849579 7.1506357 -9.2756214
-118.0390930 7.1430268 -9.1109114
-119.3103638 7.1377406 -8.9877672
-120.5732880 7.1321831 -8.8995342
-121.8335953 7.1306477 -8.8082142
-125.6827240 7.1120148 -8.8220272
-126.9658508 7.1044703 -8.8865490
-158.7170868 6.9051771 -22.9068279
-160.2868652 6.8925457 -24.5067234
-82.7794189 8.5265779 -29.8491631
-108.0422668 8.4605236 -11.1292725
-111.7653198 8.4488125 -10.0529346
-121.8123169 8.4093122 -8.6164455
-125.6684036 8.3903999 -8.6327610
-126.9285889 8.3856068 -8.6892452
-128.2307739 8.3820801 -8.7785625
-129.5366516 8.3732815 -8.9118204
-158.6734924 8.2110577 -22.5891361
-160.2534485 8.1991205 -24.1818295
-81.6043549 9.8310032 -31.2827549
-82.7746124 9.8306303 -29.5807209
-108.0477676 9.7448387 -10.9285851
-129.5104218 9.6543226 -8.7464628
-158.6281128 9.5180941 -22.3202991
-160.1898346 9.5096521 -23.8858337
-161.7907410 9.4978361 -25.5874329
-81.6028748 11.1375561 -31.0476646
-82.7497482 11.1312160 -29.3938370
-100.6691437 11.0535269 -13.9156628
-101.8819733 11.0471668 -13.3251715
-103.1107483 11.0420113 -12.7575083
-104.3253479 11.0377054 -12.2254658
-105.5583649 11.0313263 -11.7245350
-106.7833405 11.0264931 -11.2621260
-108.0206604 11.0208464 -10.8155041
-129.4919128 10.9338055 -8.6120090
-130.8073425 10.9287128 -8.7821140
-132.1087189 10.9238262 -8.9785862
-133.4283600 10.9187698 -9.2150345
-134.7478943 10.9128323 -9.4903040
-136.0726471 10.9077091 -9.8049355
-137.4157715 10.9015980 -10.1531715
-158.6172791 10.8215256 -22.1250267
-160.1629181 10.8167982 -23.6617584
-161.7444000 10.8095398 -25.3353767
-81.5943451 12.4402151 -30.9057808
-82.7400360 12.4321671 -29.2547455
-100.6525269 12.3340244 -13.8241606
-101.8778534 12.3293200 -13.2243433
-103.1027298 12.3229237 -12.6570139
-104.3105392 12.3172874 -12.1357136
-105.5532379 12.3116446 -11.6406574
-129.4878082 12.2128315 -8.5053473
-130.8046722 12.2079239 -8.6815586
-132.0964661 12.2043953 -8.8780231
-136.0623779 12.1906796 -9.7009640
-137.3966064 12.1860523 -10.0462732
-158.5719147 12.1267242 -21.9425049
-160.1317444 12.1233292 -23.4819965
-80.4313660 13.7534456 -32.6417236
-81.5816193 13.7430134 -30.8389149
-82.7456131 13.7336245 -29.1510849
-100.6539383 13.6167459 -13.7563601
-101.8758087 13.6105146 -13.1562548
-105.5536346 13.5919304 -11.5677490
-136.0483398 13.4728527 -9.6304903
-137.3917847 13.4687834 -9.9790230
-158.5525818 13.4302406 -21.8371620
-160.1133118 13.4296446 -23.3699093
-79.2990341 15.0725403 -34.5794868
-80.4498749 15.0591364 -32.5892258
-81.5970459 15.0466652 -30.7717304
-82.7336273 15.0348568 -29.1299477
-100.6653595 14.8987465 -13.7230167
-101.8768616 14.8916988 -13.1289864
-105.5544205 14.8708324 -11.5167780
-110.4767761 14.8460426 -9.9174337
-132.1143799 14.7719469 -8.7515602
-133.4115295 14.7615604 -9.0176916
-134.7359467 14.7580795 -9.2947083
-136.0551758 14.7549229 -9.6052771
-137.3931274 14.7518463 -9.9475441
-158.5704651 14.7339725 -21.8213825
-160.1217041 14.7357941 -23.3442497
-78.1611786 16.3989067 -36.7993469
-79.2925644 16.3819923 -34.6288376
-80.4404068 16.3655109 -32.6257248
-100.6643753 16.1808720 -13.7387228
-101.8782349 16.1729946 -13.1342583
-105.5618210 16.1506290 -11.5152102
-110.4801559 16.1260090 -9.8816757
-132.0991974 16.0457039 -8.7828856
-158.5718231 16.0380001 -21.8331413
-160.1427612 16.0425682 -23.3769741
-77.0758133 17.7323761 -39.3745842
-78.1887207 17.7106094 -36.8797798
-79.3147125 17.6903343 -34.6717796
-80.4445190 17.6718273 -32.6951904
-100.6704559 17.4632740 -13.7746067
-101.8878784 17.4547882 -13.1645088
-103.1178589 17.4459286 -12.5853510
-104.3193512 17.4386349 -12.0647564
-105.5662079 17.4307785 -11.5581417
-130.8060760 17.3289337 -8.6201077
-132.1045837 17.3255749 -8.8187103
-158.5735931 17.3421917 -21.8799820
-160.1348267 17.3493366 -23.4158440
-75.9716797 19.0818253 -42.4436226
-77.0927734 19.0490723 -39.5712624
-78.2003860 19.0236931 -37.0356789
-103.1287766 18.7276993 -12.6603937
-104.3329620 18.7190495 -12.1349201
-105.5732574 18.7105904 -11.6420603
-106.7932434 18.7070446 -11.2002945
-128.2176514 18.6140022 -8.4016991
-129.5105896 18.6117859 -8.5222588
-130.8078918 18.6081848 -8.6882095
-132.1234741 18.6072121 -8.8917198
-158.5924988 18.6464748 -21.9852428
-160.1532135 18.6563835 -23.5286293
-76.0173264 20.4016953 -42.6744881
-77.1250610 20.3659706 -39.7924881
-78.2266006 20.3369904 -37.2472229
-103.1401138 20.0105057 -12.7677116
-104.3543167 20.0006638 -12.2405424
-105.5931168 19.9923782 -11.7378168
-106.8083572 19.9836731 -11.2869902
-113.0038300 19.9468536 -9.5010357
-114.2574387 19.9404964 -9.2385454
-126.9307632 19.8977509 -8.4169607
-128.2279663 19.8926048 -8.5021954
-129.5315704 19.8930244 -8.6344509
-130.8360443 19.8899841 -8.8055096
-132.1360168 19.8883667 -9.0031881
-158.6330109 19.9526386 -22.1665306
-160.1886139 19.9646778 -23.7194939
-161.7840881 19.9803543 -25.4230175
-76.0281982 21.7299461 -43.0940704
-77.1444778 21.6856499 -40.1222534
-78.2609100 21.6511021 -37.5321884
-103.1648712 21.2905502 -12.9071350
-104.3624344 21.2839890 -12.3834267
-109.3017426 21.2474365 -10.6137180
-110.5398407 21.2405663 -10.2363453
-114.2887115 21.2217808 -9.3705149
-115.5316544 21.2139568 -9.1490993
-125.6748428 21.1785011 -8.4989681
-126.9451599 21.1777210 -8.5497837
-158.6888123 21.2610264 -22.4102554
-160.2282104 21.2739811 -23.9640656
-161.8356934 21.2939472 -25.7001381
-77.1710892 23.0065765 -40.5261421
-78.2920380 22.9689827 -37.9164085
-103.1778412 22.5775547 -13.0918093
-104.3958359 22.5635662 -12.5504627
-115.5378342 22.4922371 -9.3183308
-116.8166275 22.4934978 -9.1259470
-121.8617249 22.4708252 -8.6611729
-123.1517029 22.4676094 -8.6394272
-124.4232864 22.4646721 -8.6400242
-125.7106781 22.4619904 -8.6621466
-126.9739609 22.4584007 -8.7071018
-158.7174225 22.5672646 -22.6720638
-160.3016510 22.5869370 -24.2838516
-77.2073517 24.3330288 -41.0697632
-78.3395844 24.2854729 -38.3325691
-103.2059479 23.8607883 -13.3063078
-104.4222336 23.8478928 -12.7678404
-105.6573639 23.8397522 -12.2621927
-106.8733978 23.8317890 -11.7995539
-108.1141968 23.8231621 -11.3575516
-116.8362885 23.7693138 -9.3209648
-118.0781937 23.7612839 -9.1384640
-119.3641357 23.7658539 -9.0070744
-120.6186066 23.7554646 -8.9290991
-121.8877716 23.7507324 -8.8626575
-125.7223434 23.7390690 -8.8368225
-126.9970551 23.7386189 -8.8970575
-158.7741089 23.8771629 -23.0157394
-160.3404236 23.8983898 -24.6186199
-77.2537231 25.6579361 -41.5903664
-78.3762283 25.6079502 -38.8630981
-103.2387619 25.1460133 -13.5479202
-104.4492798 25.1327648 -13.0118513
-105.6894836 25.1259232 -12.5044060
-106.9084244 25.1118698 -12.0334167
-108.1515656 25.1016045 -11.6027174
-109.3792267 25.0978889 -11.2128487
-110.6150055 25.0892658 -10.8483191
-111.8588104 25.0781822 -10.5316010
-113.1117630 25.0714016 -10.2385941
-116.8702011 25.0555763 -9.5392408
-118.1158142 25.0438251 -9.3768377
-119.4003906 25.0422058 -9.2597780
-120.6542511 25.0381565 -9.1658669
-121.9179840 25.0327950 -9.0772400
-125.7663345 25.0248013 -9.0681467
-127.0531082 25.0262642 -9.1363506
-158.8449097 25.1899910 -23.4279575
-78.4371567 26.9317780 -39.4703255
-105.7275543 26.4071198 -12.7700939
-106.9478760 26.3980045 -12.3058691
-108.1814880 26.3910370 -11.8728933
-109.4144135 26.3776169 -11.4674330
-110.6612015 26.3640251 -11.1057730
-111.8928986 26.3653870 -10.7990885
-113.1408691 26.3567619 -10.5127134
-114.4000549 26.3464203 -10.2388554
-115.6380920 26.3452377 -10.0024042
-116.9029922 26.3325348 -9.7982244
-123.2443542 26.3201294 -9.3167887
-124.5137863 26.3128242 -9.3186121
-125.8031006 26.3092098 -9.3462753
-127.0804977 26.3077736 -9.4090567
-158.9137421 26.5007401 -23.8899899
-78.4846268 28.2638645 -40.1982536
-105.7693329 27.6946278 -13.0798016
-106.9821777 27.6869087 -12.6149883
-108.2272644 27.6705132 -12.1652260
-109.4567871 27.6670418 -11.7692976
-110.7051010 27.6533451 -11.4099417
-111.9401779 27.6434155 -11.0957928
-113.1849670 27.6410522 -10.8118687
-114.4446564 27.6292973 -10.5402632
-115.6744308 27.6217690 -10.3002377
-116.9488297 27.6181202 -10.0989761
-123.2834625 27.6014366 -9.6242218
-124.5591354 27.5958786 -9.6213827
-125.8555756 27.5982742 -9.6539564
-127.1241074 27.5957813 -9.7203407
-159.0235901 27.8218441 -24.4574623
-78.5743790 29.5905151 -40.9863510
-105.8013306 28.9863148 -13.4358253
-110.7387161 28.9422379 -11.7546110
-111.9937439 28.9347382 -11.4306068
-128.4899445 28.8833523 -10.1716614
-129.7815247 28.8816242 -10.3152809
-131.0962830 28.8848515 -10.4926996
-132.3884888 28.8859062 -10.6973963
-156.0659637 29.0883503 -22.1197739
-157.5706482 29.1120777 -23.5064297
-159.1370239 29.1436653 -25.0774078
-78.6566925 30.9290447 -41.9512177
-105.8466492 30.2772560 -13.8243885
-109.5421143 30.2377892 -12.4924297
-110.7861938 30.2354317 -12.1410313
-112.0307388 30.2136955 -11.8039770
-128.5405579 30.1738472 -10.5516653
-129.8361816 30.1738777 -10.6947336
-131.1479950 30.1736526 -10.8779297
-132.4493256 30.1744347 -11.0950737
-156.1543121 30.4018764 -22.7137871
-157.6717987 30.4299583 -24.1452560
-78.7276917 32.2794037 -42.9857445
-79.8194962 32.2047195 -40.1677017
-80.9163666 32.1498566 -37.6981010
-105.9112549 31.5679798 -14.2507820
-107.1255951 31.5583000 -13.7741613
-108.3599396 31.5440617 -13.3235750
-109.5856018 31.5330124 -12.9382343
-126.0086441 31.4638805 -10.8004322
-127.2823944 31.4593220 -10.8634396
-131.2139587 31.4702644 -11.3084297
-132.5165710 31.4736767 -11.5270958
-156.2611237 31.7215576 -23.3856544
-157.7884369 31.7530746 -24.8668804
-79.8941040 33.5530815 -41.2864380
-80.9983368 33.4818344 -38.6608009
-105.9639282 32.8652000 -14.7257366
-107.1818771 32.8523140 -14.2464333
-108.4231186 32.8335571 -13.8001165
-109.6438446 32.8284378 -13.4073429
-126.0861588 32.7603760 -11.2627869
-129.9603424 32.7605057 -11.5791473
-131.2810974 32.7638931 -11.7729836
-132.5713501 32.7618904 -11.9858942
-156.3863220 33.0479393 -24.1487160
-157.9203491 33.0828400 -25.6767883
-79.9839172 34.9063492 -42.4862938
-81.0923462 34.8252106 -39.7585182
-126.1468430 34.0512695 -11.7547493
-127.4229355 34.0498123 -11.8254719
-128.7293091 34.0510635 -11.9369812
-130.0271301 34.0543633 -12.0919237
-156.5055542 34.3697166 -24.9792805
-158.0961304 34.4219551 -26.6052322
-81.2080536 36.1692123 -40.9626694
-126.2072601 35.3430367 -12.2803850
-127.4952393 35.3505440 -12.3676338
-128.8175812 35.3601952 -12.4973850
-130.1116028 35.3570175 -12.6506767
-156.6779175 35.7082977 -25.9442673
-81.2970428 37.5422897 -42.3846512
-82.4266434 37.4470673 -39.6658173
-83.5287781 37.3864059 -37.3357658
-153.7635651 36.9601898 -24.0126247
-155.2885742 37.0033340 -25.4160728
-156.8568268 37.0548477 -26.9896450
-82.5506973 38.8115921 -41.0875778
-83.6412354 38.7330093 -38.6051331
-153.9349976 38.2994194 -25.0313663
-155.4540100 38.3420944 -26.4867458
-82.6750946 40.1868095 -42.6738625
-83.7756958 40.0952225 -40.0436440
-151.1141968 39.5636139 -23.5575066
-152.5777283 39.5985336 -24.7597656
-154.1193695 39.6430511 -26.1610641
-83.9211502 41.4632988 -41.6235199
-151.2820892 40.9027328 -24.6495438
-152.7371826 40.9384804 -25.8963966
-154.3177185 40.9974518 -27.4066353
-84.0545120 42.8723984 -43.5270233
-85.1759033 42.7514343 -40.8256226
-86.2706909 42.6716118 -38.5120621
-151.4558411 42.2490768 -25.8404808
-152.9517822 42.2934341 -27.1927452
-85.3045197 44.1617889 -42.6856766
-86.4182816 44.0474586 -40.2281342
-151.6656647 43.6076584 -27.1850872
-153.1782227 43.6562195 -28.6145210
-86.5748672 45.4484406 -42.2219963
-87.7118988 45.3359375 -39.7043724
-88.8190155 45.2747498 -37.6208000
-148.8916016 44.8675537 -26.0469704
-150.3883057 44.9206200 -27.2969475
-151.9192200 44.9767380 -28.6998272
-87.8910599 46.7412872 -41.7027779
-89.0037689 46.6486626 -39.3979492
-149.1253357 46.2432175 -27.5351391
-150.6155243 46.2820053 -28.8508186
-89.1582336 48.0669403 -41.4361191
-90.2991180 47.9661903 -39.2848701
-91.4266739 47.8885117 -37.3251114
-146.3772583 47.5058098 -26.6984043
-147.8698578 47.5597916 -27.8697205
-149.3598175 47.6077957 -29.1974525
-90.4933319 49.3805161 -41.4214211
-91.6114349 49.2728653 -39.2837982
-146.6303711 48.8872757 -28.3373585
-148.1134949 48.9365959 -29.5957489
-149.6300354 48.9880295 -31.1398735
-90.7270279 50.8406448 -43.9894714
-91.8272018 50.6947021 -41.5581131
-92.9461212 50.6036758 -39.5021515
-94.1022949 50.5286942 -37.6385345
-141.0740967 50.0913811 -26.1169567
-142.5341644 50.1392670 -26.9927330
-143.9687347 50.1779671 -27.9319363
-145.4416046 50.2289124 -28.9994411
-146.8956146 50.2754936 -30.1610374
-148.4225922 50.3435860 -31.5910797
-93.1590347 52.0650673 -41.9576378
-94.3234634 51.9364700 -39.8594818
-141.3176270 51.4689903 -27.7922115
-142.7871246 51.5245743 -28.7424126
-144.2332458 51.5691223 -29.7631607
-145.7255096 51.6274490 -30.9452877
-94.5543823 53.4050522 -42.4496498
-95.6997986 53.2842293 -40.4455223
-96.8369751 53.2024918 -38.6252251
-97.9660034 53.1399956 -37.0466576
-99.1513443 53.0847244 -35.6121750
-141.6077576 52.8756332 -29.6958370
-143.0773621 52.9249420 -30.7226143
-97.0821915 54.6366959 -41.1887627
-98.2148056 54.5509262 -39.4153175
-99.3768311 54.4864044 -37.8127785
-141.9122162 54.2887001 -31.8270874
-98.4913864 56.0327568 -42.2770996
-99.6525116 55.9271622 -40.4469681
-100.8017960 55.8515320 -38.8462067
-101.9724274 55.7835426 -37.4137802
-103.1406021 55.7440567 -36.1927147
-104.3236465 55.6931534 -35.0683365
-136.5107727 55.5306396 -30.5828743
-137.9351349 55.5738029 -31.3276310
-139.3500824 55.6158409 -32.1632156
-140.8232574 55.6759186 -33.1774368
-142.2643738 55.7256737 -34.2806931
-101.0835648 57.3380547 -41.7533188
-102.2619858 57.2336388 -40.1410255
-103.4259033 57.1649933 -38.7086372
-104.5936050 57.1169739 -37.4680901
-136.8305054 56.9539413 -32.8888588
-138.2603760 56.9995308 -33.7413826
-103.7312927 58.6526947 -41.7197685
-104.9049683 58.5602341 -40.3061180
-106.0895844 58.5051575 -39.0250397
-107.2712097 58.4666138 -37.9102707
-128.8897095 58.2195473 -32.1852188
-130.2262268 58.2390099 -32.5142517
-131.6124573 58.2732964 -32.9500961
-132.9773865 58.2887726 -33.4299622
-134.3790131 58.3215446 -34.0409622
-135.7839355 58.3623276 -34.7630501
-137.2204742 58.4295769 -35.6280441
-106.4499359 59.9889717 -42.3081741
-107.6135788 59.9308586 -40.9954872
-129.2465820 59.6806030 -34.7966919
-130.5852661 59.6947174 -35.1727676
-131.9760284 59.7235184 -35.6650314
-133.3652039 59.7782516 -36.2684364
-134.7955170 59.8321381 -37.0106010
-108.0028381 61.5250168 -44.8788033
-109.2120209 61.3986206 -43.4522820
-110.3899841 61.3125458 -42.2655602
-111.5943146 61.2700500 -41.2254944
-112.8068619 61.2301292 -40.3234329
-114.0412674 61.1935921 -39.5533295
-115.2666473 61.1533089 -38.8646049
-116.5089798 61.1387100 -38.3245010
-117.7888947 61.1178131 -37.8581200
-119.0496750 61.1093903 -37.5001488
-120.3339844 61.0913696 -37.2053375
-121.6326675 61.0952187 -37.0537567
-122.9429169 61.0918961 -36.9647942
-124.2438812 61.0900879 -36.9545898
-125.5793381 61.1013794 -37.0555916
-126.9204483 61.1118469 -37.2345276
-128.2599182 61.1198730 -37.4855919
-129.6390076 61.1503220 -37.8775368
-131.0003662 61.1806259 -38.3638535
-115.7005234 62.7216988 -42.6062698
-116.9519882 62.6433334 -41.9606056
-118.2231140 62.6196518 -41.4460487
-119.4853134 62.6035156 -41.0228920
-120.7726135 62.5936584 -40.7188988
-122.0560532 62.5870285 -40.5416832
-123.3785934 62.5892181 -40.4712906
-124.6967697 62.6027603 -40.5300446
-126.0287018 62.6062393 -40.6410217
-127.3890076 62.6681557 -40.9101105
-195.4026031 -220.9020386 31.4785175
-195.9245605 -220.8314972 31.8909435
-196.4110413 -220.7401733 32.2854881
-195.3142548 -220.2539520 31.6704426
-195.8653564 -220.1338654 32.1239891
108.4553909 -93.3937912 37.6576195
107.8873444 -93.4126740 37.6929321
107.2819977 -93.4232788 37.6987343
106.6663132 -93.4400101 37.6680794
106.0478516 -93.4539948 37.6402550
105.4515686 -93.4731064 37.5604286
104.8725510 -93.5080719 37.4015999
104.2827301 -93.5465012 37.2137527
103.6690979 -93.5822906 37.0240097
103.0898285 -93.5969238 36.8298874
115.2411270 -92.6816254 37.6287956
111.3484955 -92.5260620 39.4029121
110.7069321 -92.5106506 39.6049652
110.1197433 -92.4856415 39.7246284
108.8353195 -92.4365387 39.8752708
99.9361496 -92.9840622 37.6113853
116.2628403 -91.8142853 39.2782707
115.6077423 -91.8206558 39.4764595
114.9214554 -91.7294617 39.9113693
111.7542572 -91.6205292 41.1760559
111.1081390 -91.6163025 41.3593750
110.4859085 -91.6074600 41.4902573
109.8775940 -91.5864868 41.6003227
109.2531967 -91.5817032 41.6851463
108.6287079 -91.5803757 41.7709351
102.0660172 -91.8620834 40.8456039
101.4885330 -91.8831787 40.6065865
99.7385178 -92.0735931 39.6986732
99.1582108 -92.1669464 39.3690948
98.5777130 -92.2505875 38.9959755
118.6656799 -91.2242661 39.3580551
97.2785416 -91.5156784 40.0237808
119.0545731 -90.3870087 40.9033928
118.3944626 -90.3061829 41.3962250
97.1010361 -90.6680450 41.7210121
120.9080048 -89.7861938 41.1216354
92.4237900 -90.5411224 39.5084572
122.0291901 -89.0794067 41.7511292
121.3476791 -88.9986801 42.3142776
120.6665344 -88.9242325 42.8529587
92.2745209 -89.7014160 41.1396103
91.7058640 -89.8342743 40.5854111
125.0297089 -87.8668137 41.8359947
124.3169861 -87.7399750 42.5608902
89.7988052 -88.5083466 41.8296127
89.2267303 -88.6321869 41.1935997
87.3230438 -87.3817596 41.9483147
86.7583084 -87.4916153 41.2418480
86.2306519 -87.5996857 40.5212479
86.1527863 -86.7667389 41.8971291
85.6497879 -86.8419724 41.1454544
129.1950989 -85.3509674 42.6325569
128.4893799 -85.2330780 43.4531326
127.0789642 -85.0350342 45.0989761
126.3712158 -84.9855347 45.7490463
86.0539017 -86.0479507 43.0372429
130.4317169 -84.7874908 42.3450241
85.9371414 -85.3035202 44.2597160
130.1772308 -83.9544983 43.9192581
85.8386917 -84.6201401 45.3441582
85.2874527 -84.7097855 44.7352295
83.6297913 -84.9725723 42.8268776
83.0451355 -85.1280975 42.0075569
131.5153809 -83.4622726 43.4572601
82.4184341 -84.4973755 42.4571037
131.3213959 -82.6817780 44.7838287
82.3553391 -83.7373123 43.5580864
81.7954941 -83.8509903 42.8122978
81.2291031 -83.9912643 41.9796257
132.4314270 -81.4309235 45.4906693
80.0405350 -82.7070160 42.4768944
134.2848358 -80.2851028 45.1510849
133.5449066 -80.1670532 46.0657768
78.6282501 -80.8725510 43.9587555
136.1949615 -79.1901398 44.4923592
78.5856323 -80.1494370 44.8827133
78.0201874 -80.2711945 44.1384392
77.3970642 -79.6941528 44.2164536
135.8577271 -77.7589951 46.6619492
77.3498383 -78.9861984 45.0503120
76.7821426 -79.1124344 44.2728806
76.1662140 -78.5408173 44.2962990
137.0940399 -76.5743866 46.6685524
76.1256332 -77.8417358 45.0966644
138.4382629 -76.1024246 45.6293411
139.0538177 -75.5201721 45.5372925
138.3179016 -75.4166565 46.5232315
139.6696167 -74.9544144 45.4207153
140.2634735 -74.3726654 45.3441315
139.5110168 -74.2549896 46.3747482
73.7401428 -75.5528946 44.8366241
73.2090759 -75.6482391 43.9699402
72.6358795 -75.7868195 42.9971733
72.0723038 -75.9298477 42.0436859
139.3863983 -73.5853806 47.2401657
72.5947189 -75.0988617 43.8251038
140.0033264 -73.0189133 47.0896873
139.2636261 -72.9203415 48.0546303
72.5322495 -74.4470749 44.5462036
71.9610062 -74.5821609 43.6666641
72.4733200 -73.7906647 45.2183571
72.4328613 -73.1265869 45.8861427
71.8566895 -73.2557755 45.0184593
141.9877319 -71.3603516 46.2531586
70.1794586 -72.9318390 42.8593826
69.6444702 -73.0536652 41.8382492
141.8174896 -70.6745682 47.0911407
70.1591110 -72.2481842 43.5537796
142.5357971 -70.1672134 46.6655769
141.7239990 -70.0344772 47.7767639
141.6110840 -69.3870010 48.4662933
70.0356598 -70.9640656 44.8262596
69.4835052 -71.0779800 43.9427338
70.0225143 -70.2973251 45.4395599
142.9353790 -68.2980423 47.7147064
69.9962921 -69.6517181 46.0106392
69.4191895 -69.7739944 45.1267433
142.8335876 -67.6528549 48.3300323
68.8366318 -69.2343521 44.7681236
68.2807159 -69.3472137 43.8506660
143.5078735 -67.1181717 47.8696671
142.7281799 -67.0115433 48.9335060
68.8227081 -68.5777206 45.3103523
144.1831055 -66.5838547 47.3818855
144.1041718 -65.9543304 47.9240799
67.6023712 -66.8909607 44.9694481
145.4378510 -64.8847961 46.8849640
67.6001434 -66.2426147 45.4504128
67.0301514 -66.3587799 44.4827995
66.4678726 -66.4774246 43.4973946
145.3042755 -64.2348785 47.4937363
66.4601517 -65.8292923 44.0086823
146.0634613 -63.7319565 46.7946701
145.2646942 -63.6202240 47.9428024
66.3945389 -64.5729294 44.8971901
65.8276138 -64.6861801 43.9310760
146.6834717 -62.5738373 46.6603088
66.3918076 -63.9351959 45.3333626
146.5885010 -61.9542274 47.1560364
146.4994659 -61.3243980 47.6350250
66.3101578 -62.0800934 46.4155083
65.7671127 -62.1717606 45.5391846
66.2860794 -61.4661255 46.7581673
146.2790985 -59.4827385 48.9137192
65.1534958 -61.0433731 45.2837372
147.0589600 -58.9827690 48.1066628
146.2437439 -58.8840675 49.2369843
65.1506805 -60.4197617 45.5961990
64.5857086 -60.5264206 44.5993195
64.0295792 -60.6307411 43.5724030
86.3296204 -57.7831764 65.2247543
85.7865601 -57.8040390 64.9695282
86.3437729 -57.2428474 65.3637085
85.7232742 -57.2923508 65.0607224
108.3216324 -55.9538689 69.9868927
105.2913208 -55.9503517 70.0398941
87.4967041 -56.6161385 65.9278030
85.1414185 -56.6880836 64.9617462
84.5684509 -56.7181244 64.6769028
65.0837860 -58.5923271 46.4598694
147.6238403 -56.6570396 48.2793503
108.3865356 -55.3574142 69.7083206
105.2833252 -55.3723221 70.1509857
84.5497589 -56.1428375 64.8093109
65.0705719 -57.9829025 46.7335052
147.5724792 -56.0564766 48.5512810
109.4075928 -54.7406807 70.1862030
108.8533707 -54.7410393 70.2044449
108.4022522 -54.8087845 69.6726990
105.2631683 -54.8030396 70.2573242
95.3888931 -55.0600891 68.9497757
84.5232697 -55.5663910 64.9260330
63.9785118 -57.5527954 45.0649033
63.4421310 -57.6302567 44.0864029
147.5059509 -55.4519577 48.8320923
109.3842163 -54.1648598 70.2932739
108.8642578 -54.1836357 70.2826843
108.4270706 -54.2815781 69.7630768
105.2535934 -54.2328835 70.3653793
85.1269913 -54.9404068 65.3645782
84.5199661 -54.9846268 65.0491486
63.9552231 -56.9470329 45.3376045
115.3318405 -53.5773277 69.7221527
114.7469482 -53.5837822 69.8255463
114.1546860 -53.5844231 69.9230728
113.5401917 -53.5731239 70.0155258
112.9390945 -53.5773048 70.0927048
112.3500671 -53.5846939 70.1581955
109.3909760 -53.6082191 70.3910904
108.8418045 -53.5978394 70.3788452
108.2687073 -53.5826836 70.2510147
105.8334427 -53.6574554 70.5109634
105.2318726 -53.6650200 70.4738770
104.6502151 -53.6702766 70.4385910
104.0761871 -53.6796722 70.4019470
96.5301743 -53.8693428 69.4120026
93.6427536 -53.9779854 68.6915741
91.9261322 -54.0432854 68.1923981
91.3782272 -54.0580521 68.0115204
90.7963333 -54.0907211 67.8090973
90.2296753 -54.1070023 67.6173935
149.9035034 -54.5646210 45.4533195
148.9871979 -54.4381752 46.9369469
115.3200378 -53.0053291 69.8127289
112.3441010 -53.0203667 70.2576370
109.3734894 -53.0527992 70.5096359
93.6183395 -53.4122810 68.7954483
90.1532211 -53.5855865 67.7113495
115.3083115 -52.4358444 69.8959732
112.3159790 -52.4445801 70.3473740
110.5081558 -52.4497070 70.5038071
107.5755768 -52.4862633 70.6083984
98.8146591 -52.6668396 69.9885559
94.1839981 -52.8109131 69.0444794
93.6262512 -52.8375778 68.9161911
93.1387787 -52.8697281 68.8165741
115.3021393 -51.8713646 69.9708176
112.3091736 -51.8778305 70.4072571
110.5171738 -51.8946495 70.5619049
107.5777359 -51.9208412 70.6891022
98.7983398 -52.0947533 70.0616913
94.1635971 -52.2530174 69.1397018
90.1808014 -52.3930168 67.8639679
148.8962860 -52.6589012 47.6099167
112.2793045 -51.3630447 70.4457474
111.7069397 -51.3116074 70.5128098
111.0949707 -51.3146439 70.5704346
110.4978561 -51.3263130 70.6188507
107.5628281 -51.3470192 70.7678299
104.0259399 -51.4143639 70.7345200
99.9394760 -51.4957466 70.3155823
91.3420792 -51.7674065 68.3610458
63.8216133 -53.9552727 46.3108673
63.3087616 -54.0291214 45.4540787
148.8516693 -52.0661888 47.8052864
99.9291382 -50.9255371 70.3814087
91.3227615 -51.2006378 68.4308929
63.8471756 -53.3484917 46.5416908
150.5072327 -51.6805115 45.2804604
115.2513580 -50.1675987 70.1647797
102.2585220 -50.3028755 70.7069855
101.6762466 -50.3147125 70.6604233
91.3145981 -50.6330566 68.5045166
90.7208633 -50.6642609 68.2964249
90.1409302 -50.6891556 68.0938568
89.5642700 -50.7112198 67.8891144
89.0044785 -50.7275352 67.6850739
88.4502182 -50.7546616 67.4749527
87.8800583 -50.7823830 67.2523727
85.6005020 -50.8938904 66.2367477
63.8399353 -52.7511940 46.6983376
150.4270477 -51.0793533 45.5379524
115.2567749 -49.6055794 70.2221985
102.2520599 -49.7390442 70.7635345
85.5953979 -50.3219604 66.3011322
63.8076782 -52.1628494 46.7818451
150.3793488 -50.4866104 45.7329979
118.9137192 -49.0914078 69.4636230
118.2815857 -49.1062050 69.6088867
103.4020767 -49.1560249 70.9053726
102.8206177 -49.1617508 70.8611450
85.5937347 -49.7483559 66.3528061
62.7307091 -51.7524452 44.8922768
62.2224998 -51.8551559 43.7571373
150.3788300 -49.9021950 45.8537750
87.2831039 -49.0972748 67.1476669
86.7148056 -49.1236458 66.9002457
86.1542664 -49.1491356 66.6505585
85.5901489 -49.1757088 66.3894806
62.7605209 -51.1204453 45.1378555
87.8539886 -48.4990616 67.4208450
62.7330017 -50.5337753 45.3036270
88.3881226 -47.9097748 67.6766434
87.8233490 -47.9344177 67.4360580
62.6945457 -49.9483032 45.3961372
120.0818176 -46.7968750 69.2798080
87.2565460 -47.4076080 67.2403488
86.6955185 -47.4662399 67.0061874
86.1323929 -47.5045815 66.7416000
83.2958298 -47.5837173 65.3645554
62.6691628 -49.3600388 45.4699707
120.0883636 -46.2378731 69.2956467
86.9638062 -46.7124252 67.9561615
83.2855606 -47.0142021 65.3858109
120.0496368 -45.6716843 69.3094254
83.2942734 -46.4433250 65.4056778
120.0740738 -45.1119194 69.2924347
119.4765930 -45.1092987 69.4559402
118.8451309 -45.1034660 69.6163788
87.4612961 -45.6420708 67.9096832
87.0827179 -45.6003532 68.5146561
83.8445816 -45.8472214 65.6910782
83.2983170 -45.8741341 65.4113312
62.6821899 -47.5912132 45.6399193
62.1022034 -47.6748772 44.6201782
61.5330124 -47.7578392 43.6020241
118.8906250 -44.5857964 69.5808411
87.4347229 -45.1175613 67.8190536
87.0387802 -45.0808754 68.3787689
61.5490456 -47.1675987 43.6442757
61.5640755 -46.5775528 43.6872253
120.0698776 -43.4283829 69.2535858
61.5431786 -45.9934921 43.6618767
120.0753098 -42.8669281 69.2406235
90.0895004 -43.3148994 68.2624283
89.5153046 -43.3347282 68.0841370
61.5501175 -45.4060516 43.6743317
90.0906067 -42.7520485 68.2233734
89.5117416 -42.7717972 68.0436172
61.5614090 -44.8193550 43.6790810
86.6634827 -42.3217278 66.8790359
86.1032639 -42.3452721 66.6393967
85.5485992 -42.3691635 66.3953247
61.5578194 -44.2357788 43.6423492
151.1089630 -42.4639244 44.7746277
150.2609711 -42.3798943 46.1544800
61.5588264 -43.6524010 43.6021156
120.0839844 -40.6304741 69.0405960
61.5554695 -43.0700302 43.5459900
85.5386810 -40.6772461 66.2353745
62.6878242 -42.3418541 45.4895897
62.1142845 -42.4143944 44.4864769
