149.6528931 -29.3315277 58.8160820
124.5461349 -28.6430702 76.9451218
123.3249969 -28.6341190 77.3350220
122.1096039 -28.6284866 77.6894150
88.4823761 -29.1157360 75.1385040
83.9969788 -29.2821789 72.8837814
82.8922577 -29.3263931 72.2416534
81.7878418 -29.3736477 71.5670853
80.6752853 -29.4224224 70.8455505
79.5522308 -29.4765320 70.0666046
78.4429779 -29.5299377 69.2596664
77.3497849 -29.5853596 68.4198837
65.3181839 -30.4425201 54.5146103
151.2167511 -28.2937450 56.6629562
149.6150055 -28.1914711 58.9459648
124.5375366 -27.5293674 76.9765778
123.3248672 -27.5225010 77.3592377
122.0993271 -27.5169716 77.7226410
88.4660645 -27.9941254 75.1694260
87.3583069 -28.0301991 74.6664734
86.2396317 -28.0691853 74.1305237
82.8739471 -28.1997204 72.2809067
79.5487671 -28.3428879 70.1282501
78.4263229 -28.3971367 69.3035126
77.3315277 -28.4512272 68.4599991
65.3198090 -29.2792358 54.6706390
151.1838226 -27.1532841 56.7322464
149.6198425 -27.0574112 58.9693909
124.5345688 -26.4175301 76.9784622
123.3142853 -26.4103165 77.3650742
87.3479004 -26.9081383 74.6801300
86.2331161 -26.9466286 74.1348343
82.8714676 -27.0708160 72.3137512
77.3236084 -27.3179264 68.4755096
65.2886429 -28.1238289 54.7016907
152.8094635 -26.1235504 54.1829529
151.1611633 -26.0155449 56.7433548
149.6023865 -25.9232445 58.9794235
124.5202332 -25.3060551 76.9628296
123.3133774 -25.3099937 77.3382263
87.3439484 -25.7872658 74.6662140
86.2206879 -25.8247681 74.1187820
85.1054230 -25.8633041 73.5538635
83.9805908 -25.9036694 72.9466324
82.8674469 -25.9450417 72.3131714
77.3157730 -26.1857090 68.4688721
65.2902527 -26.9675961 54.7328033
151.1699219 -24.8807411 56.7045631
149.6206512 -24.7931213 58.9060097
124.5214767 -24.1967831 76.9083557
85.1053696 -24.7402802 73.5311432
83.9808960 -24.7801895 72.9127426
82.8606491 -24.8212223 72.2675705
81.7592087 -24.8634987 71.5971985
80.6382980 -24.9090004 70.8608093
79.5241394 -24.9556217 70.0929642
78.4191437 -25.0039387 69.2901611
77.3107605 -25.0545063 68.4403152
65.2810516 -25.8146877 54.6985931
151.1938019 -23.7488441 56.5956726
149.6073456 -23.6630192 58.8368149
124.5198669 -23.0884933 76.8338470
83.9802017 -23.6580410 72.8506012
82.8702850 -23.6978340 72.2094803
81.7550888 -23.7394180 71.5279388
80.6463394 -23.7829552 70.8058929
79.5317001 -23.8283596 70.0398560
78.4139481 -23.8758583 69.2261124
77.3163757 -23.9245796 68.3822479
65.2833939 -24.6632690 54.6324730
151.2162628 -22.6192970 56.4203491
149.6407013 -22.5367985 58.6588516
124.5285797 -21.9799042 76.7471848
87.3462067 -22.4291668 74.4851303
83.9792175 -22.5369759 72.7584534
65.2760010 -23.5137062 54.5091133
151.2313080 -21.4933033 56.1846924
149.6636810 -21.4122810 58.4407120
124.5391159 -20.8726940 76.6424332
120.9005356 -20.8608322 77.6965942
87.3591766 -21.3133125 74.3658295
86.2184296 -21.3461952 73.8121643
85.1037445 -21.3806515 73.2410583
83.9790802 -21.4168911 72.6282425
65.2831955 -22.3645210 54.3720818
151.2776031 -20.3674202 55.8757477
149.6947327 -20.2878513 58.1851006
124.5579834 -19.7663212 76.4851303
123.3427505 -19.7606277 76.8651886
122.1113129 -19.7590084 77.2286758
120.9193726 -19.7552814 77.5379181
119.7021561 -19.7546139 77.8111191
88.4662476 -20.1650085 74.7323914
87.3501892 -20.1954479 74.2184830
86.2381058 -20.2297363 73.6728439
65.2972031 -21.2175255 54.1692848
149.7647400 -19.1626892 57.8762512
124.5759659 -18.6596870 76.2983856
123.3556747 -18.6567650 76.6840134
122.1349030 -18.6539307 77.0451279
120.9366150 -18.6522598 77.3539276
119.7060318 -18.6522312 77.6322632
118.5339279 -18.6476135 77.8678741
86.2451019 -19.1119595 73.5043488
65.3174438 -20.0732079 53.9101295
64.2249985 -20.1583691 51.9342880
149.8138580 -18.0434723 57.4858856
119.7349243 -17.5476875 77.4416809
118.5348358 -17.5501385 77.7026291
94.1465912 -17.8071842 76.4583130
93.0147400 -17.8318729 76.0992279
91.8837509 -17.8558674 75.7072144
90.7529907 -17.8811569 75.2947845
89.6359863 -17.9079208 74.8537292
86.2616577 -17.9953194 73.3131256
65.3305130 -18.9296398 53.5976410
149.8611755 -16.9270039 57.0059853
119.7468185 -16.4438896 77.2189331
118.5703583 -16.4420624 77.4627228
91.8902130 -16.7431870 75.4767456
90.7617493 -16.7695179 75.0707703
89.6411896 -16.7948532 74.6211472
88.5132141 -16.8227863 74.1364822
87.4030762 -16.8513641 73.6368256
86.2831573 -16.8814507 73.0904617
65.3324966 -17.7856998 53.2241058
149.9320374 -15.8104610 56.4792633
119.7874832 -15.3384552 76.9511032
118.5839615 -15.3416977 77.2006912
117.3898773 -15.3427401 77.4440308
110.2848587 -15.3808184 78.1608963
104.4766235 -15.4120922 78.0087280
101.0113144 -15.4748001 77.5713730
91.9264221 -15.6352205 75.2484131
90.7864227 -15.6575499 74.8256683
65.3742447 -16.6439152 52.8425217
150.0399017 -14.6889353 55.8727341
119.8138123 -14.2393427 76.6646271
118.6285324 -14.2351303 76.9138641
117.4100723 -14.2432537 77.1626892
116.2314529 -14.2401772 77.3650360
115.0363312 -14.2488041 77.5265503
110.3138275 -14.2746563 77.8738937
109.1413651 -14.2823753 77.9084015
107.9863434 -14.2918730 77.8983917
106.8139191 -14.3073730 77.8682251
105.6519089 -14.3158875 77.8155746
104.5026398 -14.3251486 77.7396088
101.0379639 -14.3678694 77.3075027
94.1913681 -14.4762754 75.7231064
93.0624237 -14.4965248 75.3690186
91.9366760 -14.5226650 74.9794540
90.7987518 -14.5443993 74.5462799
65.4079056 -15.5031376 52.3933487
64.3109894 -15.5717697 50.3061256
150.1396332 -13.5717993 55.2124367
148.5875244 -13.5165672 57.4221268
147.0980072 -13.4646492 59.3679428
115.0649872 -13.1457043 77.2151337
108.0156860 -13.1909990 77.6189499
106.8460159 -13.1975412 77.5855408
103.3767242 -13.2318125 77.3512039
102.2244415 -13.2537479 77.2193604
96.4934845 -13.3320208 76.0695343
95.3653870 -13.3517456 75.7742386
94.2324219 -13.3716326 75.4500427
93.0974731 -13.3927355 75.0858841
67.5759430 -14.2275848 55.4687996
66.4923172 -14.2914257 53.7333374
65.4238129 -14.3586655 51.8561325
150.2746735 -12.4522400 54.4230080
148.6779785 -12.4035416 56.7578888
147.1860962 -12.3500805 58.7425995
115.0958328 -12.0422726 76.8853226
113.9103470 -12.0527172 77.0109329
108.0428925 -12.0856514 77.3017731
106.8713684 -12.0907116 77.2644577
103.4003372 -12.1240234 77.0363846
97.6667557 -12.2059822 76.0273819
96.5286331 -12.2225418 75.7513123
95.3845215 -12.2391281 75.4485855
94.2462463 -12.2587795 75.1167755
93.1071930 -12.2753048 74.7425690
67.6077271 -13.0906000 54.9510231
66.5170288 -13.1531210 53.1664314
148.8148651 -11.2794933 55.9861069
147.2899323 -11.2384405 58.0418701
115.1256485 -10.9429693 76.5383530
113.9486847 -10.9440336 76.6793442
112.7677078 -10.9471693 76.7971954
111.5847855 -10.9539213 76.8880463
110.4228821 -10.9599829 76.9369659
109.2352142 -10.9724350 76.9564056
108.0751953 -10.9800797 76.9529877
106.9006805 -10.9904900 76.9267426
103.4302368 -11.0186005 76.6842804
99.9822540 -11.0652733 76.1905670
98.8240280 -11.0804787 75.9345245
97.6976471 -11.0987959 75.6797791
67.6354141 -11.9527073 54.3666420
66.5542450 -12.0146503 52.5560913
65.4747009 -12.0707130 50.6197777
148.9588776 -10.1572800 55.1637421
147.4024353 -10.1222477 57.2758179
115.1816635 -9.8307247 76.1534348
113.9904327 -9.8401098 76.3039474
112.8091888 -9.8450298 76.4230804
111.6176605 -9.8527203 76.5126724
110.4574890 -9.8586521 76.5593109
109.2627487 -9.8658695 76.5792313
108.1181870 -9.8764277 76.5814743
106.9352341 -9.8857088 76.5512161
103.4648743 -9.9210453 76.3094635
102.3082962 -9.9251099 76.1740494
97.7260513 -9.9905653 75.3017578
67.6747131 -10.8173199 53.7400475
66.5896988 -10.8736553 51.8859024
-115.1479340 -14.7754765 -38.9009933
-116.3471527 -14.7954597 -38.1410522
-120.1976547 -14.7651682 -37.1628647
147.5488892 -9.0036926 56.4096451
146.0249481 -8.9668064 58.3947372
144.5674591 -8.9293365 60.1236763
101.1848602 -8.8335152 75.5876236
100.0474167 -8.8488588 75.3894882
98.8977966 -8.8644524 75.1570587
97.7681961 -8.8829145 74.8969421
67.7266464 -9.6803913 53.0683060
-109.6872330 -13.3977718 -37.4709511
-110.8181534 -13.3158083 -36.2220459
-112.0967026 -13.3023882 -35.4658508
-113.3285828 -13.2881384 -34.7509880
-114.5594788 -13.2737799 -34.0896454
-115.8010864 -13.2931080 -33.6134644
-117.0684433 -13.2879725 -33.1835251
-118.3410873 -13.2886353 -32.9231453
-119.6357651 -13.2791128 -32.7294922
-120.9212570 -13.2788076 -32.6363144
-122.2443542 -13.3060923 -32.6596031
-123.5539551 -13.3148127 -32.7721825
-124.9044189 -13.3558178 -32.9963608
-126.2580109 -13.4071417 -33.3444633
147.6745605 -7.8934412 55.4949112
146.1425781 -7.8570576 57.5461349
144.6941376 -7.8170648 59.3151016
101.2307663 -7.7295928 75.1537552
100.0990219 -7.7498617 74.9572983
98.9412766 -7.7565584 74.7192841
97.8151245 -7.7701921 74.4665146
67.7701187 -8.5430574 52.3106499
-106.8538971 -11.9809780 -35.5305862
-108.0428696 -11.9329967 -34.3610992
-109.2335968 -11.9234161 -33.3755226
-110.4504700 -11.9245329 -32.5395737
-111.6671448 -11.9173651 -31.8103333
-112.9053802 -11.9200525 -31.1943626
-114.1489563 -11.9051743 -30.6305161
-115.3881531 -11.9073849 -30.1980629
-116.6604462 -11.9010649 -29.8139687
-117.9303741 -11.9122715 -29.5706196
-119.2269669 -11.9144897 -29.3971977
-120.5121765 -11.9203405 -29.2975807
-121.8164291 -11.9208689 -29.2697868
-123.1290970 -11.9334202 -29.3595581
-124.4538574 -11.9331169 -29.5073586
-125.7919846 -11.9538307 -29.7809467
-127.1443329 -11.9679451 -30.1200581
-128.5183258 -11.9931717 -30.5832195
-129.9062500 -12.0489569 -31.1778603
-131.3142700 -12.0752354 -31.9236259
146.2751465 -6.7438993 56.5941696
144.7990265 -6.7060947 58.4570122
69.9646149 -7.3070946 54.9058762
68.8725128 -7.3514271 53.2288742
67.8169785 -7.4019642 51.4599571
-102.9588470 -10.6515579 -35.8391418
-104.1168365 -10.6042576 -34.3893242
-105.2919769 -10.5841961 -33.1318054
-106.4619293 -10.5706291 -32.0461349
-107.6736908 -10.5614586 -31.0763226
-129.4638824 -10.6225767 -27.9731979
-130.8709412 -10.6576176 -28.5744972
-132.2601624 -10.6872492 -29.2362347
-133.6824341 -10.7076311 -30.0779648
-135.1173553 -10.7774639 -31.0352402
146.4415588 -5.6253796 55.5211105
144.9602661 -5.5895128 57.4525185
70.0207748 -6.1724124 54.1089630
-101.4501419 -9.2809076 -33.8467751
-102.6007309 -9.2439098 -32.4654617
-103.7670822 -9.2232399 -31.2352333
-104.9644012 -9.2211151 -30.1789055
-106.1551208 -9.2124043 -29.2363052
-107.3740387 -9.1915131 -28.3539410
-129.1187744 -9.2772226 -25.3270454
-130.4893799 -9.2911081 -25.7876320
-131.8697968 -9.3103075 -26.3708267
-133.2804260 -9.3282156 -27.0895424
-134.6724701 -9.3427334 -27.8603306
-136.1304321 -9.4039917 -28.8160076
146.6241455 -4.5032325 54.3786469
145.0891266 -4.4794936 56.4328384
72.2309189 -4.9556775 56.2783813
71.1446838 -4.9937391 54.8060341
70.0778809 -5.0360537 53.2255936
-97.6903839 -7.9726028 -35.6135292
-98.8266678 -7.9412689 -33.8447647
-99.9689789 -7.9189882 -32.2856750
-101.1335373 -7.9007616 -30.9261761
-102.3099747 -7.8870344 -29.7192116
-134.3134918 -7.9925852 -25.2217293
-135.7357788 -8.0095406 -26.0372238
-137.1795197 -8.0464230 -26.9867897
145.2717285 -3.3543715 55.2898331
72.2819824 -3.8204484 55.4060898
71.2059250 -3.8577442 53.8977623
70.1388931 -3.8983576 52.2574463
-95.1177979 -6.6683836 -36.2776375
-96.2629395 -6.6185765 -34.2736206
-97.3897171 -6.5926714 -32.5571556
-98.5408249 -6.5754461 -31.0360680
-99.6863098 -6.5673704 -29.7119656
-100.8712616 -6.5336428 -28.4448986
-102.0615845 -6.5313778 -27.3759460
-134.0065155 -6.6512556 -22.9381943
-135.3959198 -6.6620688 -23.6355553
-136.8156586 -6.6798940 -24.4558907
-138.2422028 -6.7048512 -25.3834305
-139.7245941 -6.7759590 -26.4560318
145.4848480 -2.2243781 54.0107384
143.9243164 -2.2238553 56.0373039
142.5077209 -2.1915090 57.7477226
72.3467407 -2.6877885 54.4833450
71.2729340 -2.7230437 52.9161911
-93.7358246 -5.3129611 -35.2220078
-94.8342056 -5.2805157 -33.2740631
-139.3661804 -5.3926630 -24.0734978
-140.8125610 -5.4311781 -25.1163445
144.1349792 -1.0966341 54.7160416
142.6730957 -1.0792445 56.5570488
72.4311447 -1.5524446 53.5002632
71.3454742 -1.5830945 51.8501778
-92.3451385 -3.9777207 -34.4728432
-93.4714432 -3.9508796 -32.4660187
-94.5887604 -3.9392209 -30.7819176
-139.0723419 -4.0532999 -21.9726334
-140.4876404 -4.0715804 -22.9256077
-141.9719696 -4.1052608 -24.0561829
142.8542480 0.0343309 55.2676582
141.4150085 0.0634518 56.9918213
139.9802856 0.0785625 58.5657310
74.6641998 -0.3530878 55.3759880
73.5750885 -0.3830947 53.9441986
72.5025024 -0.4135545 52.3906555
71.4242783 -0.4403384 50.6747932
-89.8934021 -2.6924372 -36.1776237
-90.9858093 -2.6483622 -33.8969116
-92.0997238 -2.6279209 -31.9134827
-141.6805267 -2.7772505 -22.0017815
-143.1193848 -2.7882590 -23.0912056
-144.6331787 -2.8378022 -24.3651180
143.0988159 1.1750321 53.7887192
141.5713501 1.1697026 55.7134933
140.1363373 1.1894510 57.3655128
74.7404404 0.7843888 54.3026924
73.6605835 0.7556219 52.8237495
72.5911865 0.7279063 51.1951294
-89.6479568 -1.3270199 -33.5477524
-90.7612762 -1.3104560 -31.5200996
-91.8886185 -1.2983495 -29.7572842
-141.4174652 -1.4522979 -20.1744423
-142.8401642 -1.4626776 -21.1712704
-144.3297424 -1.4877462 -22.3475361
-145.8165588 -1.5241019 -23.6241665
-147.3668213 -1.5774734 -25.1208572
141.8215637 2.3100171 54.1860886
140.3339539 2.3130002 55.9819565
74.8273849 1.9243029 53.1388168
73.7530670 1.8948891 51.5953865
-88.3280945 -0.0140312 -33.3830833
-89.4424896 0.0111834 -31.2874184
-147.0256653 -0.2048928 -23.0821190
140.5342102 3.4282045 54.4798126
74.9268265 3.0593808 51.8794289
73.8466110 3.0398853 50.2374268
-87.0285110 1.3092432 -33.3846054
-88.1280365 1.3175848 -31.2674408
-89.2628174 1.3321309 -29.3688335
-146.7492676 1.1252064 -21.2573643
140.7996521 4.5729842 52.7845688
139.3241272 4.5727863 54.5794830
137.8898315 4.5758758 56.1889191
77.1770325 4.2471170 53.4532852
76.0914154 4.2286429 52.0118713
75.0209503 4.2099438 50.4610176
-85.7335281 2.6209850 -33.5700302
-86.8538666 2.6354108 -31.3182240
-146.5143433 2.4386053 -19.6346149
139.5677338 5.7076607 52.8738251
138.1348877 5.7087831 54.5541916
77.2874222 5.3893957 52.0930405
76.2115860 5.3731098 50.5775528
-84.4629822 3.9202752 -33.9034958
-85.5594406 3.9435668 -31.6192703
-86.6901016 3.9525332 -29.5620232
-146.2903442 3.7426119 -18.1495781
-147.7598267 3.7318563 -19.3342133
-149.2700500 3.7059507 -20.6837387
-150.8275909 3.6719890 -22.2064972
138.4134827 6.8585629 52.7848854
136.9644012 6.8409615 54.4117584
135.5283966 6.8430738 55.9080429
79.5633316 6.5657415 53.3873558
78.4930191 6.5473619 52.0801468
77.3998108 6.5363894 50.5773621
76.3283463 6.5211558 48.9723511
-83.1444016 5.2326202 -34.3944206
-84.3013153 5.2475009 -32.0406036
-149.0452576 5.0211163 -19.2008686
-150.5650024 5.0062537 -20.6211967
137.2378693 7.9995494 52.5846901
135.7637024 7.9736338 54.2000847
79.6844788 7.7126675 51.9057617
78.6115646 7.6982517 50.4995575
77.5222168 7.6951923 48.8991852
-83.0350876 6.5569944 -32.6029472
-84.1597443 6.5681305 -30.3710728
-148.8490295 6.3227901 -17.8528099
-150.3480072 6.3163614 -19.1785831
-151.8512421 6.2985811 -20.6350956
136.0253296 9.1107187 52.3063545
134.6105652 9.1077681 53.8061638
133.2301788 9.1129122 55.1596413
81.9853439 8.8814468 52.9025345
80.9033127 8.8733740 51.6562119
79.8198700 8.8615789 50.2717819
-82.9065704 7.8740740 -30.9920731
-84.0224533 7.8671899 -28.9218998
-151.6386871 7.6090775 -19.2747040
-153.2229614 7.5762148 -20.8511810
134.8813019 10.2458315 51.8194618
133.4759216 10.2464542 53.2913361
82.1206970 10.0304232 51.2853737
81.0485916 10.0161982 49.9637451
-83.9229431 9.1801262 -27.5637531
-151.4591675 8.9102612 -18.0370369
-153.0153046 8.8979549 -19.5411053
135.2295837 11.4239693 49.4603539
133.7638245 11.3801765 51.1717834
132.3919373 11.3837185 52.5934563
130.9971466 11.3800030 53.9073296
84.4575043 11.1994286 51.9761391
83.3758011 11.1906567 50.8035393
82.2693787 11.1884766 49.4521103
81.1992798 11.1815720 48.0077362
-83.8210373 10.4798422 -26.3788795
-151.2863770 10.2040329 -16.9052429
-152.8040161 10.2067299 -18.3256493
132.7276611 12.5645857 50.3119087
131.2789459 12.5187197 51.7940140
84.6067200 12.3541069 50.1405487
83.5369644 12.3459511 48.8667145
82.4468384 12.3497276 47.4134407
-83.7405167 11.7787905 -25.2923660
-151.1236572 11.5014648 -15.8754539
-152.6611176 11.4965725 -17.2710037
-154.1853638 11.4806023 -18.7244339
131.6188660 13.6918039 49.3571129
130.1927795 13.6625881 50.8397827
128.8126678 13.6536598 52.1205215
127.4826736 13.6596241 53.1920776
126.1629791 13.6560364 54.1566010
86.9685516 13.5188332 50.5317230
85.8823700 13.5149088 49.3753510
84.7964706 13.5113153 48.0923080
-82.4799194 13.0656900 -26.0549049
-83.6511078 13.0735235 -24.3200397
-153.9924622 12.7878590 -17.6585426
129.1443329 14.8228951 49.6799850
127.7764435 14.8014345 50.9311371
126.4325027 14.7913637 52.0335083
87.1624069 14.6793566 48.4326973
86.0717316 14.6843662 47.1457939
-82.4400177 14.3684578 -25.0743179
-83.5739441 14.3640079 -23.4463673
-153.8642273 14.0810566 -16.7474613
126.7583618 15.9512291 49.5352364
125.3885574 15.9384098 50.6647568
124.0759354 15.9398603 51.6080933
91.7818375 15.8402920 50.4385033
90.6567841 15.8481846 49.4861374
89.5630035 15.8446217 48.4716721
88.4572144 15.8498430 47.2979279
87.3687363 15.8644400 46.0303764
-82.3698425 15.6493969 -24.3099747
-83.5163422 15.6594944 -22.6351891
-101.3249054 15.5046806 -7.8754621
-102.5429535 15.4996662 -7.3156381
-103.7534180 15.4922791 -6.7983804
-104.9907761 15.4895191 -6.3200035
-153.7193909 15.3755360 -15.8798122
-155.2728271 15.3714981 -17.3737164
125.7660370 17.1423130 47.9120522
124.3958054 17.0986423 49.0520859
91.9898834 17.0192356 48.1357613
90.8843002 17.0159550 47.1100922
89.7946930 17.0277405 45.9626465
-82.2837830 16.9355450 -23.5165825
-83.4429932 16.9390221 -21.9112473
-101.2795410 16.7786407 -7.3572769
-104.9341431 16.7517834 -5.8214278
-153.6092682 16.6609840 -15.1070366
-155.1363831 16.6671467 -16.5498428
124.8184891 18.3294773 45.9370728
123.4442596 18.2847519 47.1262245
122.1199951 18.2473392 48.1331558
120.7943344 18.2341518 48.9968643
119.4974747 18.2366676 49.7112236
118.2064133 18.2337875 50.3418045
116.9559479 18.2308731 50.8740082
96.7121201 18.1870461 48.9755020
95.5884094 18.1794510 48.2871246
94.4626999 18.1888008 47.4561005
93.3371429 18.2031593 46.4857101
92.2549973 18.1967773 45.4610634
-82.2175217 18.2271023 -22.7945137
-83.3827209 18.2197857 -21.2519150
-101.2225037 18.0443974 -6.8954892
-104.8825531 18.0122318 -5.3702011
-153.4985199 17.9486008 -14.3898087
-155.0242462 17.9576511 -15.8034124
-156.5588074 17.9628067 -17.3326263
121.1903992 19.4387779 45.8462296
119.8485107 19.3994331 46.7476120
118.5516663 19.3916607 47.4929008
117.2762604 19.3867893 48.1599121
96.9833221 19.3595238 46.2905235
95.8584366 19.3575935 45.4829941
-82.1655426 19.5163670 -22.1648998
-83.3471146 19.5062847 -20.6306610
-101.1853485 19.3128166 -6.4732580
-102.4129333 19.3043098 -5.9188137
-103.6146698 19.2985039 -5.4058552
-104.8402023 19.2903519 -4.9494104
-153.3827057 19.2361870 -13.7276278
-154.9169006 19.2445488 -15.1220589
-156.4428101 19.2547379 -16.6285210
119.0029068 20.6378975 43.9377365
117.6840134 20.6110878 44.8450928
116.3998566 20.5626640 45.5146866
115.1117401 20.5560608 46.0149536
113.8565063 20.5486069 46.4196434
112.6080017 20.5402164 46.7717438
111.3888321 20.5377159 47.0151901
110.1566849 20.5440254 47.1249313
108.9348907 20.5373039 47.1927719
107.7361603 20.5438328 47.1415024
106.5478516 20.5401649 47.0526543
105.3732910 20.5305882 46.8907242
104.1823883 20.5377350 46.5788574
103.0094452 20.5374832 46.2110100
101.8568878 20.5322380 45.7994156
100.7245636 20.5336304 45.2914581
99.5770187 20.5414162 44.6450806
98.4433441 20.5606594 43.9013367
97.3052521 20.5904770 43.0169525
-81.0081177 20.8260937 -22.9595776
-82.1165771 20.8034515 -21.6225662
-83.3060684 20.7899456 -20.0774403
-113.4468002 20.5068474 -2.2838140
-114.6647644 20.4967346 -2.0822303
-115.9260941 20.4924908 -1.9195222
-117.1696243 20.4890842 -1.7968971
-118.4472580 20.4825954 -1.7073746
-119.6936035 20.4783516 -1.6402308
-120.9565659 20.4777584 -1.5937722
-122.2241592 20.4756680 -1.5916656
-123.4993286 20.4716167 -1.6263922
-124.7836456 20.4695320 -1.6881300
-156.3279724 20.5457897 -15.9628773
-157.9250183 20.5531044 -17.6182213
114.3094864 21.8121777 42.6123352
113.0272827 21.7785301 43.1207352
111.7972794 21.7285442 43.4447479
110.5543594 21.7231579 43.6370354
109.3328552 21.7316742 43.7194748
108.1154938 21.7247200 43.7398834
106.9330902 21.7248116 43.6444244
105.7513428 21.7273941 43.4156837
104.5593567 21.7255478 43.0887718
103.3893204 21.7412415 42.6491203
-80.9326935 22.1104012 -22.6177616
-82.0728531 22.0886116 -21.1261635
-83.2519989 22.0681992 -19.5970917
-113.4004745 21.7684650 -1.9396918
-114.6352158 21.7607918 -1.7508169
-115.8956909 21.7567406 -1.5902922
-117.1411667 21.7507286 -1.4605390
-118.3999557 21.7465324 -1.3615046
-119.6514359 21.7432327 -1.2915313
-120.9246063 21.7382622 -1.2623616
-122.2019730 21.7341766 -1.2712159
-123.4721146 21.7337551 -1.2945014
-124.7532043 21.7330322 -1.3519647
-156.2442932 21.8323956 -15.3916216
-157.8186035 21.8457794 -17.0054398
-80.8924561 23.3957825 -22.2012062
-101.0815735 23.1125412 -5.4071674
-102.2960129 23.0977173 -4.8752356
-103.5084076 23.0926876 -4.3858862
-104.7418671 23.0830135 -3.9185898
-105.9540100 23.0751038 -3.4870973
-107.1919708 23.0654449 -3.0931306
-108.4041748 23.0563240 -2.7397003
-109.6416931 23.0513191 -2.4143846
-110.8880615 23.0430546 -2.1311605
-112.1199646 23.0405731 -1.8741834
-113.3707428 23.0328236 -1.6441514
-114.5984497 23.0233860 -1.4596665
-123.4219208 22.9977226 -0.9843459
-124.7146225 22.9916725 -1.0499262
-156.1819458 23.1174984 -14.9025631
-157.7240295 23.1366882 -16.4658260
-80.8595123 24.6825409 -21.8072033
-101.0562210 24.3768730 -5.1241584
-102.2762070 24.3683262 -4.5900431
-103.4795074 24.3564205 -4.1058855
-104.7257538 24.3486748 -3.6299512
-105.9271698 24.3345795 -3.2124615
-107.1636353 24.3275890 -2.8206143
-108.3733368 24.3169422 -2.4600561
-109.6169281 24.3164711 -2.1388390
-110.8603363 24.3025475 -1.8705316
-112.0906906 24.2965240 -1.6081887
-113.3279800 24.2919216 -1.3832304
-114.5739288 24.2940006 -1.2158889
-124.6769562 24.2587967 -0.7729059
-156.1149902 24.4045029 -14.4603071
-157.6435089 24.4258957 -15.9916391
-79.6829834 25.9949627 -23.0781746
-80.8351059 25.9656868 -21.4641933
-98.6152115 25.6669197 -6.0464144
-99.8258286 25.6541729 -5.4408879
-101.0344849 25.6433258 -4.8808689
-102.2680206 25.6339970 -4.3557949
-110.8245010 25.5639915 -1.6175641
-124.6612854 25.5200310 -0.5402966
-125.9206314 25.5225410 -0.6239376
-127.2215881 25.5189800 -0.7500286
-128.4977570 25.5222130 -0.9047830
-129.8018036 25.5219078 -1.1033802
-156.0444641 25.6901684 -14.0650787
-157.5773010 25.7147446 -15.5902538
-79.6501617 27.2819805 -22.8218307
-80.8160095 27.2508011 -21.1612911
-98.5928574 26.9343491 -5.8298874
-99.8133316 26.9216824 -5.2227659
-125.8863678 26.7854691 -0.4186293
-127.1952362 26.7834187 -0.5508308
-128.4810486 26.7846146 -0.7091693
-129.7818604 26.7861862 -0.8991969
-156.0021057 26.9758606 -13.7487583
-157.5392151 27.0021362 -15.2752104
-159.0908813 27.0338039 -16.9507542
-79.6496048 28.5698547 -22.5520668
-80.8001709 28.5342026 -20.8987541
-89.0079880 28.3437290 -12.0487061
-90.1900330 28.3219070 -11.0771322
-91.3936539 28.3016663 -10.1389046
-92.5595627 28.2814083 -9.2876215
-93.7779999 28.2640114 -8.4532366
-94.9686203 28.2477226 -7.6949725
-98.5894394 28.2016640 -5.6397581
-99.7886353 28.1861649 -5.0388265
-107.1028748 28.1156235 -2.2317719
-108.3305130 28.1100998 -1.8789063
-109.5666351 28.1007729 -1.5702047
-128.4707031 28.0479450 -0.5452154
-129.7649536 28.0498276 -0.7266526
-131.0554810 28.0518360 -0.9452860
-132.3650360 28.0554237 -1.2159848
-155.9679260 28.2620163 -13.4889269
-157.4867554 28.2906494 -14.9783573
-159.0738983 28.3193398 -16.6326771
-79.6288300 29.8561554 -22.3506279
-80.7982254 29.8189068 -20.6796532
-88.9917297 29.6175194 -11.8935108
-90.1841888 29.5955467 -10.9113903
-94.9572220 29.5154648 -7.5438867
-98.5653915 29.4663372 -5.5048685
-99.7841492 29.4525719 -4.8871164
-128.4483643 29.3125992 -0.3925606
-131.0453491 29.3044243 -0.7727327
-132.3490601 29.3219376 -1.0659133
-155.9301147 29.5485764 -13.2736368
-157.4656067 29.5785713 -14.7602406
-78.4577179 31.1832657 -23.9620552
-79.6199112 31.1420097 -22.1906261
-80.7776260 31.1027966 -20.5462017
-88.9868011 30.8913269 -11.7598963
-90.1745834 30.8680420 -10.7875805
-91.3694763 30.8447819 -9.8585701
-92.5427475 30.8234577 -9.0062742
-93.7558517 30.8037300 -8.1865788
-94.9466476 30.7845974 -7.4353819
-98.5594864 30.7333946 -5.3996210
-99.7742538 30.7187023 -4.8025465
-132.3394775 30.5880871 -0.9597625
-155.9122467 30.8356895 -13.1180773
-157.4291687 30.8675156 -14.5762024
-78.4664459 32.4740143 -23.8456192
-79.6208420 32.4302597 -22.0775528
-80.7683411 32.3886032 -20.4442997
-88.9831619 32.1661339 -11.6719170
-90.1710892 32.1411972 -10.7011499
-91.3655243 32.1174850 -9.7844267
-92.5409088 32.0955772 -8.9394674
-93.7567139 32.0742149 -8.1119957
-94.9455872 32.0544205 -7.3517203
-98.5547104 32.0007706 -5.3236780
-99.7788620 31.9855957 -4.7296515
-131.0219727 31.8496971 -0.6131178
-132.3305359 31.8547745 -0.8812383
-155.8854065 32.1231956 -12.9982042
-157.4310150 32.1576004 -14.4824743
-158.9915466 32.1952744 -16.1069794
-160.5572510 32.2367172 -17.8883438
-162.2626648 32.2861557 -19.9995327
-77.3249283 33.8162231 -25.7408218
-78.4623108 33.7654800 -23.8133354
-98.5610199 33.2682991 -5.2665401
-99.7757568 33.2524681 -4.6764131
-128.4388733 33.1088982 -0.1663224
-129.7363739 33.1124535 -0.3569152
-158.9953308 33.4894943 -16.0663071
-160.5464783 33.5338097 -17.8512726
-162.2281799 33.5867043 -19.9477348
-76.2024918 35.1710052 -27.9095058
-77.3519287 35.1104240 -25.7228489
-78.4726563 35.0577736 -23.8104439
-98.5581436 34.5375977 -5.2575159
-99.7767792 34.5194550 -4.6513734
-103.4091797 34.4732971 -3.0996044
-127.1531677 34.3718262 0.0069865
-128.4288025 34.3749008 -0.1621507
-129.7391815 34.3796463 -0.3507185
-158.9873810 34.7844429 -16.0580978
-160.5840149 34.8332214 -17.8951302
-162.2303772 34.8883400 -19.9548950
-74.0270920 36.6210442 -33.1860771
-75.1281357 36.5381737 -30.3399620
-76.2156601 36.4707985 -27.9777660
-98.5693817 35.8060989 -5.2753148
-99.7752533 35.7878532 -4.6777430
-103.4083099 35.7424393 -3.1325397
-110.7808380 35.6728668 -0.8900109
-127.1582108 35.6386185 -0.0173285
-159.0009918 36.0810280 -16.1190567
-74.0496292 37.9296417 -33.3388367
-75.1360626 37.8445358 -30.5083179
-76.2347717 37.7725296 -28.0980988
-98.5786209 37.0755463 -5.3192024
-99.7812042 37.0582962 -4.7405930
-101.0018082 37.0527763 -4.2112594
-102.2316818 37.0365105 -3.6792154
-127.1717072 36.9068375 -0.0716808
-159.0223694 37.3796959 -16.2385445
-160.6172791 37.4351501 -18.0420494
-73.0274353 39.3501167 -36.9705124
-74.0686417 39.2436104 -33.6037407
-75.1683121 39.1498222 -30.7098522
-76.2579117 39.0756226 -28.2956467
-101.0080948 38.3116989 -4.2848678
-102.2346344 38.2952728 -3.7566047
-125.8701935 38.1702194 -0.0292160
-127.1808167 38.1738815 -0.1577659
-155.9501801 38.5814285 -13.2605944
-157.4722748 38.6270142 -14.7380238
-159.0557098 38.6802750 -16.4251385
-160.6535950 38.7405128 -18.2583771
-75.1874619 40.4640083 -31.0584946
-76.2802200 40.3851089 -28.5923653
-101.0247269 39.5837517 -4.4056978
-102.2456589 39.5658112 -3.8798437
-103.4523697 39.5484200 -3.3800070
-107.1369324 39.5075493 -2.1068511
-110.8200455 39.4761887 -1.1457257
-112.0540619 39.4648132 -0.8782705
-113.2978210 39.4609451 -0.6553637
-125.9007645 39.4429512 -0.1488544
-127.2064209 39.4461250 -0.2769620
-156.0102997 39.8817368 -13.4979162
-157.5203247 39.9288445 -14.9770174
-159.1067810 39.9849396 -16.6841583
-160.7069244 40.0483627 -18.5491085
-75.2267914 41.7785873 -31.4682655
-76.3174515 41.6936951 -28.9320984
-103.4608307 40.8261795 -3.5460801
-104.7086716 40.8046684 -3.0683658
-105.9215775 40.7885895 -2.6454368
-107.1522675 40.7767220 -2.2645807
-108.3709564 40.7667656 -1.9083503
-109.6076202 40.7531548 -1.5696861
-113.3190689 40.7283401 -0.8032103
-118.3378296 40.7134666 -0.2438483
-119.5625916 40.7033615 -0.1636630
-120.8413391 40.7090034 -0.1164261
-125.9207153 40.7136612 -0.2823154
-127.2365646 40.7185440 -0.4263418
-156.0461121 41.1798668 -13.7526150
-157.5848694 41.2322540 -15.2827911
-74.1349792 43.2197571 -35.0241432
-75.2740173 43.0976410 -31.9538956
-76.3598938 43.0068626 -29.3538761
-103.4927750 42.0967789 -3.7253695
-104.7287216 42.0796242 -3.2551875
-105.9457397 42.0657692 -2.8323646
-107.1731567 42.0524712 -2.4378049
-108.3930588 42.0372925 -2.0770247
-109.6339722 42.0282707 -1.7581878
-113.3478928 41.9979477 -0.9824012
-118.3408279 41.9774399 -0.4106478
-119.6033401 41.9821548 -0.3459318
-120.8652496 41.9751701 -0.3096127
-122.1350479 41.9807434 -0.2785384
-125.9511108 41.9862747 -0.4585637
-127.2550201 41.9913330 -0.6076677
-156.0910492 42.4804344 -14.0637312
-157.6313629 42.5356178 -15.6209631
-75.3189621 44.4230347 -32.4960899
-76.4013214 44.3273430 -29.8786564
-108.4209442 43.3096313 -2.3048708
-109.6669540 43.3043823 -1.9978887
-110.9044266 43.2884636 -1.6929195
-112.1359482 43.2800751 -1.4233966
-113.3783417 43.2776451 -1.2067790
-114.6050415 43.2663193 -1.0228703
-115.8775558 43.2671814 -0.8547994
-117.1182861 43.2592621 -0.7151825
-118.3853531 43.2553787 -0.6191287
-119.6308136 43.2525520 -0.5594825
-120.8976898 43.2530975 -0.5180337
-122.1650162 43.2487564 -0.4898118
-123.4304047 43.2528839 -0.5081689
-124.7173462 43.2595062 -0.5769225
-125.9768982 43.2575111 -0.6856132
-127.2959442 43.2678795 -0.8300141
-156.1613312 43.7887039 -14.4551487
-157.7171173 43.8482208 -16.0348701
-75.3840942 45.7490158 -33.1410255
-76.4611206 45.6475487 -30.4574528
-108.4539642 44.5890350 -2.5688744
-109.6930008 44.5785141 -2.2477670
-110.9263306 44.5639343 -1.9381480
-112.1663971 44.5540276 -1.6708474
-113.4167786 44.5481873 -1.4474840
-114.6422424 44.5389481 -1.2579041
-115.9071655 44.5350914 -1.0853797
-117.1414185 44.5273285 -0.9546494
-118.4122009 44.5315094 -0.8683861
-119.6688614 44.5255585 -0.8021951
-120.9329147 44.5231133 -0.7544475
-122.2095032 44.5303268 -0.7492266
-123.4611664 44.5251656 -0.7771429
-124.7493591 44.5295944 -0.8445472
-126.0225830 44.5359879 -0.9505978
-127.3294678 44.5449600 -1.0889813
-156.2495575 45.0989838 -14.9189978
-157.8087616 45.1631317 -16.5343208
-76.5351410 46.9712791 -31.1077099
-153.3015900 46.2934303 -12.6272926
-154.8293457 46.3534813 -13.9825916
-156.3367004 46.4113693 -15.4379692
-157.8944702 46.4778633 -17.0916824
-159.5086212 46.5616570 -18.9390373
-76.5848083 48.3118477 -31.9072475
-153.3909760 47.6071625 -13.1462917
-154.8941040 47.6641769 -14.5060587
-156.4174500 47.7279434 -16.0113029
-76.6292496 49.6594887 -32.7521439
-77.7560883 49.5372238 -30.1405277
-78.8462601 49.4437485 -27.8415947
-153.4925079 48.9217186 -13.7339916
-155.0117950 48.9848442 -15.1434746
-77.8420029 50.8731041 -31.0292664
-78.9242172 50.7742424 -28.6591702
-153.5915527 50.2392426 -14.3796082
-155.1220398 50.3060913 -15.8367023
-156.6739044 50.3861732 -17.4213104
-77.9226761 52.2286530 -32.0683556
-79.0052795 52.1189232 -29.5997658
-153.7136841 51.5655365 -15.1148968
-155.2542114 51.6380959 -16.6279793
-78.0187607 53.5918045 -33.2880173
-79.1124496 53.4610977 -30.6098938
-153.8443604 52.8947449 -15.9311485
-155.4143066 52.9802780 -17.5061283
-78.1435089 54.9555740 -34.5654030
-79.2135086 54.8189926 -31.8211517
-111.2803116 53.5604210 -4.6902571
-112.5299759 53.5595856 -4.4284468
-113.7707062 53.5382614 -4.1728573
-115.0013733 53.5299149 -3.9603281
-116.2774963 53.5220642 -3.8044250
-117.5140228 53.5222626 -3.6911006
-150.9745789 54.0939293 -14.0774002
-152.4947968 54.1662903 -15.4058504
-153.9893494 54.2337723 -16.8280830
-79.3275909 56.1918907 -33.1941376
-111.3566666 54.8608856 -5.2437401
-112.5968018 54.8431969 -4.9654555
-117.5948486 54.8175163 -4.2367287
-151.1024170 55.4259949 -14.9456596
-152.6344604 55.5018997 -16.3278542
-154.1502380 55.5814209 -17.8137150
-79.4491806 57.5791168 -34.7179451
-80.5440598 57.4248047 -31.8942184
-81.6319275 57.3125191 -29.4483166
-111.4219208 56.1589355 -5.8337283
-112.6670074 56.1552887 -5.5719700
-113.9229584 56.1467514 -5.3439507
-115.1648560 56.1330566 -5.1355181
-116.4218979 56.1320343 -4.9681115
-117.6679459 56.1269264 -4.8390808
-151.2824402 56.7752800 -15.9398384
-80.6663208 58.8166618 -33.4643936
-81.7517242 58.6815147 -30.8628330
-111.5065460 57.4591217 -6.4710398
-112.7569199 57.4563293 -6.2229099
-114.0035858 57.4482040 -5.9879055
-115.2342987 57.4309387 -5.7735462
-116.4964142 57.4295387 -5.6074610
-117.7480011 57.4258194 -5.4831786
-151.4377289 58.1165619 -16.9933434
-80.7834167 60.2471275 -35.2924271
-81.8916779 60.0724754 -32.3968964
-82.9784775 59.9423141 -30.0342693
-84.1023026 59.8339272 -27.8795948
-148.6513062 59.3311958 -15.5527325
-150.1520538 59.4053268 -16.8220215
-151.6266479 59.4803467 -18.1949768
-153.2104797 59.5858536 -19.8146553
-83.1221390 61.3359451 -31.6285820
-84.2374878 61.2095833 -29.3305759
-148.8327332 60.6876297 -16.7227325
-150.3387756 60.7669907 -18.0630550
-84.3784332 62.6020203 -30.9635277
-85.4733124 62.4898415 -28.8613625
-86.6214905 62.3786964 -26.8732567
-146.1081848 61.9163818 -15.6387062
-147.5565491 61.9811592 -16.7546997
-149.0553589 62.0606766 -18.0405731
-84.5416565 64.0221024 -32.8508873
-85.6351318 63.8827019 -30.5613022
-86.7647858 63.7662735 -28.4433308
-146.2712555 63.2702980 -16.8729725
-147.7600708 63.3528099 -18.0988617
-149.2587738 63.4340973 -19.4631958
-85.7934113 65.3204651 -32.4836273
-86.9259796 65.1685486 -30.1995163
-146.5122223 64.6607590 -18.3218842
-147.9872437 64.7368088 -19.6131668
-87.1070557 66.5998840 -32.2136307
-146.7417297 66.0516205 -19.9001503
-87.3093872 68.0740204 -34.5799599
-88.4231873 67.8962860 -32.1712952
-89.5350723 67.7654266 -30.0201759
-90.6355209 67.6700745 -28.2000465
-91.7788544 67.5720596 -26.5408268
-144.0521088 67.2891693 -19.1215897
-145.5144958 67.3678970 -20.3176365
-147.0414276 67.4700928 -21.7183208
-89.7537384 69.2014236 -32.2352829
-90.8446960 69.0860748 -30.2163734
-91.9640656 68.9815521 -28.4139366
-144.3254089 68.7028961 -20.9107094
-145.7995605 68.7906723 -22.2213402
-147.3237762 68.9031601 -23.7219200
-91.0662079 70.5522614 -32.5836029
-92.1833038 70.4104919 -30.5634651
-93.3196716 70.3097382 -28.7641144
-94.4501343 70.2264786 -27.2116508
-138.8039093 69.8239975 -18.6000175
-140.2207031 69.8957062 -19.4921074
-141.6626129 69.9606018 -20.4869804
-143.1221313 70.0393906 -21.6280632
-144.6178131 70.1390915 -22.9206619
-92.4312439 71.8790436 -33.0665398
-93.5594025 71.7505188 -31.0849667
-94.6793365 71.6492767 -29.3265076
-139.0776062 71.2502365 -20.4315681
-140.4836121 71.3111725 -21.3817081
-141.9674835 71.3946991 -22.5433159
-93.8106384 73.2794876 -33.8346176
-94.9248657 73.1316223 -31.8481903
-96.0696411 73.0058136 -30.0901489
-97.1997070 72.9132690 -28.5407658
-133.7316742 72.4378662 -19.3155403
-135.1242065 72.4915466 -19.9557934
-136.5236053 72.5535965 -20.6929398
-137.9252319 72.6127930 -21.5137081
-139.3712463 72.6848679 -22.4828873
-140.8058472 72.7651978 -23.5760441
-96.3504333 74.4854889 -32.8143234
-97.4639587 74.3689194 -31.0678616
-134.0056000 73.8764267 -21.2797470
-135.4100342 73.9357758 -21.9979858
-136.8323059 74.0047607 -22.8277645
-138.2542419 74.0754776 -23.7610569
-97.7468872 75.9438782 -34.1902466
-98.9086838 75.7730942 -32.3147812
-100.0526352 75.6780396 -30.7806358
-101.2127304 75.5904999 -29.3401470
-102.3754425 75.5130997 -28.0919342
-128.8227081 75.1556015 -21.3100319
-130.1914978 75.1894531 -21.7319565
-131.5546722 75.2341385 -22.2368698
-132.9347229 75.2824326 -22.8309937
-134.3286285 75.3423691 -23.5383091
-135.7323608 75.3973236 -24.3352890
-100.3674850 77.2264633 -33.9511986
-101.5173340 77.0862274 -32.2966690
-102.6699524 76.9959869 -30.8765316
-129.1322784 76.6203003 -23.5855904
-130.5102997 76.6644287 -24.0792789
-131.8614807 76.6999817 -24.6281738
-133.2792816 76.7741089 -25.3498383
-134.6862640 76.8250275 -26.1729126
-136.1292725 76.9166489 -27.1698933
-101.9043655 78.7274551 -36.1182251
-103.0476685 78.5486755 -34.3628387
-104.1868286 78.4396362 -32.8082657
-105.3615341 78.3677750 -31.5020676
-106.5399475 78.2870407 -30.3887691
-107.7362442 78.2162018 -29.3715706
-108.9228287 78.1692657 -28.5086517
-110.1566620 78.1271362 -27.7328091
-124.1096497 77.9872131 -24.8659058
-125.4308395 78.0107346 -25.0715275
-126.7767181 78.0364990 -25.3646545
-128.1364441 78.0671921 -25.7477188
-129.4906616 78.1062927 -26.2265053
-130.8675232 78.1484375 -26.8211212
-106.9058304 79.9058990 -33.9528770
-108.1016922 79.8069763 -32.7633133
-109.2904510 79.6982651 -31.6979046
-110.5154572 79.6406479 -30.7954350
-124.4784927 79.4958649 -27.7198143
-125.7987900 79.5143585 -27.9676380
-127.1422577 79.5531311 -28.3430557
-128.5328369 79.6223450 -28.8456001
-129.9172974 79.6957169 -29.4657230
-131.3267365 79.7421112 -30.2576408
-110.9324341 81.3142090 -34.7617111
-112.1480713 81.2201233 -33.8542557
-113.3774948 81.1251831 -33.0603905
-114.6003876 81.0919495 -32.4061737
-115.8448792 81.0587463 -31.8665886
-117.1086121 81.0288620 -31.4759235
-118.3679962 81.0054016 -31.1741085
-119.6719742 81.0036469 -30.9969807
-120.9529877 81.0169220 -30.9227962
-122.2656708 81.0271149 -30.9291878
-123.5809250 81.0462036 -31.0570412
-124.9327011 81.0999756 -31.3147335
-126.2807846 81.1582260 -31.6776333
-120.2250214 82.7280045 -35.6495705
-193.9552765 -201.8527679 40.5180740
-193.8951874 -201.1520386 40.7741814
113.0898285 -75.0404282 43.9465752
109.4013748 -75.0319901 44.5547180
107.6022034 -75.0640259 44.3268166
104.6850510 -75.2342911 43.3012772
115.3587112 -74.2373657 45.6434441
114.7350540 -74.2214890 45.8722076
114.0799561 -74.1763153 46.1201134
113.4320602 -74.1055145 46.3576469
112.8212509 -74.0825577 46.5039177
109.7495880 -74.1516647 46.9288826
109.1509094 -74.1221619 46.8911629
107.3460464 -74.1557007 46.6928139
105.0076523 -74.2768173 46.0073547
104.4345245 -74.2779617 45.8439217
102.6932602 -74.4782562 44.9166565
102.1695251 -74.5916901 44.4170609
101.6564560 -74.6624069 43.8788414
101.1275711 -74.7347641 43.3052750
117.6557159 -73.5232925 46.5404243
100.2016296 -73.8832245 45.6050301
118.6904755 -72.7685394 47.8786621
118.0306168 -72.7035675 48.2489166
117.3959579 -72.6562653 48.5851250
100.0180588 -73.0667725 47.5360489
99.4429016 -73.1601868 47.1197281
98.8878250 -73.2324905 46.6882133
98.3413925 -73.2995529 46.2170525
121.1000366 -72.1489258 48.0195656
124.2518463 -71.6356735 46.8861961
123.5394135 -71.5483246 47.6172714
122.8790741 -71.4878235 48.2288895
122.2030029 -71.4274673 48.8143044
121.5214539 -71.3618698 49.3623657
120.8661423 -71.3145447 49.8220139
124.6793900 -70.8817215 48.2735558
124.4396667 -70.0973740 50.0698357
96.0252151 -70.4318008 51.1686554
95.4820175 -70.4839935 50.7666168
94.9228439 -70.5512161 50.2832756
94.3657074 -70.6096573 49.7671471
93.8170776 -70.6627960 49.2351646
93.2663193 -70.7391968 48.6851997
92.7146988 -70.8384247 48.1259346
92.1561203 -70.9447403 47.5031433
128.1867523 -69.0094986 49.2672424
127.4701462 -68.9216766 50.0769997
126.7744217 -68.8507690 50.8198776
126.1156616 -68.8027573 51.4273529
125.4235382 -68.7533264 52.0195618
129.3426361 -68.3954697 49.4357109
129.1167450 -67.6188049 50.9981651
90.0247116 -68.2298126 51.1006470
89.4862823 -68.2833939 50.5115623
130.3852844 -67.0678787 50.8958244
130.8843384 -66.3939438 51.5535088
130.1526642 -66.3082962 52.3289413
132.8314972 -65.9191360 50.4691200
133.3665009 -65.2911758 50.9454613
132.6312561 -65.1767960 51.8404427
85.1517639 -65.3705444 51.6305199
133.6616211 -63.9177818 52.8026123
85.0648575 -64.6764221 52.6623650
84.5215912 -64.7606506 51.9628601
83.9731750 -64.8497925 51.2515030
83.4149780 -64.9545364 50.5254364
134.9606934 -63.3978500 52.2885170
124.8531342 -62.7313538 60.7409897
124.2159500 -62.7260437 61.0656776
123.5402756 -62.6766930 61.4449997
122.8955460 -62.6555557 61.7583275
81.7210770 -64.5478363 49.2192841
135.5207520 -62.7745972 52.6013947
134.7718811 -62.6813087 53.4827805
81.6452484 -63.8399544 50.2728806
124.6466446 -61.4609871 62.2317924
136.6450348 -61.5676651 53.0870094
135.8984528 -61.4693184 53.9945641
124.5460281 -60.8174019 62.9194946
80.3774414 -62.6886940 50.6457558
137.2186737 -60.9626694 53.2649765
137.8193512 -60.3696327 53.3837662
137.0919800 -60.2907753 54.2644386
79.1953659 -61.4895439 50.8808174
138.3782196 -59.7773628 53.5315361
79.1268845 -60.8726997 51.6072617
78.6420517 -60.9792099 50.6617279
138.2181244 -59.1053886 54.5452766
79.0838470 -60.1193504 52.5956078
78.5293427 -60.2060890 51.8132973
77.8856888 -59.6933212 51.8901939
140.9353790 -58.1267090 52.4921341
77.8328476 -59.0254173 52.6962166
77.2680435 -59.1351509 51.8939095
140.7647552 -57.4498177 53.5212288
76.6552429 -58.5811691 51.8382149
140.6376648 -56.7994728 54.4556274
76.6260071 -57.8974419 52.6348000
76.0766983 -58.0065041 51.8259888
75.4758453 -57.4500351 51.7007904
141.8477020 -55.6533356 54.2842827
141.0849457 -55.5650101 55.3079453
140.3906708 -55.5127678 56.1785583
143.1004486 -54.5248985 53.8801842
74.2426682 -55.6810455 52.0766182
74.2175827 -55.0292053 52.7304955
73.6874924 -55.1276779 51.8147583
144.3576813 -53.4124107 53.3839417
74.1849060 -54.3764534 53.3820953
145.0523987 -52.8868942 52.9995270
144.2092743 -52.7593689 54.2373772
74.1372147 -53.7393951 54.0226631
144.0892029 -52.1210289 55.0229149
74.0681381 -53.1339455 54.5928307
73.5446167 -53.2043724 53.8151855
73.0109253 -53.2826958 52.9491882
72.4766006 -53.3581467 52.0369835
71.9310608 -53.4573822 51.0864563
71.3551178 -53.5792046 50.0697479
71.8734589 -52.8293762 51.7278976
145.3000488 -50.4066086 55.0131340
146.0198975 -49.8895149 54.5256958
145.1906738 -49.7804413 55.6847954
70.6454620 -51.1353798 51.7248383
145.0737762 -49.1560783 56.3547630
145.0135345 -48.5491676 56.9074593
70.5968323 -49.8680496 52.8405571
70.0253372 -49.9683609 51.8956871
70.5758972 -49.2379112 53.3554001
70.5264511 -48.6267815 53.8056297
69.9752808 -48.7142715 52.9210205
69.3819122 -48.8162155 51.9236755
147.8135376 -47.0063248 54.2378120
148.5559082 -46.4996643 53.5436440
147.7020111 -46.3893433 54.8488960
147.5921173 -45.7733498 55.4511070
70.4390717 -46.7919121 55.1681061
147.5156250 -45.1643295 55.9764862
70.3932037 -46.1886444 55.5640678
69.8332520 -46.2697830 54.7643700
70.3694763 -45.5833969 55.9547768
69.8030472 -45.6628761 55.1439667
70.3443680 -44.9817200 56.3273888
148.8666382 -43.5093880 55.1817055
69.1740036 -44.5316124 55.0366669
148.7881927 -42.9041061 55.6405029
69.1808472 -43.9144859 55.4100227
148.6863708 -42.2922401 56.1173973
149.4271545 -41.7834549 55.3733635
148.6130371 -41.6958656 56.5357018
69.1193848 -42.7246017 56.0181389
68.5430756 -42.7977524 55.1896896
149.3641052 -41.1829033 55.7786980
148.5362854 -41.0999222 56.9541397
69.1037445 -42.1214676 56.3101997
148.4606171 -40.5002556 57.3557549
69.0779724 -41.5248604 56.5741844
68.5463486 -41.5843086 55.7801666
68.0062256 -41.6513901 54.9273872
67.4818573 -41.7157021 54.0519981
66.9396591 -41.7887573 53.0902481
66.4074097 -41.8574753 52.1016083
65.8560486 -41.9449158 51.0420532
65.3087082 -42.0324173 49.9872208
65.8467941 -41.3387451 51.3793411
65.3053436 -41.4200783 50.3542442
65.8330307 -40.7320175 51.7241631
103.7212524 -38.0028496 77.9577637
103.1599655 -38.0201492 77.9106445
101.4268570 -38.0503197 77.7345200
100.8628159 -38.0715294 77.5829391
65.8148270 -40.1268616 52.0638084
150.5867310 -38.3420601 55.2214050
149.7702332 -38.2685623 56.4740868
103.6977386 -37.4429321 78.0859756
100.8436584 -37.5046463 77.7172165
151.4231262 -37.8466454 54.1463242
103.6872940 -36.8790474 78.2003098
100.8799362 -36.9069214 77.8702240
97.9688950 -37.0035248 77.2134933
97.3993759 -37.0249405 77.0799484
96.8243103 -37.0435524 76.9409256
96.2596436 -37.0541229 76.7971191
95.6920395 -37.0658073 76.6408081
95.1316528 -37.0799789 76.4765244
94.5609741 -37.0998878 76.3018799
93.9785767 -37.1222839 76.1164551
151.3448334 -37.2499542 54.4985504
103.6659088 -36.3157387 78.3020172
97.9389572 -36.4462776 77.3214111
93.9558563 -36.5547028 76.2367325
151.3083344 -36.6638069 54.7882957
93.9428711 -35.9885178 76.3482285
65.7221832 -37.7488823 53.1140289
114.7238998 -35.0594559 78.4551926
100.7783432 -35.2439117 78.1250916
93.9561844 -35.4138069 76.4611588
65.7144241 -37.1519432 53.3576164
114.7191925 -34.4977951 78.5443344
112.9716492 -34.5100937 78.7158356
112.4065247 -34.5230179 78.7613297
108.8482056 -34.5439529 78.8924026
107.1101608 -34.5796585 78.8357391
105.3535385 -34.6541328 78.7299728
102.5477753 -34.6195641 78.5699539
100.1946640 -34.6940079 78.0923080
99.6043320 -34.7096786 77.9662018
99.0262070 -34.7211189 77.8413391
98.4590073 -34.7347260 77.7179260
64.5860748 -36.7072372 51.5715981
116.4914856 -33.9268646 78.3934250
115.9111938 -33.9325714 78.4758682
115.3352661 -33.9460144 78.5514297
114.7085419 -33.9349976 78.6310425
108.8316574 -33.9900665 78.9838486
105.2970734 -34.0425224 78.8296204
102.5341187 -34.0589523 78.6672363
96.2005539 -34.2272758 77.3047409
64.5966415 -36.1080894 51.8040352
122.4893188 -33.3910370 77.1002274
121.8860474 -33.3828964 77.2798538
115.2980957 -33.3721962 78.6392975
114.6955109 -33.3736725 78.7195892
114.1015930 -33.3773994 78.7887497
113.5189514 -33.3787193 78.8505173
105.3627014 -33.4696579 78.9274597
104.7783890 -33.4757156 78.8663635
104.1773987 -33.4864349 78.8001022
96.1827087 -33.6654167 77.3779144
95.6178360 -33.6790123 77.2225266
64.5712662 -35.5176430 51.9789085
104.1598358 -32.9306908 78.8698273
96.1740265 -33.0991554 77.4458771
95.6055069 -33.1168289 77.2869797
151.0006714 -33.1501846 56.2969666
123.7158966 -32.2708931 76.8869171
96.1512146 -32.5412445 77.5008545
95.5944366 -32.5536385 77.3456421
152.6087799 -32.7066269 53.8767586
151.7698517 -32.6337891 55.2042313
150.9473877 -32.5676537 56.4800835
123.6917343 -31.7054729 76.9832458
96.1352692 -31.9819679 77.5558472
152.5916290 -32.1281815 54.0127487
123.6862183 -31.1480331 77.0558472
118.8420944 -31.1367016 78.2885437
118.2432175 -31.1321526 78.4086456
117.6400528 -31.1319885 78.5253830
152.5587463 -31.5474396 54.1775627
123.6772308 -30.5887489 77.1111603
123.0630875 -30.5857258 77.3030319
122.4313660 -30.5801582 77.4902954
121.8542709 -30.5806599 77.6525879
64.5296707 -32.5731773 52.7592850
63.9551697 -32.6407471 51.7239799
152.5217743 -30.9676571 54.3538399
120.0002136 -30.0172901 78.1279373
91.0239487 -30.4429626 76.1046143
90.4551849 -30.4605465 75.8864441
89.8954239 -30.4771957 75.6703415
89.3540192 -30.4908276 75.4520416
87.6581345 -30.5500698 74.6813126
87.1021271 -30.5712986 74.4182587
85.4181213 -30.6356468 73.5814056
84.8633728 -30.6573009 73.2741852
120.0002975 -29.4619751 78.1626129
87.6482544 -29.9889011 74.7159119
84.8546753 -30.0936508 73.3167572
87.6507721 -29.4258671 74.7442856
84.8514404 -29.5294495 73.3508224
64.5145721 -30.8173370 53.0813637
87.6383972 -28.8648987 74.7615662
87.0726776 -28.8856964 74.5031586
86.5253067 -28.9026852 74.2458496
85.9700317 -28.9223328 73.9734802
85.4074554 -28.9438343 73.6826706
84.8467941 -28.9662476 73.3766479
64.5019302 -30.2333546 53.1763420
89.3102417 -28.2480125 75.5387650
85.3865356 -28.3827820 73.6931381
84.8359909 -28.4039555 73.3976440
84.2892075 -28.4239388 73.0945816
83.7204819 -28.4462490 72.7694931
82.0444717 -28.5168705 71.7745743
81.4804611 -28.5406513 71.4266434
80.9259262 -28.5641727 71.0699539
80.3751678 -28.5882015 70.7007980
64.5024872 -29.6501904 53.2651062
89.3047867 -27.6872997 75.5541458
83.7218475 -27.8821106 72.7905579
64.4752884 -29.0720940 53.2814445
122.3835907 -26.6830139 77.6500092
88.1807022 -27.1595097 75.0748825
83.7090454 -27.3203735 72.7957382
79.8237991 -27.4821186 70.3446198
79.2700806 -27.5059338 69.9433289
78.6969681 -27.5338840 69.5264206
78.1389465 -27.5611458 69.1064224
64.4775391 -28.4900417 53.3282394
122.3915787 -26.1273327 77.6478043
88.1760788 -26.6001091 75.0784607
83.7024612 -26.7575455 72.7972641
78.1398926 -26.9951477 69.1135559
64.4822769 -27.9098244 53.3643265
122.3984680 -25.5723343 77.6309128
88.1705399 -26.0400105 75.0689392
78.1450958 -26.4290371 69.1154709
64.4512863 -27.3335094 53.3276138
88.1570816 -25.4803829 75.0514832
82.0222778 -25.6713085 71.8210220
81.4917374 -25.6561050 71.4927979
78.1376801 -25.8641739 69.1015015
