122.4806976 20.8032265 77.3132782
117.6730042 20.7789040 78.3508377
112.9468536 20.7606277 78.8107529
108.2887421 20.7491913 78.7263031
103.6951828 20.7445107 78.1191406
99.1477814 20.7463093 76.9961700
94.6488266 20.7546501 75.3141479
90.1912918 20.7710190 73.0237732
85.7816772 20.7950115 70.0008163
-100.6466141 21.2278748 -7.1768055
-105.5045624 21.1890450 -5.0403099
-110.4297485 21.1591911 -3.6118219
-115.4194794 21.1369724 -2.8352375
-120.4813538 21.1219025 -2.6962299
-125.6386566 21.1148167 -3.2242494
-130.9005127 21.1157589 -4.4811401
118.1070175 25.2836380 74.7344055
113.3515778 25.2633133 75.2948456
108.6731262 25.2557354 75.2497101
104.0628586 25.2576389 74.6278000
99.5087585 25.2704029 73.4292984
95.0034943 25.2947273 71.6101990
90.5509949 25.3306847 69.0727539
-95.4527817 26.3079414 -6.0802670
-100.2595978 26.2508583 -3.3863504
-105.1128235 26.2061729 -1.4064903
-110.0256271 26.1737289 -0.0455545
-115.0025711 26.1481552 0.7128142
-120.0448151 26.1370373 0.8885173
-125.1673660 26.1343746 0.4634228
-130.3815918 26.1439114 -0.5990716
118.6912994 29.8556137 69.9992676
113.8890762 29.8323441 70.7307816
109.1810303 29.8258152 70.7571564
104.5458984 29.8353634 70.1160812
99.9820709 29.8621407 68.7807465
-90.4023590 31.3989143 -6.3439746
-95.1625366 31.3155403 -3.0457077
-99.9685135 31.2499161 -0.5073934
-104.8219452 31.1991615 1.3689528
-109.7255707 31.1628647 2.6796904
-114.6868896 31.1397343 3.4235921
-119.7128448 31.1282158 3.6271000
-124.8135757 31.1298046 3.2699430
-130.0007782 31.1467514 2.3247173
-135.2965393 31.1780758 0.7016167
109.8713684 34.4953461 64.6454620
-85.4723511 36.5254517 -7.9606662
-90.1839752 36.4048119 -3.9349601
-109.5051880 36.1401482 4.7227769
-134.9845886 36.1778946 3.0097458
-140.3800354 36.2412872 0.7524793
-85.3220749 41.5414810 -6.1093750
-140.1412659 41.2496490 2.4960840
-145.6686096 41.3570862 -0.5233334
-85.2339478 46.5647240 -4.9661431
-140.0028076 46.2640305 3.5803475
-145.5169678 46.3889008 0.6493928
-85.2064667 51.6039658 -4.4631400
-89.9270172 51.4356384 -0.7022659
-139.9477539 51.2931900 4.0651026
-145.4565125 51.4379578 1.1595604
-80.5748825 56.9145813 -9.4440231
-85.2370453 56.6704178 -4.5955515
-89.9553833 56.4815826 -0.8002034
-134.6277924 56.2258873 6.0309253
-139.9832764 56.3474464 3.9524336
-145.4991760 56.5149536 1.0157137
-80.6719894 62.0525818 -10.3648148
-85.3263016 61.7752953 -5.3692732
-90.0400085 61.5635262 -1.4956105
-129.4953003 61.1981544 6.8064275
-134.7435913 61.2973900 5.3738317
-140.1104584 61.4386253 3.2319169
-145.6406555 61.6325874 0.2011774
-85.4787750 66.9347839 -6.8605390
-90.1863251 66.6934662 -2.8230069
-94.9440613 66.5078506 0.3397954
-114.4320755 66.1785736 6.5938840
-119.4374084 66.1838379 6.8200436
-124.5168915 66.2220612 6.5084171
-129.6767120 66.2978668 5.6299038
-134.9420776 66.4149017 4.1214342
-140.3388672 66.5805359 1.8538588
-90.4040451 71.8895874 -4.8710489
-95.1562500 71.6783600 -1.5480196
-99.9565201 71.5211868 0.9915303
-114.6583557 71.3119507 4.9259343
-119.6765289 71.3200226 5.1239667
-124.7691116 71.3673248 4.7696896
-129.9463959 71.4555664 3.8169775
-135.2393188 71.5949173 2.1768689
-140.6735535 71.7910461 -0.2869261
-100.2431488 76.7492065 -1.5234059
-105.0908356 76.6222839 0.4670215
-109.9956055 76.5470657 1.8144540
-114.9642563 76.5141983 2.5763941
-119.9952545 76.5265198 2.7505674
-125.1113129 76.5853348 2.3269641
-130.3226929 76.6933212 1.2489661
-100.6283112 82.0823669 -4.9702039
-105.4771271 81.9355621 -2.8213239
-110.3920593 81.8461304 -1.3863764
-115.3702393 81.8125687 -0.6098164
-120.4288330 81.8318787 -0.4806336
-125.5738602 81.9053192 -1.0128988
-130.8273621 82.0407791 -2.2962174
-105.9949646 87.3914871 -7.3142271
-110.9173203 87.2872543 -5.7393785
-115.9170303 87.2489929 -4.9312706
-121.0094986 87.2782288 -4.8765726
-126.2014847 87.3759308 -5.6069984
114.3512192 -52.9495049 60.4189453
111.9441986 -52.9780273 60.5433731
109.5897064 -53.0189209 60.4064293
118.6549225 -50.3270187 64.0969696
116.1972656 -50.3143234 64.6704254
113.8031616 -50.3232498 64.9655914
111.4110718 -50.3486443 65.0314178
109.0737381 -50.3971405 64.8548813
106.7440033 -50.4600067 64.4760895
104.4384537 -50.5389137 63.8621101
102.1639557 -50.6423264 62.9894257
99.9037781 -50.7569504 61.8745575
128.2237549 -47.9853249 63.3819618
125.6342773 -47.8945618 65.0195770
123.1112366 -47.8348808 66.2507782
120.6105728 -47.7956467 67.1896820
118.1808014 -47.7797012 67.8346252
101.7635803 -48.0896835 66.6673813
99.4935760 -48.1933632 65.6824493
97.2578659 -48.3203697 64.4613953
95.0317154 -48.4617729 62.9771271
130.3124390 -45.5419617 65.4750443
127.6993332 -45.4517593 67.1807251
125.1619263 -45.3866119 68.5047302
122.6685867 -45.3414383 69.5448074
120.1945801 -45.3139076 70.3324051
117.7921677 -45.3076706 70.8690567
101.4383240 -45.6096001 69.6603699
99.1655579 -45.7081375 68.7474289
96.9261627 -45.8169212 67.6572266
94.6859512 -45.9445686 66.3354950
92.4828186 -46.0859833 64.7827072
90.2940216 -46.2514801 62.8922653
88.1259384 -46.4401855 60.6348915
132.4377594 -43.1482239 67.0113144
129.8438416 -43.0569649 68.7785645
127.2819138 -42.9869461 70.2203064
92.1941681 -43.6087456 67.7213287
89.9794922 -43.7569771 66.0318451
87.8002472 -43.9223404 64.0750732
134.6670227 -40.8024445 68.0015640
132.0189667 -40.7052002 69.9342499
129.4595337 -40.6318741 71.4857407
126.9273376 -40.5792007 72.7425461
91.9455872 -41.1852760 70.1772079
89.7241364 -41.3164558 68.6307068
87.5377350 -41.4630394 66.8588104
85.3588791 -41.6328125 64.7610168
136.9163513 -38.4910202 68.5911484
134.2857971 -38.3907700 70.6353531
131.6626434 -38.3092690 72.3698196
87.3149719 -39.0453873 69.1918640
85.1232147 -39.1987839 67.2661743
82.9497681 -39.3674583 65.0472946
139.2705383 -36.2102280 68.7294312
136.5512695 -36.1002045 71.0232315
133.9544830 -36.0176849 72.8521576
131.3571777 -35.9461594 74.4322968
87.1218262 -36.6638336 71.2005234
84.9256439 -36.8016891 69.4027100
82.7445526 -36.9537849 67.3492432
80.5871277 -37.1251907 64.9763336
141.6454010 -33.9555550 68.4770813
138.9210968 -33.8373795 70.9772186
136.2456665 -33.7444153 73.0582047
133.6775360 -33.6785736 74.7305222
131.0983276 -33.6158562 76.1986160
82.5699463 -34.5721359 69.3035355
80.4045792 -34.7302551 67.0874939
78.2461700 -34.9031601 64.5199890
141.3176117 -31.5977383 70.5850449
138.6244202 -31.4994621 72.8624344
135.9787750 -31.4176655 74.7946930
133.4248962 -31.3585434 76.3646240
130.8737640 -31.3118172 77.7226257
82.4142914 -32.2216339 70.9585724
80.2416306 -32.3608170 68.8785019
78.0781860 -32.5194359 66.4775620
143.8034058 -29.3806610 69.7472229
141.0361633 -29.2685165 72.3518066
77.9321136 -30.1629086 68.1270676
75.7854080 -30.3245087 65.5100555
143.5414886 -27.0609779 71.3929749
140.8031616 -26.9669590 73.8258972
77.8046875 -27.8267345 69.5354156
75.6598282 -27.9729729 67.0578156
146.0956268 -24.8677101 70.0199051
143.3147583 -24.7644119 72.7762451
140.6024933 -24.6809349 75.0687408
137.9858704 -24.6188889 76.9640198
135.3847504 -24.5648193 78.6060410
132.8695679 -24.5270500 79.9626312
130.3528442 -24.4936485 81.1506195
127.9029846 -24.4715633 82.1310272
125.4562302 -24.4563789 82.9626160
123.0428238 -24.4489708 83.6378250
120.6594162 -24.4465332 84.1711884
118.2672653 -24.4474049 84.5857925
115.9365692 -24.4633751 84.8348389
113.5678329 -24.4743748 85.0167313
111.2744446 -24.4976768 85.0408173
108.9370728 -24.5213356 84.9934158
106.6627808 -24.5555706 84.7875214
104.3681488 -24.5923576 84.4917374
102.0998688 -24.6345749 84.0896454
99.8519440 -24.6774826 83.5779648
97.5690765 -24.7340908 82.9245224
95.3582916 -24.7911072 82.1840744
93.0910797 -24.8570023 81.2760010
90.8961487 -24.9226551 80.2993011
88.6540604 -25.0031891 79.1108932
86.4603500 -25.0839043 77.8291855
84.2561798 -25.1762123 76.3527374
77.6987228 -25.5084972 70.7330780
75.5503387 -25.6412277 68.3621063
145.8743591 -22.5735722 71.3368073
143.1207886 -22.4846706 73.9373245
140.4351044 -22.4129562 76.1134567
137.8282471 -22.3562393 77.9403458
135.2407990 -22.3102684 79.5157700
132.7290039 -22.2750244 80.8409729
130.2221375 -22.2491722 81.9805450
127.7751770 -22.2286224 82.9414139
125.3352203 -22.2151680 83.7469025
122.9318619 -22.2092781 84.4004517
120.5432510 -22.2109280 84.9081192
118.1628876 -22.2159996 85.3027802
108.8476868 -22.2855759 85.6916809
106.5703506 -22.3162575 85.5061646
104.2792816 -22.3513508 85.2063751
95.2698898 -22.5379486 82.9293060
93.0072250 -22.6020508 82.0354996
90.8074875 -22.6643906 81.0613861
88.5702286 -22.7378635 79.9135590
86.3762894 -22.8130512 78.6561432
84.1704025 -22.8989887 77.2131577
77.6098633 -23.2047939 71.7472458
75.4518509 -23.3285599 69.4505386
73.2903900 -23.4676628 66.8012390
148.5279236 -20.3993111 69.3571777
145.7074280 -20.3009682 72.3800888
137.6957397 -20.1077328 78.7420578
135.1208191 -20.0676556 80.2737503
127.6736450 -19.9976482 83.6099854
125.2397919 -19.9885559 84.3893738
118.0786743 -19.9876404 85.9176941
106.4844818 -20.0881290 86.0916901
95.1871490 -20.2985096 83.5405426
86.2958450 -20.5543156 79.3429184
84.0869598 -20.6339817 77.9268570
73.2054138 -21.1555786 67.7850342
148.3708038 -18.1267242 70.3259888
145.5549011 -18.0384750 73.2356873
137.5924988 -17.8710785 79.3892517
135.0207520 -17.8340645 80.8932266
127.5865555 -17.7721500 84.1544952
125.1536102 -17.7656803 84.9179230
95.1298141 -18.0615177 84.0557785
86.2374115 -18.3021030 79.9156799
84.0284576 -18.3757629 78.5236969
73.1277313 -18.8573532 68.5770721
70.9980927 -18.9849720 65.7509613
148.2343597 -15.8662148 71.0828552
145.4441986 -15.7899113 73.8884125
137.4939575 -15.6403370 79.9149017
134.9410706 -15.6096487 81.3736420
132.4394531 -15.5854654 82.6156311
129.9538879 -15.5686703 83.6876907
127.5201645 -15.5583801 84.5793686
125.0875397 -15.5498934 85.3415298
86.1875153 -16.0578156 80.3610382
83.9792938 -16.1256847 78.9870529
73.0745239 -16.5697136 69.2119293
70.9373932 -16.6858330 66.4437408
151.0473785 -13.7062702 68.2037659
148.1365356 -13.6172543 71.6303787
145.3572235 -13.5492573 74.3790207
137.4224243 -13.4178534 80.2915726
134.8753204 -13.3918142 81.7272034
132.3779602 -13.3714027 82.9586945
129.8961334 -13.3568926 84.0150681
86.1432953 -13.8207598 80.6918640
83.9337158 -13.8837004 79.3269653
73.0283508 -14.2900887 69.6772995
70.8884735 -14.3966455 66.9573669
150.9671021 -11.4546814 68.6385651
132.3361969 -11.1618862 83.1817322
129.8524323 -11.1494427 84.2283020
83.9058609 -11.6459723 79.5615158
72.9940414 -12.0183887 69.9911194
70.8553619 -12.1154232 67.3062286
150.9219208 -9.2110233 68.8670807
132.3032532 -8.9566050 83.2974472
129.8298645 -8.9471607 84.3322601
127.3883209 -8.9409342 85.2158890
83.8822403 -9.4131451 79.6804733
72.9708099 -9.7523994 70.1629028
70.8278961 -9.8406191 67.4994507
150.8950958 -6.9730477 68.9158020
127.3780518 -6.7433977 85.2056427
83.8749771 -7.1835957 79.6897583
81.6755066 -7.2355995 78.1825562
79.4882965 -7.2913790 76.5156097
72.9598999 -7.4908905 70.1927414
70.8139801 -7.5706520 67.5285797
68.6826782 -7.6602502 64.4537048
150.9131622 -4.7400703 68.7356110
127.3808746 -4.5475903 85.1047897
81.6731415 -5.0034328 78.0805664
79.4886169 -5.0537257 76.4138336
72.9564438 -5.2329040 70.0689316
70.8100891 -5.3041277 67.4005280
68.6777573 -5.3843546 64.3163834
150.9542999 -2.5097709 68.3722992
148.0580902 -2.4656334 71.7231827
145.2848511 -2.4327374 74.4351501
127.3986359 -2.3534195 84.8926849
81.6844864 -2.7726555 77.8648834
79.4960480 -2.8180387 76.1817169
72.9673767 -2.9766712 69.8168335
70.8191299 -3.0397551 67.1302185
68.6868286 -3.1108389 64.0131454
148.1288910 -0.2428114 71.2188492
145.3448639 -0.2170817 73.9815292
127.4302139 -0.1599684 84.5704117
88.3133240 -0.4400356 81.6180878
81.7062988 -0.5428586 77.5292664
79.5169830 -0.5824416 75.8321686
72.9866180 -0.7209427 69.4113464
70.8423615 -0.7763947 66.7000122
148.2261658 1.9785700 70.5324249
145.4274597 1.9991693 73.3736343
127.4780350 2.0335393 84.1241531
88.3395081 1.7768594 81.1936493
86.1328735 1.7494173 79.9698257
83.9246597 1.7190472 78.6044159
81.7328491 1.6870133 77.0741043
79.5409241 1.6538552 75.3576736
73.0248489 1.5341855 68.8715286
70.8727417 1.4878436 66.0910950
148.3478394 4.2037315 69.6583481
145.5362854 4.2181449 72.5905914
127.5439148 4.2301345 83.5834503
125.1149979 4.2245617 84.3613815
122.7076874 4.2174468 84.9953918
120.3275909 4.2104168 85.4981308
88.3805008 3.9946163 80.6709213
86.1730347 3.9704223 79.4362640
83.9659119 3.9454756 78.0521011
81.7712860 3.9189672 76.5006409
79.5842743 3.8903499 74.7741470
73.0712128 3.7917619 68.1562805
70.9310074 3.7526047 65.3398361
148.5249634 6.4315376 68.5110931
145.6765747 6.4384470 71.6029816
122.7813644 6.4139390 84.3769913
120.3947906 6.4057665 84.8833008
118.0308990 6.3971148 85.2673264
115.6771851 6.3876495 85.5372620
113.3400574 6.3754334 85.6912537
111.0213165 6.3644261 85.7322845
108.7137146 6.3526373 85.6608582
95.1100540 6.2679701 82.9405975
92.8741302 6.2508240 82.0923996
90.6512909 6.2329392 81.1302185
88.4318390 6.2139201 80.0223312
73.1226578 6.0521221 67.2695847
-117.0973816 4.4656978 -27.4563065
145.8580475 8.6653910 70.3995361
122.8680115 8.6117077 83.6291046
120.4811401 8.6017590 84.1563721
118.1087875 8.5940285 84.5499878
115.7571869 8.5848560 84.8224945
113.4170227 8.5751305 84.9825058
111.0901489 8.5631294 85.0319595
108.7827911 8.5527086 84.9617996
106.4878235 8.5416393 84.7798462
104.2034454 8.5305729 84.4881210
101.9334259 8.5182915 84.0908966
99.6679535 8.5061445 83.5864716
90.7146912 8.4523077 80.3716278
88.4969482 8.4377422 79.2470474
73.1963501 8.3163748 66.1997757
-111.2340164 7.1240845 -21.8711853
-113.7293091 7.1148086 -21.0663223
-116.2562790 7.1056967 -20.5812130
-118.8270416 7.0911756 -20.4295349
-121.4319153 7.0840402 -20.5754719
146.0719604 10.8980341 68.9492188
143.2693787 10.8874207 71.7624359
140.5709686 10.8789711 74.0646591
99.7471161 10.7165241 82.7529907
90.7876358 10.6755896 79.4935760
88.5662384 10.6654921 78.3516083
77.5988617 10.6092281 70.0223846
75.4336624 10.5991898 67.6473083
73.2855225 10.5868320 64.9203949
-103.3557892 9.7515306 -20.7002468
-105.7556763 9.7396717 -19.1441479
-108.2021179 9.7327003 -17.8938427
-110.6678467 9.7227764 -16.9403782
-113.1593094 9.7127151 -16.2418976
-120.8181992 9.6790771 -15.6725750
-123.4317169 9.6704121 -16.0003796
-126.0893784 9.6582260 -16.5918579
146.3250885 13.1361256 67.2061539
143.4986420 13.1236343 70.2314148
140.7663116 13.1071682 72.6790085
99.8397751 12.9318714 81.7981415
90.8721924 12.9043617 78.4873962
88.6521530 12.8979511 77.3166656
77.6886368 12.8716049 68.7372360
75.5305557 12.8680229 66.2603760
-98.1305771 12.3560667 -20.0926342
-100.4948120 12.3420029 -18.0830574
-102.8934937 12.3296375 -16.4215431
-105.3101349 12.3190632 -15.0568237
-107.7615509 12.3057604 -13.9607792
-110.2247772 12.2954941 -13.0972595
-112.7199173 12.2826777 -12.4657803
-120.3351288 12.2549057 -11.8449869
-122.9367523 12.2437763 -12.0783234
-125.5637817 12.2336226 -12.5347662
-128.2270813 12.2250710 -13.2500753
-130.9380493 12.2180109 -14.2654743
143.7675171 15.3665504 68.4050446
141.0045166 15.3466301 71.0387497
138.3220520 15.3243017 73.2212067
135.6992035 15.3057365 75.0434875
133.1298370 15.2871008 76.5912628
130.6130676 15.2771912 77.8664093
99.9456787 15.1528397 80.7227020
97.6836243 15.1504135 80.0548172
95.4400635 15.1455774 79.2880402
93.2006531 15.1419258 78.3877563
90.9758759 15.1400232 77.3322678
88.7537766 15.1362543 76.1289291
82.1568069 15.1358261 71.4748383
79.9707031 15.1397400 69.4805222
77.8076324 15.1402197 67.2382202
75.6473083 15.1461544 64.6337509
-93.0513229 14.9542542 -20.9341049
-95.3778381 14.9385242 -18.3579388
-97.7381439 14.9199419 -16.2302456
-100.1194916 14.9059191 -14.4584064
-102.5251236 14.8866892 -12.9691076
-130.4546814 14.7771740 -10.6779213
-133.1745605 14.7741737 -11.7976294
-135.9498749 14.7737541 -13.2447376
141.2832031 17.5938549 69.1217957
138.5672302 17.5665016 71.4840851
135.9268036 17.5450325 73.4266357
133.3477020 17.5231037 75.0611343
130.8060455 17.5050640 76.4291916
100.0667038 17.3839569 79.5018387
97.8109283 17.3810787 78.8334503
95.5548477 17.3801250 78.0411682
93.3213959 17.3792458 77.1049957
91.0925827 17.3802967 76.0220032
88.8717728 17.3843613 74.7824402
82.2752533 17.4000931 69.9463425
80.0975494 17.4085884 67.8745193
77.9341507 17.4209251 65.4972610
-90.3764801 17.5422535 -19.8995171
-92.6928024 17.5120983 -17.2350407
-95.0432358 17.4925289 -14.9674263
-97.4225922 17.4652519 -13.0729294
-99.8058167 17.4470501 -11.4545994
-102.2265320 17.4292946 -10.0795870
-130.0570831 17.3249874 -7.6966705
-132.7469482 17.3217583 -8.6676884
-135.4830322 17.3223457 -9.9138708
141.6120453 19.8528862 66.8445511
138.8571167 19.8204060 69.4483643
136.1911011 19.7907009 71.5587540
133.5858154 19.7658310 73.3077774
131.0277863 19.7427139 74.7649994
82.4215698 19.6751118 68.1879730
80.2474670 19.6931915 65.9891815
-87.7642517 20.1212502 -19.5064716
-90.0697632 20.0845222 -16.6461201
-92.4067383 20.0560608 -14.2426338
-94.7704849 20.0255737 -12.1799564
-97.1524658 19.9993076 -10.4057732
-135.0960693 19.8615627 -7.1334972
-137.8607483 19.8652115 -8.5311203
-140.6638031 19.8784676 -10.2335329
139.2163696 22.0933971 67.0001984
136.4985657 22.0550652 69.3573837
133.8631287 22.0200615 71.2738419
131.2849884 21.9942303 72.8625946
82.5883484 21.9660015 66.1531372
80.4193497 21.9915237 63.7938232
-85.2030945 22.7069683 -19.5832710
-87.4897614 22.6581879 -16.5281010
-89.8220215 22.6198483 -13.9260855
-92.1668930 22.5825596 -11.7143087
-94.5410004 22.5501308 -9.7907639
-96.9259644 22.5261917 -8.1236591
-134.7745209 22.3843231 -4.7802157
-137.5011902 22.3975811 -6.0203819
-140.2851257 22.4086761 -7.5624380
-143.1257629 22.4294167 -9.4513159
136.8624878 24.3350182 66.7645569
134.1966400 24.2970982 68.8998184
131.5829468 24.2607746 70.6633682
129.0373230 24.2339535 72.0764160
126.5249557 24.2100296 73.2582092
124.0460358 24.1868229 74.2175369
121.5991821 24.1690712 74.9757309
87.1391983 24.2146301 67.8534622
84.9544067 24.2400227 65.9681244
82.7819443 24.2707405 63.7809677
-82.6797180 25.2971573 -20.2082443
-84.9640656 25.2381821 -16.8513889
-87.2686539 25.1869183 -14.0497112
-89.6138916 25.1430817 -11.6290817
-91.9668655 25.1023884 -9.5513020
-134.4923096 24.9044762 -2.7426085
-137.2100525 24.9141293 -3.9072070
-139.9621277 24.9328346 -5.3121014
-142.7775269 24.9545631 -7.0301313
-145.6459503 24.9852486 -9.1196098
134.5919647 26.5917587 66.0768051
131.9390869 26.5500507 68.0637894
129.3646393 26.5159893 69.6593552
126.8199310 26.4850502 70.9660950
124.3303223 26.4594421 72.0100861
121.8669968 26.4418774 72.8327942
87.3564987 26.5234451 65.4138184
85.1770859 26.5569592 63.3635979
83.0180283 26.6013184 60.9513512
-82.4684296 27.8247585 -17.6780376
-84.7701721 27.7601509 -14.5886898
-87.0874100 27.7070961 -11.9526987
-89.4336319 27.6581421 -9.6903877
-91.7966309 27.6171150 -7.7018166
-134.2543030 27.4114056 -0.9868222
-136.9458923 27.4300613 -2.0647857
-139.6878052 27.4505539 -3.3765736
-142.4751587 27.4749546 -4.9706726
-145.3204346 27.5070305 -6.8927555
135.0768127 28.9090462 62.5886383
132.3664398 28.8617249 64.9569397
129.7526550 28.8198204 66.7893677
127.1756134 28.7810936 68.2839508
124.6602554 28.7509460 69.4597702
122.1805725 28.7286263 70.3889313
96.4569855 28.7290154 68.7206192
94.2248917 28.7516823 67.5406570
92.0029144 28.7800865 66.1339340
89.7959442 28.8156204 64.4820404
87.6120911 28.8506832 62.5620995
-82.2924728 30.3490696 -15.5516615
-84.6018143 30.2762470 -12.6734123
-86.9303436 30.2213020 -10.1750154
-139.4516907 29.9607868 -1.7168227
-142.2264099 29.9889507 -3.2226634
-145.0389099 30.0268784 -5.0051966
-147.9341431 30.0700893 -7.1808076
130.2218933 31.1524982 63.2948532
127.6038513 31.1085396 65.0617371
125.0585098 31.0721130 66.4433289
122.5428009 31.0387802 67.5243454
96.7387619 31.0530300 65.9508133
94.5015106 31.0832291 64.6608734
92.2831116 31.1225700 63.0975800
90.0906067 31.1626167 61.2744789
-82.1442642 32.8644981 -13.7856674
-84.4637985 32.7930222 -11.0420923
-86.7968292 32.7305984 -8.6565905
-139.2502289 32.4678421 -0.2991721
-142.0076141 32.4992981 -1.7277029
-144.8090973 32.5391159 -3.4152534
-147.6756134 32.5875282 -5.4540424
125.5398865 33.4226265 62.7562332
122.9834061 33.3897858 64.0484695
120.4882813 33.3579788 65.0436020
118.0238419 33.3349495 65.7600479
115.6017456 33.3233566 66.2229843
113.2086105 33.3125153 66.4815979
106.1703720 33.3186188 66.0538330
103.8624039 33.3330383 65.5211487
101.5774155 33.3499908 64.7796707
99.3092346 33.3800430 63.8132935
97.0624542 33.4092102 62.6429138
94.8329086 33.4486313 61.1832657
-82.0268707 35.3810768 -12.3106318
-93.7926865 35.0816193 -1.9659573
-96.1893845 35.0417213 -0.5589895
-98.5916443 35.0065384 0.6538688
-101.0144501 34.9757881 1.7227063
-103.4294281 34.9480820 2.6300881
-105.8668747 34.9260941 3.4010644
-113.2559357 34.8773041 4.9074588
-115.7483292 34.8683853 5.1522965
-118.2532654 34.8641434 5.2688007
-120.7739716 34.8626900 5.2504225
-123.3219757 34.8658752 5.0873499
-125.8852921 34.8708878 4.7787466
-128.4774933 34.8821335 4.3349380
-131.0854492 34.8967590 3.7386079
-144.6117249 35.0497017 -2.0690691
-147.4646301 35.1023026 -4.0106716
-150.3677063 35.1667137 -6.3265829
121.0044327 35.7359505 60.9486237
118.5074081 35.7133255 61.8417511
116.0553131 35.6944923 62.4525299
113.6455688 35.6829262 62.7993050
106.5604706 35.6905594 62.4010239
104.2588806 35.7069016 61.8254852
101.9699097 35.7353477 60.9845695
99.7124329 35.7640724 59.9182930
97.4765930 35.8067741 58.5289688
-81.9240341 37.8946686 -11.0856934
-93.7055588 37.5790634 -0.9974813
-96.0956955 37.5350037 0.3775501
-98.4988174 37.4969673 1.5769917
-100.9185410 37.4646454 2.6183217
-103.3408356 37.4344215 3.5124829
-105.7777710 37.4116173 4.2837873
-113.1606750 37.3639908 5.7783279
-115.6462860 37.3549957 6.0233078
-118.1524582 37.3499794 6.1404381
-120.6756744 37.3506851 6.1151838
-123.2165298 37.3555679 5.9692049
-125.7692719 37.3635902 5.6869946
-128.3526764 37.3754120 5.2682924
-130.9599304 37.3912926 4.6851063
-144.4433136 37.5605698 -0.9353375
-147.2821960 37.6160507 -2.8053184
-150.1698761 37.6843987 -5.0138588
114.2078705 38.1005783 58.0595245
111.7926636 38.0971832 58.2512550
109.4323044 38.1025352 58.1546478
107.0805817 38.1201591 57.7385406
-81.8535156 40.4088898 -10.0694590
-88.8822708 40.1848831 -3.4409947
-91.2524490 40.1267052 -1.7214119
-93.6347656 40.0747299 -0.1907944
-96.0306244 40.0294456 1.1594284
-105.7069473 39.8998337 5.0231514
-108.1474228 39.8780861 5.6591520
-110.6030884 39.8630829 6.1474085
-113.0824966 39.8485031 6.4966021
-115.5697174 39.8414078 6.7431984
-128.2599640 39.8650665 6.0308928
-130.8552246 39.8849411 5.4720869
-133.4881287 39.9099007 4.7492876
-136.1411133 39.9387207 3.8556352
-150.0168457 40.2029991 -3.9541779
-152.9788666 40.2907410 -6.5277658
-79.4769745 43.0272179 -12.0772057
-81.7830582 42.9235611 -9.2766361
-88.8252487 42.6870804 -2.7537956
-91.1949234 42.6263504 -1.0536828
-105.6411896 42.3873825 5.6231489
-108.0858612 42.3655548 6.2432961
-128.1911469 42.3585510 6.6409111
-130.7790070 42.3800011 6.0966496
-133.4061890 42.4056778 5.3944421
-136.0511627 42.4394264 4.5324445
-149.8860474 42.7237625 -3.0978670
-152.8372192 42.8162270 -5.5896935
-79.4277267 45.5501518 -11.3972473
-81.7403793 45.4422569 -8.6497202
-88.7872009 45.1931152 -2.2146366
-91.1538620 45.1280479 -0.5333970
-133.3422241 44.9047661 5.9043589
-135.9896393 44.9403114 5.0479226
-149.8041534 45.2468948 -2.4535959
-152.7425232 45.3458443 -4.8938341
-79.3922882 48.0781326 -10.9469624
-81.7112961 47.9647827 -8.2157459
-88.7573395 47.7011871 -1.8230610
-91.1286469 47.6326752 -0.1450034
-93.5103989 47.5718994 1.3423922
-133.2990723 47.4062920 6.2652798
-135.9508972 47.4450340 5.4102364
-149.7368164 47.7745590 -1.9953773
-152.6754150 47.8798828 -4.4051261
-79.3819046 50.6122665 -10.6700048
-81.6981964 50.4921684 -7.9448423
-93.4980850 50.0773544 1.5763267
-133.2754517 49.9113464 6.4963260
-135.9164124 49.9532738 5.6538630
-149.7031708 50.3078117 -1.7298728
-152.6376953 50.4203262 -4.1205759
-77.0849838 53.3004456 -13.7115402
-79.3828354 53.1532974 -10.5763035
-81.7026062 53.0263672 -7.8589311
-93.4947586 52.5882378 1.6662827
-130.6575012 52.3847046 7.2619357
-133.2731628 52.4218102 6.5877204
-135.9138336 52.4669838 5.7480803
-149.7035065 52.8483353 -1.6452277
-152.6279602 52.9685249 -4.0315695
-74.8354797 56.0449829 -17.5406094
-77.1032410 55.8595886 -13.8260851
-93.5100327 55.1048431 1.6221114
-125.5101166 54.8400688 8.1526299
-128.0787201 54.8638115 7.7745299
-130.6694183 54.8981590 7.2290978
-149.7241821 55.3963470 -1.7252154
-152.6544495 55.5261726 -4.1398811
-74.8764114 58.6289215 -17.9177189
-77.1357498 58.4312439 -14.1488914
-93.5371857 57.6297226 1.4362476
-122.9894333 57.3344307 8.2710857
-125.5412064 57.3554268 7.9970675
-128.1130371 57.3828201 7.6016121
-130.7007446 57.4178085 7.0639911
-149.7766113 57.9558640 -2.0016837
-152.7165070 58.0956039 -4.4614358
-74.9333954 61.2314301 -18.5836830
-77.1946640 61.0173225 -14.6965160
-93.5723267 60.1633377 1.1184843
-95.9713745 60.0933571 2.4518692
-98.3687439 60.0344353 3.6212268
-117.9892731 59.8334198 8.1315470
-120.5042725 59.8411331 8.1153412
-123.0347137 59.8550339 7.9838867
-125.5858231 59.8785477 7.7155075
-149.8623657 60.5279350 -2.4807622
-152.8153992 60.6798897 -4.9961782
-75.0189590 63.8543549 -19.5276833
-77.2624588 63.6211166 -15.4975538
-93.6312408 62.7073822 0.6497394
-96.0242004 62.6341095 2.0048928
-98.4281845 62.5704346 3.1897018
-100.8367767 62.5160675 4.2272511
-110.5925293 62.3815956 6.9918466
-113.0600739 62.3679733 7.3664808
-115.5521088 62.3615570 7.6012497
-118.0522537 62.3622437 7.7124772
-120.5658875 62.3711777 7.7019858
-123.1083527 62.3884354 7.5576453
-125.6532593 62.4122429 7.2917919
-149.9849854 63.1161957 -3.1653123
-152.9453278 63.2798233 -5.7566051
-77.3570938 66.2441940 -16.5339508
-79.6401749 66.0326843 -13.0429611
-81.9362259 65.8583069 -10.1001339
-98.4940720 65.1199722 2.6050181
-100.9085464 65.0603256 3.6595278
-110.6634064 64.9198303 6.4550600
-144.4067688 65.4426041 0.0545407
-147.2402344 65.5705109 -1.8304582
-150.1311035 65.7205200 -4.0610218
-77.4806061 68.8948669 -17.8923645
-79.7449341 68.6634445 -14.2222271
-82.0373459 68.4708252 -11.1417732
-98.5801849 67.6813889 1.8698502
-100.9963074 67.6197433 2.9382284
-103.4104538 67.5700760 3.8549700
-110.7610474 67.4734344 5.7672596
-144.5577545 68.0411987 -0.9029574
-147.4123840 68.1822205 -2.8703566
-150.3164368 68.3461227 -5.2011862
-79.8756256 71.3184052 -15.6899567
-82.1615372 71.1075439 -12.4553595
-84.4771118 70.9256516 -9.6781225
-86.8062744 70.7720566 -7.2842865
-103.5206070 70.1354294 3.0110426
-105.9584961 70.0957947 3.7852318
-108.4043732 70.0633011 4.4207335
-110.8701553 70.0373230 4.9317560
-144.7478027 70.6624603 -2.0796063
-147.6256256 70.8183823 -4.1554265
-80.0423584 74.0090256 -17.5286331
-82.3128586 73.7756500 -14.0789289
-84.6161957 73.5751419 -11.1411810
-86.9437790 73.4083405 -8.6377048
-103.6454926 72.7282867 1.9673004
-106.0834808 72.6811295 2.7756946
-108.5327530 72.6462097 3.4201286
-111.0011139 72.6191330 3.9250183
-144.9799500 73.3091278 -3.5155044
-147.8695984 73.4798584 -5.7183218
-82.4912338 76.4770432 -16.0413818
-84.7762756 76.2544098 -12.9024677
-87.0985794 76.0684967 -10.2440357
-89.4411392 75.9073944 -7.9496117
-91.7964020 75.7751007 -5.9550109
-94.1675415 75.6538467 -4.2099786
-96.5569382 75.5528412 -2.6922879
-134.1928864 75.4855042 0.7609717
-136.8759460 75.5767059 -0.3233617
-139.6256409 75.6959305 -1.6782837
-142.4061890 75.8253860 -3.2841303
-145.2508698 75.9851837 -5.2400026
-82.7107468 79.2237091 -18.4824429
-84.9763641 78.9742126 -15.0424337
-87.2864685 78.7671814 -12.1882458
-89.6161804 78.5883331 -9.7468395
-91.9709930 78.4391632 -7.6383352
-94.3393860 78.3098297 -5.8200169
-96.7216873 78.2044220 -4.2354150
-134.4270020 78.1406555 -0.8329960
-137.1307678 78.2423401 -1.9984457
-139.8860779 78.3684921 -3.4322045
-142.6956177 78.5193100 -5.1905375
-145.5729828 78.7009125 -7.3319793
-85.2216187 81.7404175 -17.6771336
-87.5111084 81.5042572 -14.5268955
-89.8233414 81.3109207 -11.9060469
-92.1767731 81.1397858 -9.6474638
-94.5374908 80.9986420 -7.7058754
-96.9196167 80.8777161 -6.0319076
-134.6947327 80.8244400 -2.6962247
-137.4244080 80.9413986 -3.9677250
-140.2103882 81.0845261 -5.5523634
-143.0520020 81.2567673 -7.4914222
-87.7951508 84.3000565 -17.3979797
-90.0838776 84.0740509 -14.4841890
-92.4203415 83.8872070 -12.0331478
-94.7690659 83.7261581 -9.9377880
-97.1428146 83.5906372 -8.1518297
-135.0159454 83.5494690 -4.9075651
-137.7781677 83.6867752 -6.3341990
-140.5864105 83.8472061 -8.0909214
-90.3957367 86.9065475 -17.6939163
-92.7065277 86.6897125 -14.9229450
-95.0396347 86.5032120 -12.6113291
-97.4119720 86.3505402 -10.6645241
-99.7967682 86.2254715 -9.0253925
-102.2053070 86.1237183 -7.6409402
-129.9805603 86.0975800 -5.2757483
-132.6556702 86.1962280 -6.2571974
-135.3982544 86.3263702 -7.5534449
-95.3811188 89.3573074 -15.9238119
-97.7351685 89.1792908 -13.7361507
-100.1102676 89.0299454 -11.9094276
-102.5099792 88.9146652 -10.3976183
-130.3761139 88.8988800 -8.1351032
-133.0910645 89.0178833 -9.2863464
-98.1336365 92.0910187 -17.5804768
-100.4832764 91.9146423 -15.4681301
-102.8757858 91.7734909 -13.7509975
-105.2907410 91.6646271 -12.3637276
-107.7267380 91.5776978 -11.2387171
-110.1872559 91.5194855 -10.3828144
-112.6740265 91.4727173 -9.7303953
-115.1847839 91.4530182 -9.3123121
-117.7172165 91.4508438 -9.1065893
-120.2732086 91.4715271 -9.1134615
-122.8646088 91.5129242 -9.3609276
-125.4931946 91.5790634 -9.8527040
-128.1484985 91.6638107 -10.5965414
-130.8665161 91.7820053 -11.6688547
-103.3488998 94.7397614 -18.0551338
-105.7416611 94.6111145 -16.4337845
-108.1708832 94.5057831 -15.1270714
-110.6319046 94.4302521 -14.1507492
-113.1184082 94.3801117 -13.4439182
-115.6364899 94.3602676 -13.0136433
-118.1810455 94.3641663 -12.8371143
-120.7583389 94.3890686 -12.8997593
-123.3657990 94.4372864 -13.2306805
-126.0245438 94.5189972 -13.8818140
-186.6560669 -193.6052704 71.0669861
118.0069275 -55.1121902 54.8512039
116.7500305 -55.0640984 55.3492889
115.5177994 -55.0300255 55.6798019
114.2901001 -55.0263062 55.9094925
113.0774078 -55.0179138 56.0700874
111.8672791 -55.0301285 56.0870094
110.6949997 -55.0578117 56.0317078
109.5084152 -55.0991325 55.8628311
108.3517914 -55.1318817 55.6316261
107.1791687 -55.1694832 55.2932587
102.6482010 -55.4946213 52.7886124
122.6618347 -53.7840195 55.8636780
121.3775864 -53.7149086 56.6959152
120.0815125 -53.6800156 57.3924675
118.8166351 -53.6480026 57.9554253
117.5578461 -53.6285133 58.4045792
116.3309860 -53.6237373 58.7439270
107.9793320 -53.7329636 58.8356934
106.8196716 -53.7886314 58.5042534
105.6700134 -53.8337212 58.1462555
104.5276031 -53.8892975 57.6697311
103.3896637 -53.9338455 57.1113663
102.2710953 -53.9932022 56.4661560
101.1406555 -54.0866585 55.6877823
100.0506592 -54.2022285 54.8366623
122.2246552 -52.3722229 59.2258987
120.9718933 -52.3263893 59.8771286
119.7043304 -52.3017693 60.4239922
118.4607239 -52.2859001 60.8571663
117.2159348 -52.2665863 61.2315598
116.0010910 -52.2781181 61.4743729
107.6910629 -52.3915253 61.4284325
106.5195465 -52.4312553 61.1509438
105.3737793 -52.4768333 60.8072128
104.2399368 -52.5253067 60.3936043
103.0923843 -52.5836487 59.8821983
101.9671478 -52.6396866 59.3158264
100.8384933 -52.6976585 58.6676102
99.7329636 -52.7740097 57.9107437
98.6118317 -52.8723297 57.0583572
97.5115891 -52.9878654 56.1154900
127.0771637 -51.2035065 58.5762939
125.7712555 -51.1460762 59.6028290
124.4602280 -51.0979805 60.4982033
123.1668320 -51.0497475 61.2609024
121.8847351 -51.0320892 61.8742599
120.6383362 -50.9924011 62.4403725
98.3392715 -51.5089645 59.7143364
97.2427444 -51.5868683 58.8795166
96.1525726 -51.6750679 57.9502792
130.8038177 -50.1182785 57.7535782
129.4001160 -49.9912109 59.1685867
128.0231934 -49.9120064 60.3610039
126.7109528 -49.8550377 61.3573723
125.4226532 -49.8119354 62.1958542
124.1365891 -49.7753181 62.9360504
122.8695908 -49.7420654 63.5809212
121.5880890 -49.7113800 64.1520004
120.3695374 -49.6928177 64.6025925
98.1161728 -50.2040787 61.9734573
97.0103912 -50.2740288 61.2329826
95.8962784 -50.3610344 60.3817596
94.7910461 -50.4465332 59.4405975
93.7077713 -50.5278320 58.4069633
92.6115494 -50.6616783 57.2236824
131.7597656 -48.8233109 59.3322029
130.3862610 -48.7217293 60.6503220
93.4850311 -49.2192955 60.6798553
92.3925323 -49.3119621 59.6208572
91.3211060 -49.4123764 58.4814758
90.2282028 -49.5576935 57.1578903
132.7359924 -47.5618820 60.6435089
131.3971405 -47.4961586 61.8805542
130.0451050 -47.4114761 63.0511894
93.2881622 -47.9410019 62.6500664
92.1882629 -48.0238113 61.6906929
91.1087723 -48.1121674 60.6386147
90.0208435 -48.2110367 59.4690170
88.9469376 -48.3335571 58.2084160
87.8594055 -48.4919128 56.7546501
135.2326050 -46.4562683 60.1104088
133.8076172 -46.3339081 61.6501160
132.4139099 -46.2550201 62.9770164
86.6000824 -47.2800217 57.6027756
134.8654480 -45.1298065 62.4848747
133.5039978 -45.0579491 63.7936325
132.1272583 -44.9884033 64.9688263
86.4249420 -45.9532738 59.7086372
85.3480072 -46.0865669 58.2914391
137.3671875 -44.0358887 61.6044006
135.9611664 -43.9392929 63.1443138
134.5824738 -43.8636284 64.4942932
86.2581940 -44.6843033 61.5510292
85.1869278 -44.7878036 60.2195396
138.4562378 -42.8442726 62.1393280
137.0605469 -42.7577095 63.6926804
135.7023315 -42.6805229 65.0449982
134.3398743 -42.6197128 66.2460175
86.1036530 -43.4358788 63.1910858
85.0219803 -43.5381546 61.9371834
83.9621811 -43.6364365 60.5992584
82.8919983 -43.7679672 59.1021767
138.1623383 -41.5836296 64.1147995
136.7904053 -41.5109215 65.5070724
83.8050385 -42.3864326 62.2307549
82.7514114 -42.4886055 60.8585129
81.6612854 -42.6265221 59.2934875
140.7736053 -40.5253181 62.6475220
139.3332977 -40.4278488 64.3354034
137.9171295 -40.3484344 65.8187408
136.5526428 -40.2762299 67.0964508
83.6714249 -41.1530266 63.7068367
82.6066284 -41.2466660 62.4120293
81.5320892 -41.3560066 60.9622498
80.4691925 -41.4914627 59.4366341
141.9470215 -39.3744583 62.7000961
140.5078583 -39.2804070 64.4443512
139.0973969 -39.1956978 65.9791107
81.4009857 -40.1176949 62.4668999
80.3427048 -40.2252388 61.0150223
79.2565994 -40.3685303 59.4204521
143.1113892 -38.2313881 62.6745644
141.6872253 -38.1397400 64.4435883
140.2554932 -38.0495911 66.0585785
138.8780823 -37.9786911 67.4443893
81.2783203 -38.8978462 63.8201523
80.2247162 -38.9920502 62.4544830
79.1445541 -39.1068764 60.9261589
142.8529663 -36.9962540 64.3668823
141.4555359 -36.9197998 65.9841919
79.0428467 -37.8682404 62.3258820
77.9681473 -38.0011902 60.7566528
144.1188049 -35.8746948 64.0577469
142.6310272 -35.7847443 65.8515625
141.2439117 -35.7156372 67.3596344
78.9235992 -36.6586266 63.5505600
77.8832855 -36.7544823 62.1035309
76.8011780 -36.8778954 60.4245796
145.3502655 -34.7538834 63.6641617
143.8901520 -34.6683273 65.5124054
76.7045670 -35.6531906 61.7213593
75.6369705 -35.7793732 60.0291252
145.1211090 -33.5465012 65.1000061
143.6708679 -33.4656906 66.8446045
76.6020508 -34.4446945 62.8901520
75.5435715 -34.5511856 61.2919312
146.4024658 -32.4443817 64.4866028
144.9350281 -32.3588867 66.3596039
143.4927368 -32.2789917 68.0069580
76.5114212 -33.2448158 63.9558525
75.4597015 -33.3409081 62.4271507
74.3716965 -33.4697838 60.7352943
147.6817322 -31.3451538 63.7789230
146.2012939 -31.2531700 65.7570724
144.7375031 -31.1694775 67.5296249
143.3368835 -31.1019955 69.0529480
76.4392471 -32.0539513 64.9380875
75.3780441 -32.1425629 63.4559479
74.3003998 -32.2481804 61.8187485
147.4765930 -30.1509705 65.0452576
146.0092010 -30.0648670 66.9163284
74.2279510 -31.0500336 62.8219452
147.3070068 -28.9713173 66.1613617
145.8553009 -28.8928299 67.9289627
74.1570435 -29.8608532 63.7401695
148.6058350 -27.8754807 65.2807541
147.1391907 -27.7956467 67.1830521
145.6974487 -27.7234039 68.8618240
74.0851288 -28.6800003 64.5769730
148.4503479 -26.7055550 66.2698975
146.9902802 -26.6319618 68.0897675
145.5696411 -26.5672874 69.6756516
74.0093231 -27.5076885 65.3105698
72.9368362 -27.5983086 63.7915497
149.8193512 -25.6197987 65.1589737
148.2985077 -25.5388947 67.1795120
73.9594116 -26.3358040 66.0153427
72.8940277 -26.4179230 64.5233307
71.8171082 -26.5126324 62.9201355
149.6785278 -24.4571457 66.0388794
148.1684265 -24.3820686 67.9794083
73.8978043 -25.1713448 66.6532898
72.8370514 -25.2465744 65.2053909
71.7833557 -25.3277321 63.6566315
70.6884766 -25.4321766 61.9452591
151.0526581 -23.3794918 64.7417145
149.5425110 -23.2992935 66.8425827
148.0486603 -23.2315216 68.7061462
116.4492264 -22.7777367 85.3381195
115.2709961 -22.7862186 85.4473343
114.0801544 -22.7952309 85.5366898
112.9108276 -22.8038216 85.5837708
111.7810211 -22.8146362 85.5935211
110.6179276 -22.8252926 85.5901642
102.5768204 -22.9430637 84.7485886
101.4765472 -22.9629307 84.5279236
100.3512039 -22.9826241 84.2777481
99.2188721 -23.0016785 83.9988632
98.0516205 -23.0318451 83.6679382
96.9511337 -23.0624313 83.3212662
71.7237854 -24.1615505 64.2924118
70.6491547 -24.2506943 62.6156311
150.9231262 -22.2213306 65.5306091
149.4142151 -22.1465168 67.5745926
147.9641113 -22.0875244 69.3332138
116.3982239 -21.6707268 85.6686478
115.2212372 -21.6748505 85.7765808
114.0346985 -21.6789570 85.8709869
112.8634720 -21.6806297 85.9238281
111.7441559 -21.7000542 85.9240723
110.5699081 -21.7126331 85.9114838
102.5434036 -21.8199368 85.0781555
101.4305038 -21.8406925 84.8498383
100.2944870 -21.8686142 84.5940781
99.1702652 -21.8874149 84.3216553
98.0200119 -21.9083900 83.9993286
96.9188309 -21.9401855 83.6574020
71.6772003 -22.9957180 64.8895416
70.6005325 -23.0794182 63.2408791
150.7861481 -21.0648117 66.2702026
133.2730408 -20.6028252 81.0959778
132.0244598 -20.5900078 81.6972122
130.7668762 -20.5754166 82.2676392
129.5099487 -20.5625114 82.7902527
123.4524765 -20.5395641 84.7506104
122.2678604 -20.5418262 85.0232239
121.0700531 -20.5396042 85.2672348
119.8882904 -20.5435925 85.4935989
116.3477707 -20.5488586 85.9852448
115.1756897 -20.5600204 86.0952530
111.6913681 -20.5852852 86.2230072
110.5323792 -20.5930748 86.2097931
109.3719025 -20.6124592 86.1731796
108.2116394 -20.6197624 86.1187515
104.7934723 -20.6658325 85.7500076
103.6387558 -20.6855049 85.5807877
102.5052414 -20.7076702 85.3759995
101.3862686 -20.7288876 85.1425323
96.8807449 -20.8162479 83.9729004
93.5113373 -20.8976879 82.7677765
92.4082184 -20.9241924 82.3202744
91.3067932 -20.9603729 81.8356934
90.2032089 -20.9894943 81.3072891
89.0847092 -21.0231133 80.7318878
87.9439545 -21.0649338 80.1228790
71.6295471 -21.8361683 65.4278488
70.5643616 -21.9103813 63.8379250
69.5209808 -21.9922943 62.0833359
152.2532043 -20.0010262 64.6744003
150.6808929 -19.9193325 66.8943787
133.2136536 -19.4844131 81.4369736
129.4659119 -19.4531860 83.0971985
123.4021454 -19.4219837 85.0349503
122.2243652 -19.4251270 85.3020172
121.0218964 -19.4239731 85.5592651
119.8364868 -19.4233017 85.7868500
116.3036499 -19.4400520 86.2677765
111.6459808 -19.4721375 86.4975739
110.4891357 -19.4841442 86.4844589
109.3272095 -19.4945564 86.4476013
108.1692047 -19.5073013 86.3839722
104.7578049 -19.5557938 86.0244980
103.6130753 -19.5682545 85.8615417
102.4739532 -19.5896263 85.6569214
101.3551483 -19.6107407 85.4282761
96.8441010 -19.6980209 84.2541275
93.4777756 -19.7783432 83.0638123
92.3639679 -19.8073044 82.6131134
91.2802734 -19.8315258 82.1193848
90.1724548 -19.8828182 81.5556717
89.0577240 -19.8990326 81.0211945
87.9169846 -19.9372234 80.4389954
71.5782242 -20.6822243 65.8931885
70.5147476 -20.7541656 64.3285065
69.4683838 -20.8324699 62.6255264
152.1442566 -18.8524914 65.3000183
150.6111145 -18.7802525 67.4216614
133.1645203 -18.3679924 81.7306137
129.4219055 -18.3375988 83.3709488
123.3627548 -18.3183556 85.2852859
119.7955627 -18.3205948 86.0384750
118.6006699 -18.3236389 86.2250366
117.4414673 -18.3250961 86.3823395
116.2702408 -18.3325939 86.5062485
115.0963440 -18.3348999 86.6028290
113.9153442 -18.3491554 86.6729355
112.7564240 -18.3561668 86.7272491
109.3032761 -18.3890171 86.6901855
108.1373749 -18.4026089 86.6211624
107.0051346 -18.4116821 86.5349731
105.8645020 -18.4308243 86.4179077
104.7281342 -18.4402084 86.2676697
100.1897964 -18.5159836 85.4264069
99.0652008 -18.5392265 85.1556396
97.9116211 -18.5614624 84.8458710
96.8163834 -18.5828152 84.5048752
93.4417191 -18.6616898 83.3193741
89.0192795 -18.7765694 81.3032532
87.8981094 -18.8077431 80.7281342
69.4222336 -19.6727600 63.1042786
152.0249786 -17.7024384 65.8873596
150.5168762 -17.6384163 67.9381943
133.1322632 -17.2590866 81.9759140
131.8743134 -17.2470627 82.5630188
130.6325989 -17.2377186 83.1091309
129.3837585 -17.2274284 83.6161499
123.3243256 -17.2040062 85.5106659
119.7544098 -17.2096996 86.2644272
118.5662155 -17.2124557 86.4543228
117.4132919 -17.2200317 86.6056213
116.2325363 -17.2260780 86.7288818
115.0590363 -17.2299252 86.8257141
113.8824997 -17.2373810 86.9010010
112.7218246 -17.2451801 86.9569092
109.2712479 -17.2791023 86.9182968
108.1068039 -17.2864990 86.8540039
107.0018616 -17.3187656 86.8104935
97.8865204 -17.4479866 85.0699921
96.7843857 -17.4709816 84.7334900
93.4087906 -17.5462799 83.5505142
88.9986115 -17.6582165 81.5683060
87.8681946 -17.6901283 80.9705048
69.3747253 -18.5164776 63.5282364
151.9486389 -16.5643158 66.3572006
150.4499207 -16.5048752 68.3607025
123.2946014 -16.0974827 85.7141113
119.7351074 -16.1038227 86.4594574
118.5323334 -16.1064873 86.6584778
108.0740204 -16.1882935 87.0522308
97.8640442 -16.3354683 85.2873535
96.7688446 -16.3544655 84.9481201
95.6330414 -16.3859081 84.5652924
94.5234985 -16.4052505 84.1894226
93.3951874 -16.4284859 83.7668533
92.2824707 -16.4538422 83.3090515
88.9604874 -16.5404606 81.7943115
87.8275757 -16.5740814 81.1769485
69.3599701 -17.3593464 63.9261818
153.4331512 -15.4990139 64.5568695
151.8727112 -15.4286909 66.7693481
150.3718567 -15.3714457 68.7445221
123.2663956 -14.9948988 85.9039307
122.0850372 -14.9947996 86.1749344
120.8914490 -14.9993401 86.4188690
119.7101593 -15.0028324 86.6271896
108.0538788 -15.0769320 87.2081528
93.3655472 -15.3177109 83.9450607
92.2567902 -15.3403578 83.4892197
88.9322815 -15.4237700 81.9733810
87.8130493 -15.4524622 81.3714828
69.3346863 -16.2064495 64.2608337
153.3464203 -14.3581352 64.9657974
128.0752563 -13.9008169 84.6314240
126.8596497 -13.8970451 85.0404510
125.6694489 -13.8952875 85.4102325
124.4358444 -13.8939877 85.7537155
123.2382660 -13.8938322 86.0591888
122.0510864 -13.8909369 86.3401489
120.8517075 -13.8916225 86.5780487
119.6851349 -13.8988848 86.7752914
92.2379913 -14.2276630 83.6419754
88.9154739 -14.3059244 82.1268845
87.8005676 -14.3334990 81.5425415
69.3063507 -15.0580673 64.5405960
153.2915192 -13.2244596 65.2759094
128.0549469 -12.7968493 84.7614441
126.8344193 -12.7924032 85.1741257
88.9002533 -13.1913748 82.2689362
87.7718277 -13.2193432 81.6705322
69.2868271 -13.9122305 64.7648849
68.1862259 -13.9802456 63.0297661
153.2203522 -12.0910511 65.5452728
128.0358734 -11.6950989 84.8659439
126.8093033 -11.6904736 85.2819519
125.6161957 -11.6891413 85.6536331
124.3926544 -11.6882343 85.9918823
88.8752823 -12.0800133 82.3619308
87.7536469 -12.1059818 81.7729797
86.6756134 -12.1309223 81.1890259
85.5678253 -12.1602259 80.5491638
69.2702713 -12.7668209 64.9540405
68.1835861 -12.8299236 63.2483978
153.1905670 -10.9632483 65.7212219
128.0208588 -10.5925417 84.9453735
126.7960739 -10.5894365 85.3583374
125.5942078 -10.5883799 85.7213287
124.3852768 -10.5879116 86.0534668
86.6592941 -11.0170240 81.2704239
85.5543747 -11.0447855 80.6332779
69.2538147 -11.6240749 65.1082458
68.1667480 -11.6833744 63.4004364
153.1636963 -9.8373528 65.8547058
125.5851593 -9.4885483 85.7650146
124.3659058 -9.4885941 86.0998917
86.6501770 -9.9034424 81.3254318
85.5461884 -9.9295607 80.6932755
69.2280045 -10.4840355 65.1967163
68.1585464 -10.5391827 63.5064087
67.1135559 -10.5972071 61.7087059
66.0469055 -10.6628237 59.6653404
153.1349182 -8.7123928 65.9476013
125.5744247 -8.3898697 85.7866821
86.6424332 -8.7912989 81.3575516
85.5351410 -8.8159761 80.7259064
69.2277908 -9.3434267 65.2771530
68.1516342 -9.3963623 63.5811272
67.1107330 -9.4513674 61.7797241
66.0511169 -9.5131855 59.7390022
153.1448364 -7.5904760 65.9434280
125.5724640 -7.2915096 85.7847443
124.3559113 -7.2914147 86.1314697
86.6416626 -7.6789846 81.3692169
85.5289764 -7.7031226 80.7313461
67.1062012 -8.3069305 61.8180046
66.0378876 -8.3659973 59.7605667
153.1305389 -6.4688334 65.9285812
125.5614014 -6.1933851 85.7677155
124.3476486 -6.1940389 86.1021042
123.1589432 -6.1949716 86.3992615
91.0636215 -6.4859719 83.5168076
89.9576111 -6.5060987 83.0094299
88.8483429 -6.5259762 82.4855347
87.7189407 -6.5469375 81.9212723
86.6307831 -6.5682364 81.3399734
85.5296173 -6.5908985 80.7035370
67.0911255 -7.1645494 61.7806435
66.0465927 -7.2190323 59.7696457
153.1378937 -5.3487158 65.8363266
125.5700836 -5.0958586 85.7165222
124.3562164 -5.0967331 86.0442200
123.1603622 -5.0986171 86.3395386
91.0657272 -5.3793340 83.4813156
89.9383698 -5.3978696 82.9640656
88.8492432 -5.4171200 82.4508209
87.7228317 -5.4372663 81.8788605
86.6366730 -5.4579401 81.2867432
85.5264130 -5.4793200 80.6449738
84.4234772 -5.5015712 79.9763260
83.3189545 -5.5249166 79.2666626
67.1015778 -6.0222187 61.7302475
66.0414581 -6.0741434 59.6890907
153.1581726 -4.2296019 65.6794891
125.5634689 -3.9999335 85.6395950
124.3614807 -3.9996214 85.9643555
88.8445740 -4.3089705 82.3793869
87.7187958 -4.3278809 81.7960739
86.6268768 -4.3473420 81.1993713
85.5322571 -4.3684268 80.5680923
84.4312973 -4.3892894 79.8985519
83.3192062 -4.4112463 79.1831741
67.0935364 -4.8815207 61.5934792
66.0541992 -4.9292383 59.6002274
153.1982117 -3.1099944 65.4685287
125.5803452 -2.9024127 85.5268250
124.3618011 -2.9039185 85.8596725
88.8550415 -3.2013073 82.2748871
87.7261810 -3.2187116 81.6952438
84.4316025 -3.2769380 79.7888412
83.3263550 -3.2980971 79.0776443
67.1056824 -3.7405820 61.4479942
153.2468262 -1.9901549 65.2038651
125.5892563 -1.8062474 85.3945770
124.3712921 -1.8083934 85.7284546
123.1939545 -1.8102698 86.0116959
89.9577179 -2.0758801 82.6753387
88.8546066 -2.0936418 82.1449509
87.7353210 -2.1095734 81.5723038
84.4384918 -2.1657827 79.6594162
83.3306732 -2.1844192 78.9463196
67.1204376 -2.6002655 61.2522240
153.2920685 -0.8712049 64.8875275
151.7608490 -0.8490289 67.0009613
150.2491913 -0.8271674 68.9463348
125.6019897 -0.7095133 85.2360001
124.3913422 -0.7112519 85.5774231
91.0905457 -0.9552547 83.0325089
89.9781036 -0.9718027 82.5315704
86.6593323 -1.0178165 80.8262329
85.5400085 -1.0343254 80.1729279
84.4443054 -1.0528753 79.5027771
83.3443604 -1.0713305 78.7904053
69.2426834 -1.3889234 64.5514832
68.1683273 -1.4236783 62.8194504
67.1389389 -1.4622512 60.9804077
153.3667603 0.2495418 64.4936905
151.8126068 0.2668177 66.6381226
150.2949066 0.2866031 68.6095886
125.6268311 0.3869060 85.0484161
124.4083176 0.3849314 85.4065247
119.6537018 0.3733735 86.4364319
91.1051636 0.1496525 82.8549347
89.9741058 0.1379069 82.3447189
86.6689148 0.0912227 80.6373138
85.5636444 0.0744416 79.9945068
84.4682617 0.0577166 79.3228302
83.3487778 0.0417123 78.5906219
69.2601700 -0.2543479 64.2795639
68.1959229 -0.2873597 62.5147858
151.8790588 1.3821959 66.2057037
150.3578796 1.3996530 68.2128830
125.6486359 1.4825808 84.8318939
124.4259872 1.4795878 85.1947479
120.8472595 1.4700662 86.0201569
119.6704407 1.4664648 86.2377625
97.8011475 1.3233539 85.0336075
93.3345642 1.2810187 83.5639420
92.2090302 1.2701552 83.1129990
91.1119690 1.2558542 82.6436768
89.9958954 1.2406924 82.1362000
69.2752075 0.8802762 63.9402466
68.2247314 0.8468730 62.1603012
151.9449768 2.4989524 65.7202988
150.4284668 2.5144424 67.7615891
125.6794281 2.5813851 84.5876160
124.4603271 2.5770798 84.9471588
123.2641373 2.5757823 85.2591019
122.0673828 2.5690343 85.5390778
120.8695831 2.5688593 85.7895813
119.6879272 2.5613956 86.0091934
118.5055542 2.5588040 86.1992950
110.3398666 2.5187013 86.6975403
109.1967468 2.5132620 86.6591415
97.8202744 2.4264216 84.8406754
91.1220016 2.3630943 82.4070435
90.0108109 2.3507218 81.8964081
69.2912292 2.0157156 63.5609932
68.2223969 1.9886208 61.7729797
67.1694870 1.9647251 59.8768272
