73.9467926 29.7716217 70.9437943
-89.2102737 31.7178059 -20.5785961
-90.3235626 31.7140999 -18.6050625
-91.4477158 31.6560097 -16.8984299
-92.5597076 31.6118946 -15.4048223
-93.7212753 31.5898781 -14.0090714
-94.8825455 31.5469131 -12.8202982
-131.4472809 31.3998547 -8.0825415
-132.8239441 31.4252720 -8.9334230
-134.2571411 31.4491253 -9.9442320
152.3627930 30.9290524 73.3505402
150.8429718 30.8669624 75.3333054
149.4152679 30.8313351 77.0510178
76.0824890 30.8462276 73.3731079
75.0222626 30.8832302 71.8074341
73.9914932 30.9231987 70.1534882
-88.9521637 32.9684868 -17.6455383
-90.0616913 32.9072495 -15.9887753
-133.9546814 32.6608391 -7.6968765
-135.3562927 32.7003784 -8.6659012
-136.8269501 32.7091293 -9.8286991
152.5552979 32.0727654 72.2570572
151.0030518 32.0006332 74.3448181
149.5505676 31.9581013 76.1731186
76.1384430 31.9891262 72.6185150
75.0919342 32.0296936 71.0223923
-86.4879608 34.2723083 -18.9076252
-87.5821686 34.2248192 -16.9795399
-88.7143707 34.1746979 -15.2182770
-89.8423767 34.1350098 -13.6799202
-133.6862183 33.8822136 -5.7022099
-135.0693665 33.9157600 -6.5835958
-136.5058441 33.9421959 -7.6236973
-137.9531250 33.9448853 -8.7407236
151.1736145 33.1417313 73.2639313
149.6937256 33.0885887 75.2020493
76.2053604 33.1360168 71.8069153
75.1532059 33.1843033 70.1461487
-85.1534958 35.5450859 -18.4121971
-86.2569199 35.4936142 -16.4186611
-87.3668442 35.4412651 -14.6719780
-136.2286682 35.1668434 -5.6622958
-137.6454315 35.1967506 -6.6971779
-139.0855713 35.2318268 -7.8881083
151.3749084 34.2925186 72.0612030
149.8624878 34.2262039 74.1176376
76.2721786 34.2884941 70.9119720
-83.8442383 36.8297882 -18.0902214
-84.9456406 36.7718964 -16.0270252
-86.0575867 36.7101097 -14.2564249
-87.1867065 36.6623383 -12.6672163
-135.9982605 36.3792992 -3.9223671
-137.3899231 36.4117355 -4.8695812
-138.8140259 36.4578247 -5.9561119
-140.2543640 36.5011940 -7.1355305
150.0787506 35.3904343 72.9313431
148.5552673 35.3096466 74.8557434
147.1252747 35.2641678 76.5175171
78.4311447 35.3519974 73.0324783
77.3784866 35.3998489 71.5410004
76.3529892 35.4460335 69.9459305
75.2860870 35.5158997 68.1406097
-82.5468292 38.1069908 -17.9575634
-83.6364594 38.0389099 -15.8753862
-84.7577362 37.9840927 -14.0006027
-138.5658417 37.6668968 -4.1972847
-140.0028229 37.7064629 -5.3093405
-141.4686127 37.7443466 -6.5594492
-142.9934692 37.7557220 -7.9765601
148.7554169 36.4626656 73.6434402
147.2967072 36.4034271 75.4140549
78.4998779 36.5095634 72.0717926
77.4611282 36.5540237 70.5344620
-81.2632980 39.3952408 -17.9749279
-82.3667297 39.3223419 -15.7996683
-83.4706650 39.2584648 -13.9038534
-84.5972519 39.1974068 -12.2168198
-138.3386841 38.8906555 -2.6083262
-139.7688293 38.9214935 -3.6524973
-141.2182922 38.9656372 -4.8208981
-142.6872559 39.0064812 -6.1196561
-144.1894531 39.0252647 -7.5455351
148.9734955 37.6256104 72.3284836
147.4813385 37.5548286 74.2176208
78.5788116 37.6661453 71.0267487
-80.0000916 40.6879616 -18.1814766
-81.0815811 40.6087837 -15.9356766
-82.2118835 40.5406494 -13.9062157
-143.8997803 40.2735786 -5.7858267
147.6971588 38.7082024 72.9030228
78.6856689 38.8269005 69.9144440
-78.7547913 41.9799500 -18.5460281
-79.8394165 41.8975677 -16.1772709
-80.9263916 41.8221321 -14.1343536
-82.0666351 41.7616577 -12.2416439
-143.6712189 41.4948578 -4.2003365
-145.1897888 41.5314407 -5.6277251
147.9503326 39.8996315 71.3238754
146.4301605 39.8051910 73.2427444
145.0363007 39.7519646 74.8721619
80.8608704 39.8941574 71.7518539
79.8081207 39.9498787 70.2723312
78.7811890 40.0073853 68.6825485
-77.5101624 43.2800179 -19.1167278
-78.5867996 43.1946182 -16.6204605
-79.6817474 43.1110229 -14.4478559
-143.4480133 42.7181511 -2.7413552
-144.9364014 42.7730751 -4.1023159
146.6700897 40.9716415 71.7024841
145.2469788 40.9134598 73.4617767
80.9570618 41.0649147 70.5442429
-76.2691650 44.5870361 -19.8738213
-77.3661728 44.5009346 -17.1811523
-78.4479065 44.4123802 -14.8917809
-79.5631104 44.3340263 -12.8572922
-143.2752991 43.9325943 -1.4433639
-144.7337036 43.9834290 -2.6921520
-146.2313843 44.0297165 -4.0845757
146.9960785 42.1962242 69.9531174
145.5089417 42.1016617 71.8889313
144.0179901 42.0086670 73.6599655
142.6437531 41.9632339 75.1040192
85.2885056 42.0364113 74.5129547
84.2344513 42.0773163 73.3645477
83.1663208 42.1323929 72.0888596
82.1257782 42.1842499 70.7344131
81.0729218 42.2453156 69.2251892
-76.1152039 45.8004570 -18.0015182
-77.2278748 45.7131004 -15.4960155
-78.3156281 45.6258316 -13.3972616
-79.4418182 45.5515709 -11.4662228
-146.0219116 45.2633324 -2.7507973
-147.5663452 45.3059044 -4.2489133
144.3019409 43.2168198 72.0194244
142.8515167 43.1251678 73.6303558
85.3912506 43.2054405 73.3262558
84.3477936 43.2463531 72.1462708
83.2702866 43.3097916 70.7822418
82.2412186 43.3648643 69.3705368
-77.0962219 46.9263878 -14.0093203
-78.2123871 46.8476334 -12.0039673
-79.3495026 46.7759171 -10.1694756
-145.8303833 46.4852333 -1.5236646
-147.3693848 46.5349426 -2.9680331
143.0987854 44.3034286 71.9624863
141.6784363 44.2496567 73.5087280
140.3201904 44.1996994 74.8634186
85.5053101 44.3788528 72.0461349
84.4669266 44.4271507 70.7954636
-78.1046906 48.0679398 -10.7700472
-79.2461853 47.9990692 -9.0344858
-145.6708984 47.7079582 -0.4033923
-147.1701202 47.7655640 -1.7628429
-148.6884766 47.8105011 -3.2149637
143.4052734 45.5254211 70.0760498
141.9344788 45.4278870 71.8049240
140.5346069 45.3647003 73.2979965
85.6302185 45.5663261 70.6376724
84.5911407 45.6219025 69.2864609
-78.0105438 49.2920456 -9.6736565
-79.1607208 49.2214928 -7.9846802
-145.5153656 48.9304428 0.6292238
-147.0029602 48.9906273 -0.6775144
-148.4910889 49.0498657 -2.0857012
142.2606964 46.6521568 69.7942886
140.8165283 46.5614662 71.4519577
139.4238892 46.5030365 72.9093857
138.0482788 46.4441414 74.2274780
87.8960266 46.6383553 71.6521301
86.8227997 46.7011375 70.4150238
85.7698288 46.7601395 69.0878601
84.7378769 46.8230705 67.6456757
-77.9313660 50.5194550 -8.6678638
-79.0882263 50.4503174 -7.0078626
-148.3211975 50.2801361 -1.0408809
141.1497498 47.8062248 69.3944321
139.7066345 47.6921349 71.0304947
138.3029633 47.6339798 72.4609985
88.0338669 47.8354149 70.0922623
86.9776382 47.8990631 68.7908173
85.9206085 47.9713974 67.3511810
-76.7985001 51.8038177 -9.2351789
-77.8609467 51.7454453 -7.7234941
-79.0184326 51.6749001 -6.1256342
-148.1801758 51.5027008 -0.0812976
138.5898132 48.8354568 70.4685669
137.2066345 48.7772789 71.8545151
135.8576508 48.7259979 73.0644226
90.3116302 48.9299278 70.7699356
89.2438583 48.9861259 69.6093216
88.1951828 49.0442657 68.3567505
87.1477966 49.1109962 66.9632721
-76.7401047 53.0330772 -8.2579880
-96.5546417 52.2558746 8.6427889
-97.7710419 52.2304459 9.1827574
-98.9588089 52.2122612 9.6768665
-100.1813660 52.1928177 10.1352167
-148.0682068 52.7268867 0.7756027
-149.5470276 52.7977142 -0.6137381
138.9689636 50.1070862 68.1900330
137.5331573 50.0077209 69.7355728
136.1316528 49.9323807 71.0926361
90.4801254 50.1359634 69.0359573
89.4243774 50.2009735 67.7735138
88.3732910 50.2680168 66.4083252
-76.6756744 54.2434502 -7.4789362
-96.5071259 53.4744644 9.2026215
-100.1160583 53.4073868 10.6634035
-147.9429169 53.9573631 1.5763650
-149.4194336 54.0290604 0.2126664
136.4847260 51.1808777 68.8065262
135.1075745 51.0925446 70.1581116
133.7321167 51.0285149 71.3864059
132.4242096 50.9956055 72.3872375
131.1156311 50.9585609 73.2947769
94.9473114 51.1318665 71.4036255
93.8481979 51.1910934 70.4473267
92.7962875 51.2382889 69.4541092
91.7144623 51.3005638 68.2980957
90.6697617 51.3584442 67.0723724
89.6101456 51.4471474 65.6845474
-76.5855560 55.4764175 -6.8109879
-77.6884537 55.4326096 -5.3589044
-78.8396301 55.3558617 -3.8671746
-96.4537354 54.6946411 9.7143364
-100.0715256 54.6296692 11.1541443
-113.5071106 54.5169029 13.8964291
-114.7435684 54.5158882 13.9474134
-115.9971466 54.5200920 13.9664516
-117.2478485 54.5276413 13.9630089
-147.8263245 55.1858559 2.3152921
-149.3043823 55.2577286 0.9839010
-150.8166656 55.3379021 -0.5066860
-152.3472900 55.4207954 -2.1372204
135.5036316 52.3777237 67.6661453
134.0718536 52.2738876 69.0499954
132.7149963 52.2197037 70.2399521
131.3866425 52.1681595 71.2811661
95.1248932 52.3524437 69.5624847
94.0404663 52.4083557 68.5432510
92.9915161 52.4668083 67.4381332
91.9267120 52.5336342 66.1836700
90.8746033 52.6255112 64.8348770
-76.5340042 56.7228317 -6.1040649
-77.6360703 56.6592903 -4.6861944
-78.7807770 56.5827179 -3.2452102
-96.4135895 55.9201202 10.1772871
-97.6268616 55.8952141 10.7079763
-98.8197098 55.8764572 11.1733141
-100.0253067 55.8498917 11.6088181
-113.4499664 55.7432632 14.3492126
-114.6978760 55.7419624 14.3992491
-115.9360733 55.7427711 14.4178972
-117.2062531 55.7430191 14.4093513
-147.7193298 56.4173927 2.9911704
-149.2019196 56.4883080 1.6802022
-150.7011108 56.5699959 0.2347396
-152.2208557 56.6563034 -1.3512440
133.1034851 53.4927139 67.7929688
131.7216339 53.4036751 68.9494400
130.4031525 53.3470001 69.9906006
129.1088257 53.3136902 70.8866882
127.8063812 53.2752151 71.6873932
126.5505600 53.2521667 72.3383331
97.5037231 53.4812927 69.4070358
96.4111404 53.5263748 68.5030975
95.3367004 53.5891037 67.4772720
94.2605743 53.6496544 66.3402786
-77.5866852 57.8886909 -4.0862455
-78.7413635 57.8152618 -2.6569977
-108.4910736 56.9793396 14.2130537
-109.7083969 56.9689941 14.3891582
-110.9462967 56.9663200 14.5478172
-112.1679459 56.9584579 14.6760883
-113.4094391 56.9592209 14.7661428
-117.1544647 56.9617615 14.8240299
-150.5911713 57.8022690 0.9124243
-152.0942535 57.8911171 -0.6303239
132.1215820 54.7156906 66.1600952
130.7636414 54.6169128 67.3906937
129.4370117 54.5470810 68.4421997
128.1170044 54.5063591 69.3715515
126.8361206 54.4826279 70.1376495
97.7285309 54.7254028 67.2042847
96.6397324 54.7840500 66.1713409
95.5845566 54.8485565 65.0642319
-77.5516968 59.1217728 -3.5494847
-78.7047806 59.0457420 -2.1388631
-108.4484024 58.1963806 14.5887871
-109.6611176 58.1899490 14.7672720
-112.1215668 58.1619797 15.0805597
-113.3691406 58.1736374 15.1530228
-117.1035995 58.1851540 15.2169409
-150.5330811 59.0358963 1.4785937
-152.0101776 59.1267052 -0.0111260
-153.5958557 59.2173233 -1.7148821
127.2023010 55.7559357 67.5887299
125.8933258 55.6936760 68.3772583
124.6434784 55.6650772 69.0589371
123.3760529 55.6454086 69.6291962
122.1354218 55.6189270 70.1170654
120.8965378 55.6004524 70.5247955
119.6818542 55.5889206 70.8557434
104.5557938 55.7216568 69.2720566
103.4473724 55.7532310 68.7263718
102.3343048 55.7967987 68.0751495
101.2478485 55.8337135 67.3739471
100.1470261 55.8892021 66.5361786
99.0679626 55.9290695 65.6630173
97.9906769 55.9981461 64.6366730
96.9084167 56.0966606 63.4614029
-75.2424469 60.5158348 -6.0179081
-76.3733063 60.4352760 -4.5467696
-77.5075455 60.3556366 -3.0835724
-78.6733322 60.2784271 -1.6716369
-101.1043243 59.4925995 13.1915388
-102.3244629 59.4821625 13.5697460
-103.5238647 59.4623566 13.9028158
-104.7456741 59.4459152 14.2086172
-105.9725647 59.4325447 14.4918652
-107.1714401 59.4294739 14.7325544
-108.4082642 59.4163513 14.9350634
-113.3148499 59.4030151 15.4968081
-114.5643616 59.4002075 15.5506039
-115.8078690 59.4035988 15.5764523
-117.0596313 59.4090462 15.5706844
-118.3066101 59.4131126 15.5328674
-119.5717239 59.4215393 15.4716377
-120.8215866 59.4291954 15.3787804
-122.0933304 59.4426651 15.2442150
-150.4478455 60.2734070 2.0233512
-151.9285126 60.3637924 0.5533800
126.2975616 56.9838715 65.4072266
125.0152130 56.9227600 66.2389526
123.7152100 56.8970566 66.9551926
122.4662476 56.8807259 67.5236511
121.2091141 56.8533325 68.0314865
119.9899368 56.8332253 68.4367218
104.8210831 56.9887390 66.8362579
103.7301483 57.0241699 66.2367249
102.6148834 57.0696945 65.4971161
101.5290756 57.1118851 64.6740112
100.4393311 57.1709251 63.7542801
-75.1673279 61.7541046 -5.6395712
-76.3481140 61.6754417 -4.0987520
-77.4842529 61.5926323 -2.6355023
-78.6414337 61.5138168 -1.2452998
-101.0752792 60.7201424 13.5060129
-102.2871857 60.7004662 13.8779621
-103.5051117 60.6873627 14.2235632
-104.7121124 60.6730881 14.5286694
-108.3752365 60.6414375 15.2611284
-113.2977600 60.6229820 15.7980213
-114.5418625 60.6226578 15.8554649
-115.7800980 60.6260109 15.8840799
-117.0343170 60.6303558 15.8851109
-120.7740479 60.6534042 15.7012987
-122.0649490 60.6644592 15.5587664
-150.3631287 61.5112534 2.5159760
-151.8492279 61.6022568 1.0613668
-153.4160767 61.6998100 -0.5890735
125.5037003 58.3158531 62.6519852
124.1768188 58.2724838 63.6076279
121.6034088 58.1579590 65.0056915
120.3623199 58.1182480 65.4909058
119.1319199 58.0981216 65.8724060
117.9050217 58.0952492 66.1437378
116.7007980 58.0928879 66.3326797
115.4921417 58.0924568 66.4696121
114.3259354 58.0878410 66.5447540
113.1422958 58.1048050 66.4716873
111.9771194 58.1152306 66.3378601
110.8089981 58.1310387 66.1406631
109.6660233 58.1472015 65.8947906
108.5293121 58.1727905 65.5458603
107.3774109 58.2118721 65.0849075
106.2645264 58.2460022 64.5528717
105.1445465 58.2871780 63.9251175
102.9626007 58.3535538 62.3752670
-75.1485214 62.9988976 -5.2730680
-76.3143005 62.9120140 -3.7085426
-93.8650665 62.0948486 10.8890581
-95.0637207 62.0647202 11.4600945
-96.2464142 62.0383263 11.9875526
-97.4558945 62.0089531 12.4957590
-101.0536652 61.9446106 13.7944803
-104.6843491 61.8940582 14.8046637
-108.3474350 61.8621407 15.5514059
-109.5685272 61.8574371 15.7152691
-110.8006058 61.8517227 15.8638992
-112.0303726 61.8452721 15.9876804
-113.2635269 61.8488770 16.0845509
-114.5025940 61.8488274 16.1503754
-115.7452393 61.8480072 16.1758881
-116.9991074 61.8528175 16.1769981
-120.7619553 61.8745575 15.9855051
-122.0336914 61.8870773 15.8439331
-153.3431396 62.9450645 -0.1339275
119.6096039 59.4993401 62.2484970
118.3452454 59.4584618 62.6740417
117.1319275 59.4145966 62.9209023
115.9091873 59.4030037 63.1206665
114.7350006 59.4064331 63.2189636
113.5400696 59.4118690 63.1879120
112.3650665 59.4282799 63.0366058
111.2044067 59.4437943 62.8381729
110.0729218 59.4601059 62.5546417
-75.1406326 64.2450180 -4.9113832
-76.2938538 64.1519241 -3.3386943
-93.8433228 63.3224716 11.1496830
-97.4408875 63.2375183 12.7547398
-101.0307465 63.1672440 14.0478535
-104.6688309 63.1196671 15.0540199
-105.8854141 63.1065826 15.3328323
-107.0913544 63.0973053 15.5949926
-108.3150558 63.0880013 15.8003139
-116.9681702 63.0791397 16.4254780
-118.2008667 63.0842514 16.4046135
-119.4738770 63.0899162 16.3452492
-120.7206726 63.1020660 16.2455826
-122.0002213 63.1150093 16.1079597
-153.2688904 64.1895294 0.2915849
-154.8274384 64.2993622 -1.4524834
-75.1163330 65.4888306 -4.5980272
-76.2614822 65.3932953 -3.0364397
-93.8243408 64.5504837 11.3754864
-97.4212494 64.4642029 12.9821510
-101.0204773 64.3960037 14.2799406
-102.2174988 64.3758469 14.6496000
-103.4331589 64.3610916 14.9846458
-104.6417160 64.3459473 15.2768898
-105.8653259 64.3310852 15.5627375
-107.0746002 64.3214722 15.8204060
-108.3067245 64.3110657 16.0228310
-116.9614410 64.3020935 16.6414871
-118.1847076 64.3090439 16.6194534
-119.4463806 64.3181686 16.5683308
-120.7025833 64.3273087 16.4747066
-121.9730835 64.3413544 16.3347034
-123.2431412 64.3547745 16.1709766
-124.5103607 64.3725128 15.9823227
-153.2090454 65.4362488 0.6599283
-154.7565308 65.5468903 -1.0419564
-75.0980377 66.7332153 -4.3235760
-76.2502289 66.6382523 -2.7788463
-93.8122253 65.7812729 11.5854597
-97.4035339 65.6913986 13.1846380
-100.9985733 65.6230240 14.4815235
-102.2033539 65.6034393 14.8490582
-103.4168243 65.5865326 15.1710911
-120.6802521 65.5546265 16.6771698
-121.9570313 65.5684052 16.5314636
-123.2123871 65.5847855 16.3694363
-124.4956665 65.6009521 16.1761494
-153.1620941 66.6852264 0.9563450
-73.9585648 68.0861511 -5.7643046
-93.7978058 67.0129776 11.7518263
-97.3851776 66.9224091 13.3413944
-98.5723419 66.8972473 13.7932167
-99.7865524 66.8737183 14.2297783
-103.3993683 66.8154984 15.3280325
-123.1924896 66.8140259 16.5352783
-124.4749527 66.8314056 16.3423309
-125.7559662 66.8515549 16.1153526
-127.0380859 66.8737564 15.8531761
-153.1443329 67.9393158 1.1686375
-73.9488525 69.3371277 -5.5796022
-93.7942047 68.2465591 11.8856592
-94.9856262 68.2120209 12.4631290
-96.1729279 68.1828537 12.9797573
-99.7802200 68.1046219 14.3599463
-120.6511841 68.0163651 16.9510460
-121.9292145 68.0297470 16.8261757
-123.1876526 68.0450439 16.6740837
-124.4523773 68.0631256 16.4858208
-125.7324677 68.0840912 16.2547760
-127.0234375 68.1067505 15.9904995
-153.1266937 69.1963577 1.3391595
-154.6436005 69.3140488 -0.3283685
-72.7864380 70.7121582 -7.2804899
-73.9465637 70.5923538 -5.4578657
-91.4156647 69.5569611 10.7351847
-92.6012726 69.5183411 11.3771248
-93.7942810 69.4811096 11.9977179
-94.9804535 69.4470444 12.5674915
-96.1652145 69.4167099 13.0817928
-125.7291641 69.3182907 16.3541222
-127.0214920 69.3421326 16.0881023
-153.1103210 70.4552002 1.4632976
-154.6318665 70.5766068 -0.2121357
-71.6893616 72.1036224 -9.1425982
-72.8146820 71.9718323 -7.1882901
-73.9446564 71.8523941 -5.4031482
-91.4049072 70.7971039 10.7922478
-92.5858765 70.7570038 11.4374533
-93.7860260 70.7182617 12.0650387
-97.3803864 70.6235046 13.6421671
-125.7312469 70.5550842 16.4182014
-127.0086517 70.5790024 16.1583939
-153.0958862 71.7173843 1.5373039
-154.6301727 71.8425598 -0.1518922
-70.5689468 73.5240936 -11.3094158
-71.6835327 73.3752136 -9.1748228
-91.4164124 72.0361710 10.8391342
-96.1625671 71.8906250 13.1752472
-97.3825989 71.8601837 13.6828976
-124.4624329 71.7602844 16.6892548
-125.7330017 71.7934113 16.4593658
-127.0068359 71.8171387 16.2022972
-153.1145935 72.9858551 1.5265679
-154.6320190 73.1119461 -0.1472879
-69.4791946 74.9748154 -13.7868938
-70.5906067 74.7985535 -11.3720646
-71.7013779 74.6455841 -9.2056971
-91.4158554 73.2787857 10.8440418
-97.3857117 73.0988464 13.7004299
-103.3831253 72.9827576 15.7012510
-125.7313156 73.0337372 16.4682636
-127.0147247 73.0590439 16.2070007
-153.1272736 74.2570343 1.4762220
-154.6542969 74.3875961 -0.2160092
-68.4718246 76.4612045 -16.8146133
-69.5108337 76.2585907 -13.9990902
-91.4189682 74.5263748 10.8057041
-92.6197510 74.4827423 11.4398384
-96.1784744 74.3753204 13.1488209
-97.3920059 74.3396149 13.6768160
-107.0405273 74.1825409 16.4800529
-124.4617844 74.2526245 16.6764164
-125.7365417 74.2760468 16.4436054
-127.0275497 74.3036652 16.1763611
-153.1430054 75.5316238 1.3814833
-68.4638977 77.7685471 -17.1421204
-69.5375214 77.5531769 -14.2549706
-91.4372330 75.7699661 10.7539921
-92.6176071 75.7296600 11.3955441
-93.8101501 75.6900635 12.0056324
-95.0123749 75.6503601 12.5783653
-96.1782532 75.6210327 13.1030121
-97.4001770 75.5857773 13.6140747
-98.5839157 75.5628510 14.0577564
-105.8416824 75.4341812 16.1825256
-107.0522079 75.4221344 16.4315720
-119.4131622 75.4278946 17.1859112
-120.6669540 75.4472809 17.1157455
-123.2068710 75.4917908 16.8232327
-124.4774475 75.4985199 16.6137772
-125.7608566 75.5229416 16.3810768
-127.0371704 75.5474701 16.1254120
-153.1707611 76.8105469 1.2272742
-68.4796448 79.0788116 -17.5138855
-69.5699234 78.8512573 -14.5571632
-98.5987701 76.8015594 13.9986973
-99.8118057 76.7745514 14.4368849
-119.4409256 76.6756516 17.0943203
-120.6847382 76.6890717 16.9987297
-121.9506531 76.7038574 16.8801479
-123.2197418 76.7243958 16.7182503
-124.4989853 76.7463074 16.5156231
-153.2126160 78.0958862 1.0067194
-68.5274200 80.3926544 -17.9373817
-69.6111526 80.1554184 -14.9298801
-98.6151657 78.0517578 13.8779926
-109.5236206 77.8979187 16.6428928
-119.4636765 77.9198990 16.9630470
-120.7037811 77.9348145 16.8840446
-121.9873886 77.9520416 16.7653427
-123.2451782 77.9754944 16.5977707
-124.5169144 77.9967270 16.4003887
-153.2606201 79.3858643 0.7284189
-69.6493759 81.4693909 -15.4080582
-70.7326508 81.2600479 -12.6969299
-71.8121948 81.0809174 -10.3726387
-98.6340103 79.3052979 13.7240524
-99.8462677 79.2729416 14.1846485
-101.0406799 79.2479630 14.5877666
-102.2560883 79.2300110 14.9280109
-103.4627838 79.2101517 15.2563992
-104.6787567 79.1868210 15.5858774
-109.5534439 79.1447067 16.4842052
-110.7883072 79.1392441 16.6408672
-112.0026627 79.1322327 16.7557526
-113.2510071 79.1363525 16.8408184
-114.4869156 79.1396027 16.9368248
-121.9964142 79.2011948 16.6311913
-150.3029938 80.4182205 3.4755368
-151.7841644 80.5411530 2.0211940
-153.3416443 80.6866150 0.3636581
-69.6872559 82.7968979 -16.0014343
-70.7740707 82.5747833 -13.2095203
-71.8521118 82.3898697 -10.8298798
-98.6709900 80.5593719 13.5499763
-99.8707581 80.5321198 13.9937134
-101.0710068 80.4985733 14.3854332
-102.2801819 80.4844818 14.7412415
-103.4888687 80.4643860 15.0899248
-104.6889801 80.4422531 15.4126472
-109.5719528 80.3938370 16.3199406
-110.8162537 80.3921814 16.4698677
-112.0459747 80.3942490 16.5757256
-113.2765808 80.3876648 16.6694565
-114.5145111 80.3933105 16.7582779
-118.2389374 80.4132996 16.7279491
-122.0370255 80.4590378 16.4401340
-150.3567047 81.7112427 3.1274586
-151.8622284 81.8407440 1.6264870
-153.4255066 81.9934082 -0.0497493
-70.8228149 83.8953018 -13.7781811
-71.8984680 83.7036667 -11.3485317
-103.5113525 81.7126312 14.8925800
-104.7220306 81.6973343 15.1992750
-105.9512482 81.6812057 15.4861221
-107.1543655 81.6702881 15.7209044
-108.3837814 81.6626511 15.9319935
-109.5982666 81.6491394 16.1201801
-113.3008499 81.6434784 16.4690685
-114.5417175 81.6478043 16.5344887
-115.7896881 81.6508789 16.5633507
-117.0381775 81.6585312 16.5646763
-118.2725525 81.6682892 16.5276451
-119.5321426 81.6791534 16.4587727
-120.7892838 81.6993790 16.3556633
-122.0765305 81.7185364 16.2112942
-150.4148865 83.0058289 2.7305975
-151.9241333 83.1436157 1.2043276
-70.8722839 85.2343063 -14.5008984
-71.9529724 85.0226669 -11.9400749
-103.5471649 82.9803467 14.6459923
-104.7571716 82.9618530 14.9560909
-105.9789124 82.9412003 15.2441072
-107.1916580 82.9284210 15.4826021
-108.4226456 82.9183502 15.6984272
-109.6420898 82.9122467 15.8756752
-113.3305206 82.9005280 16.2414284
-114.5781403 82.9044113 16.2939644
-115.8165283 82.9138794 16.3218193
-117.0748520 82.9171982 16.3216114
-118.3178253 82.9327393 16.2811623
-119.5861588 82.9457092 16.2108364
-120.8294907 82.9596405 16.1063919
-122.1222687 82.9873352 15.9544554
-150.5000610 84.3155289 2.2461414
-152.0039825 84.4533463 0.6908957
-70.9404602 86.5732193 -15.2491884
-72.0139618 86.3545914 -12.6430740
-150.6085663 85.6310425 1.6783082
-152.1295929 85.7798309 0.0756706
-72.0772781 87.7010040 -13.4747562
-150.6982269 86.9478149 1.0736707
-72.1455841 89.0596619 -14.3994646
-73.2543640 88.8320236 -11.8219509
-74.3467484 88.6532288 -9.6205139
-147.8188324 87.9999390 3.3193812
-149.3005829 88.1321411 1.9259233
-150.7988892 88.2713242 0.3698348
-72.2210083 90.4356689 -15.4417248
-73.3204269 90.1948853 -12.7975397
-74.4267807 89.9938431 -10.4488363
-147.9155884 89.3221359 2.6521921
-149.4182739 89.4593964 1.1822464
-150.9559784 89.6321716 -0.5321610
-73.4134140 91.5615997 -13.8423538
-74.5100098 91.3506622 -11.3972244
-148.0473938 90.6583481 1.8816409
-149.5409241 90.8037949 0.3478656
-73.4813309 92.9656143 -15.0765591
-74.6033096 92.7197876 -12.4763851
-148.1792755 92.0012970 1.0370802
-149.6905060 92.1575928 -0.5698411
-74.7042465 94.1052704 -13.6880064
-75.7710800 93.8991318 -11.3544054
-76.8798981 93.7123260 -9.2288609
-145.3581543 93.0740280 2.8845649
-146.8436127 93.2115250 1.5597303
-148.3183746 93.3538132 0.1084104
-74.7977066 95.5258102 -15.0809231
-75.8823929 95.2819443 -12.5664501
-76.9840698 95.0806503 -10.3245716
-145.5167084 94.4284821 1.9586198
-146.9985657 94.5700531 0.5821636
-148.5050049 94.7310333 -0.9624021
-75.9938507 96.6983871 -13.9444084
-77.0959702 96.4685440 -11.5712261
-78.1802979 96.2859650 -9.5235052
-79.3135147 96.1103058 -7.6230750
-142.7676086 95.5287857 3.4030347
-144.2293091 95.6606293 2.2183862
-145.6767731 95.7931824 0.9410802
-147.1798553 95.9487915 -0.5179698
-77.2078476 97.8865662 -12.9676905
-78.2996902 97.6790314 -10.8041296
-79.4170380 97.4909439 -8.7982674
-142.9122620 96.8866577 2.4147930
-144.3914185 97.0276031 1.1634432
-145.8488770 97.1711426 -0.1791507
-78.4258194 99.0909576 -12.2588310
-79.5372162 98.8871155 -10.1115198
-143.0898438 98.2710724 1.2965513
-144.5805511 98.4167480 -0.0246436
-78.5642166 100.5430756 -13.9297476
-79.6729889 100.3135910 -11.6249256
-143.2674408 99.6537018 0.0838510
-78.6919785 102.0437775 -15.8684568
-79.8298798 101.7504730 -13.3105240
-80.9054337 101.5553741 -11.2056408
-82.0216522 101.3699646 -9.2713308
-140.5800323 100.7854843 1.2141224
-142.0499878 100.9277496 0.0048719
-143.4900970 101.0651245 -1.3030367
-79.9576721 103.2720718 -15.2976885
-81.0685577 103.0046234 -12.9297314
-82.1673203 102.7973480 -10.8588791
-140.7826996 102.1931915 -0.1254241
-142.2460632 102.3363571 -1.4021754
-143.7330627 102.5041733 -2.8382030
-82.3310013 104.2675858 -12.6735744
-83.4294434 104.0676575 -10.6913748
-84.5435715 103.8939056 -8.9163361
-138.1360168 103.3523865 0.6678190
-139.5713654 103.4809418 -0.4202971
-141.0109253 103.6199799 -1.6367055
-142.5048828 103.7866669 -3.0331306
-82.5174713 105.7809601 -14.8482189
-83.6066971 105.5345230 -12.6267395
-84.7046356 105.3534927 -10.7023754
-138.3592834 104.7817612 -0.8345144
-139.8063354 104.9257431 -2.0174820
-141.2879028 105.0901642 -3.3715641
-83.8075714 107.0690231 -14.9182930
-84.9071808 106.8334198 -12.7502680
-86.0135803 106.6508408 -10.8530560
-87.1284714 106.4819565 -9.1721439
-135.7753754 105.9799652 -0.3899579
-137.1848602 106.1045074 -1.3970463
-138.6174164 106.2410583 -2.5336654
-85.1261749 108.3786240 -15.1096830
-86.2205200 108.1603851 -13.0404034
-87.3268890 107.9681702 -11.1733541
-136.0118713 107.4277649 -2.0744245
-137.4382477 107.5661163 -3.1815891
-87.5405884 109.5104446 -13.4957275
-88.6687546 109.2956848 -11.6018600
-89.7750549 109.1329498 -9.9751558
-90.9186096 108.9855804 -8.5003433
-92.0584564 108.8582916 -7.2108755
-136.3061523 108.9212875 -4.0332208
-88.9103241 110.8368073 -14.0936842
-89.9969788 110.6676025 -12.3236275
-91.1331711 110.4967957 -10.6475897
-92.2624130 110.3512268 -9.2142916
-136.6268311 110.4667358 -6.2432423
-91.3817368 112.0501556 -13.1969156
-92.5054016 111.8754272 -11.5692492
-93.6395416 111.7280121 -10.1173439
-94.7806854 111.6067123 -8.8504696
-128.4745789 111.2288971 -2.6563969
-129.8295135 111.3172913 -3.3387253
-131.2294006 111.4262924 -4.1671515
-132.6104279 111.5425262 -5.0951290
-134.0696411 111.7082214 -6.1969757
-92.7721863 113.4922867 -14.4098206
-93.9047699 113.2844391 -12.7235041
-95.0365753 113.1406097 -11.2694511
-128.7760162 112.7536087 -4.8014388
-130.1532288 112.8523331 -5.6009789
-131.5679321 112.9854584 -6.5586972
-95.3153000 114.7867737 -14.1885061
-96.4645844 114.5926208 -12.6853256
-97.6264877 114.4460983 -11.3609161
-98.7717896 114.3402557 -10.2317896
-99.9466782 114.2490463 -9.2095499
-123.6639938 113.9630814 -4.7554426
-125.0106506 114.0368423 -5.2479329
-126.3566818 114.1187439 -5.8341980
-127.7207413 114.2058411 -6.5093718
-129.0980072 114.3052826 -7.3019438
-130.5233002 114.4604568 -8.2777109
-97.9358902 116.1183624 -14.5048656
-99.0806122 115.9570618 -13.1915922
-100.2410202 115.8177719 -11.9627419
-123.9813995 115.5266266 -7.2559280
-125.3500900 115.6104889 -7.8640342
-126.7158508 115.7156219 -8.5849791
-128.1069946 115.8412247 -9.4307222
-129.5370331 116.0055847 -10.4313202
-99.4601593 117.7485886 -17.0677643
-100.6172104 117.5205688 -15.5447779
-101.7532806 117.3871765 -14.2546186
-102.9233932 117.2691650 -13.1179428
-104.1067505 117.1710587 -12.1835403
-105.3080978 117.0882721 -11.3796320
-106.4987946 117.0143127 -10.6522455
-107.7163849 116.9700470 -10.0714617
-108.9516449 116.9345856 -9.5908308
-110.1637726 116.8853607 -9.1516113
-111.4226074 116.8704834 -8.8337183
-112.6611023 116.8445740 -8.5687733
-113.9225845 116.8458099 -8.4108496
-115.1789093 116.8508224 -8.3376379
-116.4633713 116.8587341 -8.3371468
-117.7516251 116.8886871 -8.4234629
-119.0512848 116.9142456 -8.5891323
-120.3750305 116.9604416 -8.8899078
-121.6754761 117.0103912 -9.2512016
-123.0275497 117.0774689 -9.7129965
-124.3939056 117.1948090 -10.3299103
-106.8888931 118.6982269 -14.1627970
-108.0911560 118.6248932 -13.4565697
-109.3146896 118.5644531 -12.8654995
-110.5410156 118.5322113 -12.3969145
-111.7874146 118.5061569 -12.0371761
-113.0253525 118.4964447 -11.7614250
-114.3022461 118.5115204 -11.6123800
-115.5593262 118.4951782 -11.5445910
-116.8602448 118.5198212 -11.6074333
-118.1475220 118.5464630 -11.6971970
-119.4576416 118.5676193 -11.9824944
-120.8186188 118.6427841 -12.3638134
-122.1441803 118.7634201 -12.8413439
-112.2925262 120.3809967 -16.4436607
-116.0991516 120.3046722 -15.9112148
114.1148605 -37.4834213 58.6129684
111.2402267 -37.5371819 58.0018425
117.4039078 -36.7308578 60.8955383
116.8126755 -36.7339287 61.0189285
116.2073441 -36.7306099 61.1172562
115.6248245 -36.7209663 61.1814194
115.0302124 -36.7059517 61.2005615
114.4234161 -36.6786079 61.1694832
113.8364258 -36.6635780 61.1332397
110.9365005 -36.7307129 60.5718155
108.0646133 -36.8439751 59.2372894
107.5360641 -36.9700050 58.9029884
117.7778702 -35.9538193 62.9630699
117.1691437 -35.9542732 63.0275803
108.9857025 -36.0491562 62.0374107
105.1157990 -36.3840942 59.5056877
123.1512527 -35.4153481 62.6472588
120.0340958 -35.2823715 64.0208206
119.4085464 -35.2722435 64.2212448
118.7694244 -35.2546196 64.4471054
118.1633987 -35.2643929 64.6003113
117.5684433 -35.2656670 64.7329025
116.9647217 -35.2853508 64.7835922
109.3562546 -35.4266052 64.0540695
108.7857590 -35.4168510 63.8364029
104.8598709 -35.6114960 61.6737137
104.3048553 -35.6930275 61.2534370
103.7523193 -35.7621536 60.7990150
124.2310638 -34.7603302 63.8051376
128.6063690 -34.2568626 61.9950676
127.9159088 -34.2342491 62.6753616
127.2176361 -34.1731529 63.3076859
126.5542374 -34.1166878 63.8454475
124.6205673 -34.0395622 65.1590271
123.9763718 -34.0425301 65.5497513
101.1987610 -34.5527344 62.4417686
130.1321564 -32.9947319 64.1047211
129.4640045 -32.8387146 64.9567108
128.7921906 -32.7942581 65.5417099
96.4421387 -32.8859444 62.6460800
132.3634186 -31.7889900 64.8549576
131.6542664 -31.7181664 65.5716782
131.0037537 -31.6867065 66.1397400
96.2898178 -32.1985054 64.0831451
95.7556381 -32.2733879 63.4924622
133.5676422 -31.2178040 64.9623337
134.0193481 -30.4799576 66.0274506
133.3175659 -30.5183315 66.5536346
93.8987885 -31.0779667 64.2966461
93.3690186 -31.1554165 63.6177101
134.4880829 -29.9372635 66.6511841
92.7073593 -30.5530052 64.2206879
135.6917877 -29.3909588 66.5557861
134.9897614 -29.3423080 67.2847977
134.2747955 -29.2886009 68.0244980
92.6049194 -29.8796558 65.4388428
92.0657654 -29.9471493 64.7544937
91.5333786 -30.0143032 64.0452652
91.4457474 -29.3387623 65.3073654
137.3739929 -28.2318001 67.0121994
136.6488342 -28.1693211 67.8137512
91.3284454 -28.7024193 66.4113693
90.8105392 -28.7509022 65.7959442
90.2539749 -28.8379936 65.0350342
137.8841553 -27.6087551 67.5705414
139.1443024 -27.0844498 67.1761169
138.4288483 -27.0151024 68.0126572
137.6796722 -26.9570866 68.8553925
138.9211731 -26.4193668 68.4785538
88.9425964 -26.9750366 66.8333282
139.4344788 -25.8325748 68.8822250
138.7481842 -25.8038788 69.6229401
88.8339386 -26.3690205 67.8147583
87.2545547 -26.4819145 65.6461258
86.7062683 -26.5916538 64.8040695
142.0265045 -24.7834568 67.6393433
141.2714996 -24.7065029 68.6133423
85.4677963 -25.4614124 65.3101807
142.5228119 -24.1875134 67.9655991
85.4015961 -24.8242741 66.2916870
142.3510590 -23.5602493 69.0969620
85.3234329 -24.1946602 67.2183990
84.7755508 -24.2712002 66.4251480
84.1716232 -23.7028084 66.5085831
143.5205231 -22.4202576 69.3678665
84.1372528 -23.0555286 67.4119415
83.6435013 -23.0811825 66.6036758
84.0732269 -22.4364605 68.2354736
145.4305878 -21.3355370 68.4822693
144.6635132 -21.2734394 69.5176392
83.9875946 -21.8470669 69.0212250
146.0093079 -20.7731552 68.5013275
81.8133850 -21.3631172 66.7014084
82.8123627 -20.7301350 69.0887756
82.3053665 -20.7574348 68.3311920
81.7708511 -20.8085136 67.5087433
81.2189560 -20.8743458 66.6547318
145.6995239 -19.5525265 70.4806824
146.2779083 -18.9884796 70.4645233
145.5136414 -18.9347420 71.4527435
146.8518982 -18.4238091 70.4221878
80.5200806 -19.0969315 68.0680618
147.4852600 -17.8700352 70.2606583
146.7080994 -17.8202572 71.2925949
80.4547272 -18.5063763 68.7811813
79.9225540 -18.5637474 67.9826813
148.1113586 -17.3203888 70.0809860
79.3335419 -18.0105419 67.8401871
147.9770660 -16.7265091 70.9069443
79.2917023 -17.3955364 68.5145264
78.7568665 -17.4530087 67.6407852
78.2228241 -17.5077477 66.7559280
78.1854935 -16.8974400 67.4271393
77.6498413 -16.9524632 66.5165482
78.1664200 -16.2786007 68.1377258
147.5476685 -14.9490376 73.3068161
149.7575226 -14.4895859 70.9238586
148.9876862 -14.4444666 71.9762726
148.1895752 -14.4009676 73.0409927
147.4609833 -14.3768463 73.9524918
150.3791809 -13.9377642 70.6427765
150.1323547 -12.7617683 72.0916748
75.7849045 -13.5168009 67.4958420
75.2587509 -13.5614367 66.5595932
150.0148010 -12.1777830 72.7573853
75.7789154 -12.9077234 68.1344147
75.7505646 -12.3212967 68.7149277
75.1616745 -12.3881874 67.7372742
151.3304596 -11.0901642 71.9605331
75.6752090 -11.7498035 69.1693115
151.2081146 -10.5016794 72.5915298
151.8620453 -9.9571657 72.1325684
151.1141968 -9.9248953 73.1651840
152.5609589 -9.4230356 71.5677490
153.2316284 -8.8778849 71.0369797
152.4152069 -8.8308659 72.2110214
74.4464798 -9.5094652 69.3722687
153.7695007 -7.1961417 71.5327301
74.3675232 -7.7679963 70.6791077
74.3259811 -7.1956682 71.0350037
153.2534027 -3.7729993 74.3634338
102.4537964 -3.7291012 92.7544479
101.9001617 -3.7345531 92.6149063
101.3527298 -3.7477257 92.4663696
100.8225021 -3.7527435 92.3175354
72.1335297 -4.4069419 69.2738113
154.7510529 -3.2593718 72.5916443
153.9193878 -3.2249827 73.7443008
153.1567078 -3.2057810 74.7804794
102.4409103 -3.1773741 92.9366226
154.6599884 -2.6891632 72.9957428
102.4295044 -2.6322911 93.1061172
99.1097488 -2.6769466 92.1427536
98.5596085 -2.6755309 91.9601059
97.9798431 -2.6864381 91.7488785
97.4014893 -2.7027397 91.5290146
154.5702515 -2.1170473 73.3897552
102.3974991 -2.0887983 93.2575302
101.8397675 -2.0922728 93.1172485
101.2973251 -2.0959287 92.9729919
100.7491837 -2.1065953 92.8153687
99.0860672 -2.1263201 92.3008118
72.0720444 -2.6879632 70.2426453
71.5377808 -2.7142737 69.2989655
99.0725708 -1.5744607 92.4546356
99.0578384 -1.0226716 92.6021271
155.1906128 -0.4558659 73.3060608
154.3913269 -0.4356142 74.4129105
105.7254715 -0.4137126 94.4271698
105.1652908 -0.4224789 94.3241882
104.6034927 -0.4216419 94.2150879
104.0445023 -0.4289332 94.0964813
71.9692154 -1.0018243 70.9107437
154.3314972 0.1244793 74.7360535
104.0233078 0.1177822 94.2370453
71.9515381 -0.4329721 71.1773148
120.5489349 0.7769557 95.0235443
119.9707413 0.7741697 95.1009674
114.7571259 0.7476470 95.4023743
114.1964951 0.7384320 95.4000854
113.6291351 0.7400142 95.3976669
113.0308151 0.7498056 95.3926010
112.4618225 0.7336243 95.3754501
111.8982010 0.7266765 95.3539047
111.3429718 0.7236785 95.3279190
110.7827377 0.7229198 95.2957916
102.3146362 0.6489739 93.9525833
101.7561874 0.6439969 93.8114929
120.5670853 1.2651342 95.1231918
110.7654724 1.2695590 95.4240952
102.3069458 1.2029060 94.0772552
119.2778015 1.8544950 95.3560333
118.7630844 1.8559307 95.4190216
118.1897049 1.8486860 95.4774323
110.7451706 1.8080715 95.5457687
110.1766815 1.8113016 95.4926834
109.6038437 1.8061652 95.4314804
103.4250107 1.7558988 94.4764481
102.8555603 1.7552373 94.3367691
102.2662277 1.7406236 94.1886215
94.5572205 1.6692998 91.5597610
94.0127792 1.6645691 91.3175888
93.4623642 1.6609274 91.0721283
92.9117355 1.6525283 90.8194275
92.3348770 1.6460713 90.5465088
91.7860260 1.6379052 90.2766113
157.2584686 2.8645654 71.3279114
123.9915771 2.9660075 94.8839569
121.6486664 2.9580686 95.2821121
121.0697708 2.9574785 95.3485794
98.3723068 2.7395055 93.2421875
96.7137451 2.7903175 92.6766968
96.1679764 2.7822936 92.4578552
95.6734009 2.7326343 92.2525864
90.1355286 2.7166440 89.6363678
87.3979034 2.6823142 88.0029602
157.2113037 3.4272594 71.5804062
123.9882584 3.5048530 94.9710846
107.2795410 3.4231045 95.4710083
106.7197876 3.4190962 95.3805161
96.1620560 3.3314521 92.5575714
95.6790466 3.3134062 92.3589935
90.1355591 3.2697151 89.7425385
87.3772659 3.2345386 88.1071091
69.7458725 2.9238570 68.7626343
69.2340546 2.9078877 67.8070831
157.1952972 3.9835467 71.7805252
123.9802475 4.0470562 95.0545654
107.2658768 3.9675677 95.5585785
96.1432190 3.8775544 92.6452942
95.5975723 3.8723152 92.4260559
87.3610992 3.7859514 88.2045212
69.7576599 3.4958389 68.9679184
69.2263107 3.4798446 67.9832306
157.1296387 4.5458250 72.0522232
123.9471970 4.5973902 95.1445999
123.3430710 4.5982966 95.2604675
110.3394241 4.5488563 96.9611359
109.9554901 4.5539532 97.6047287
109.5852509 4.5479379 98.2064667
109.2163544 4.5190921 98.7745590
96.6734695 4.4297557 92.9563904
96.1367722 4.4262624 92.7402191
89.0140762 4.3574758 89.3087234
88.4641266 4.3491898 88.9896927
87.9047165 4.3421292 88.6489334
87.3467484 4.3353267 88.2957153
69.7507858 4.0657353 69.1452332
157.0686798 5.1046491 72.3044434
126.3026581 5.1438408 94.7319641
123.9398727 5.1374869 95.2316208
110.4177856 5.0684705 97.1926727
110.0039368 5.0888734 97.8993454
109.5925522 5.1179123 98.5967331
92.7769012 4.8938599 91.4123230
69.7326508 4.6330013 69.2994843
69.7231522 5.2004323 69.4446182
95.0502014 6.1140637 92.5265579
92.8140411 6.0416732 91.5352936
68.6633987 5.7424865 67.5070190
68.1153030 5.7286301 66.3889389
126.2692490 6.7715416 94.9171982
96.6357498 6.6186543 93.2312546
96.1020126 6.6157584 93.0065460
95.5373077 6.6081481 92.7684174
95.0009689 6.6065536 92.5399094
94.4447250 6.6019821 92.3049393
93.8982468 6.5984654 92.0730896
93.3557510 6.5929570 91.8352814
92.8087540 6.5900359 91.5898972
68.6650848 6.3130312 67.6359940
126.2546234 7.3048887 94.9463882
96.6222000 7.1650295 93.2751541
96.0880814 7.1628118 93.0494156
95.5444260 7.1583910 92.8194504
94.9932556 7.1541057 92.5867081
68.6556320 6.8820200 67.7540054
68.6474991 7.4497638 67.8631973
94.4100571 8.2418098 92.4603348
93.8739777 8.2396164 92.2301788
93.3301239 8.2361965 91.9934769
92.7740479 8.2323103 91.7434692
68.6372452 8.0168791 67.9562836
157.6959839 9.5563097 72.0480499
156.8872070 9.5583487 73.2685394
129.8091583 9.4980936 94.1186066
129.2073212 9.4958677 94.3049240
128.5989990 9.4953728 94.4787903
127.9938126 9.4923840 94.6434555
91.6665497 9.3220177 91.2941513
156.8758850 10.1135063 73.3462219
91.6693954 9.8697157 91.3194046
156.8721619 10.6685476 73.3968735
91.6565247 10.4173098 91.3228302
156.9016418 11.2236757 73.3841858
92.1892090 10.9677248 91.6054688
91.6516342 10.9654503 91.3247604
156.8520050 11.7798300 73.4685516
92.1852341 11.5154371 91.6061401
91.6369019 11.5132370 91.3208923
156.8583984 12.3353233 73.4570770
91.6292496 12.0611010 91.3196487
156.8646088 12.8908348 73.4307480
91.6241684 12.6090937 91.3162384
156.8760071 13.4469042 73.3818359
91.6283875 13.1571569 91.3101044
156.8567352 14.0016232 73.3591385
91.6280212 13.7051773 91.2906876
156.8428802 14.5555887 73.3052826
91.6263123 14.2533751 91.2571640
127.3832855 14.9133062 94.7785263
68.6105957 14.8231745 67.9971848
127.3763733 15.4542351 94.7364883
126.8071365 15.4529371 94.8939209
126.2049561 15.4491701 95.0578461
125.6159821 15.4482212 95.2173309
92.7443771 15.3509054 91.7314987
68.6202545 15.3902645 67.9149017
126.2171707 15.9926777 95.0049133
92.7435837 15.8997278 91.6825485
68.6227570 15.9579334 67.8102493
126.2077866 16.5346661 94.9580078
92.7465591 16.4480515 91.6314011
68.6254501 16.5264549 67.6951904
157.7898102 17.3560066 71.4311447
156.9355469 17.3389969 72.7449493
126.2245407 17.0785866 94.8994598
88.9342575 16.9972496 89.5676651
88.3813171 16.9998322 89.2462234
87.8383179 16.9996471 88.9187393
87.2959442 16.9976521 88.5810699
68.6374817 17.0949650 67.5904465
126.2329102 17.6188679 94.8321915
125.6489334 17.6213188 94.9729691
125.0382690 17.6187668 95.1196976
124.4458618 17.6144104 95.2398376
123.8629379 17.6100674 95.3403473
68.6299210 17.6649551 67.4423828
126.2460938 18.1621418 94.7427521
125.6398468 18.1562805 94.8784866
124.4218292 18.0943127 95.1318207
95.5158463 18.1078968 92.6294556
94.9745255 18.1286221 92.3968964
93.8333435 18.1535931 91.9163361
69.7071228 18.2121181 69.3923950
157.0549622 19.0165730 72.1903915
126.2519913 18.7019138 94.6437378
124.4012604 18.6898422 95.0622101
97.1491089 18.6372013 93.1559601
96.6143723 18.6335163 92.9605865
96.0827408 18.6316586 92.7599716
95.5333481 18.6333179 92.5381470
94.9860229 18.6321983 92.3065414
94.4162979 18.6351566 92.0743103
93.8638306 18.6385632 91.8463364
69.6864090 18.7824230 69.2084274
157.1015778 19.5755825 71.9557953
126.2634964 19.2441807 94.5518723
69.7076263 19.3497353 69.0739594
157.0955353 20.1323357 71.7969894
126.2650833 19.7905521 94.4813614
122.6990662 19.7761459 95.2511673
122.1258850 19.7757187 95.3467789
121.5579453 19.7744694 95.4390335
117.4625015 19.7495213 95.8495407
116.8905106 19.7476788 95.8730240
112.8940735 19.7426128 95.9668884
112.3013229 19.7402287 95.9434662
111.7325363 19.7378025 95.9193726
111.1771240 19.7337112 95.8953400
98.2934189 19.7306232 93.3858414
69.7041168 19.9188995 68.8698502
69.1796188 19.9308624 67.8891525
157.1732635 20.6970787 71.5066071
156.3507233 20.6719627 72.7578812
155.5417633 20.6512222 73.9516144
121.5619507 20.3147392 95.3403168
112.8996048 20.2791691 95.8711929
69.7186661 20.4878025 68.6897125
69.1649933 20.5049915 67.6493073
155.5762787 21.2081413 73.7243118
121.5695877 20.8557148 95.2373657
112.9052963 20.8230133 95.7733078
120.4187088 21.4435272 95.2671738
115.2412338 21.4084606 95.6425171
114.6442032 21.4397297 95.6721497
114.0574722 21.4374638 95.6835938
120.4263382 21.9407024 95.1763611
119.8231583 21.9326057 95.2571487
115.7962036 21.9232140 95.5627823
115.2225113 21.9206181 95.5728302
114.6374512 21.9114532 95.5862122
114.0651855 21.9072704 95.5895996
111.2220840 21.9087887 95.4594803
107.8313141 21.9022961 95.1878891
107.2457428 21.9061623 95.1109543
106.6826324 21.9037113 95.0213776
106.1344299 21.9094601 94.9220352
-110.6216507 22.9667625 -24.4422092
-111.2513885 22.9582939 -24.1648808
-111.8657837 22.9509583 -23.8727684
-112.5092545 22.9478798 -23.6447716
-113.1201859 22.9635944 -23.4495754
-114.3414230 22.9484997 -23.9040623
-115.0472031 22.9949646 -23.0829296
-115.6915054 22.9375992 -23.0216274
-116.3192673 22.9276123 -22.9407654
-116.9324417 22.9261017 -22.9128380
-117.6014633 22.9253273 -23.0178490
-118.2774277 22.9375877 -23.1043587
-118.9570694 22.9443779 -23.3329754
156.5564423 22.9224892 71.6500168
155.7182922 22.8911152 72.9057465
104.4451370 22.4533215 94.5058212
98.3483353 22.4594917 92.8848648
69.7504807 22.7698460 67.8048553
-106.7442703 23.6207943 -24.2980576
-121.2951355 23.5435333 -21.3716240
155.7987061 23.4578228 72.6002197
119.2757111 23.0218945 95.0966873
118.7165070 23.0303364 95.1544952
118.1200027 23.0211315 95.2123795
117.5375214 23.0176105 95.2575378
116.9600525 23.0163269 95.2895279
116.3918228 23.0178413 95.3083649
104.4676132 23.0023556 94.3812332
103.9193115 22.9987583 94.2693710
103.3643646 22.9998512 94.1503830
102.7860641 23.0026112 94.0215454
102.2156906 23.0072670 93.8909149
101.6559677 23.0146065 93.7641602
101.1321411 23.0212479 93.6556396
98.3500290 23.0133400 92.7407990
69.7647858 23.3443928 67.5538406
-104.6635513 24.2583466 -23.2594299
-105.2348785 24.2629433 -22.7771854
-105.8391037 24.3113613 -22.2053375
-106.4551620 24.3377419 -21.6513138
-121.0026779 24.2142391 -19.0438404
-121.6627121 24.1888123 -19.2083302
-122.3336105 24.1706905 -19.4612255
-123.0349808 24.1658535 -19.7808380
-123.7427139 24.1671276 -20.1392822
-124.4423599 24.1719208 -20.5390587
154.1978607 23.9613094 74.6313171
100.0391617 23.6108246 93.1508255
99.4452362 23.6239510 92.9675064
70.8657303 23.8707886 69.3277435
-102.6624680 24.9041595 -22.7423992
155.8928833 24.5805225 71.9025726
155.0624237 24.5471058 73.1367950
154.2535706 24.5203533 74.3059692
100.0247879 24.1085510 93.0016022
99.4626999 24.1096210 92.8234482
70.8614578 24.4468937 69.0316391
-100.7133255 25.5558834 -22.5445442
-101.2870789 25.5675449 -21.8198280
-101.8614960 25.5850201 -21.1630058
-102.4427567 25.5914478 -20.5764122
-125.9471359 25.4526787 -17.3653736
-126.6695251 25.4298286 -17.7957306
-127.3608856 25.4250278 -18.2398510
155.9993591 25.1535950 71.4850922
-97.4372787 26.8487701 -22.1817360
-98.0028458 26.8635044 -21.3604088
-98.5708389 26.8723431 -20.6196651
-128.2662354 26.6909561 -15.4289713
-128.9902496 26.6822681 -15.9004030
-129.6968994 26.6836243 -16.3817139
71.9661102 26.1179123 70.0374603
-94.2517853 28.1595840 -22.7852440
-94.8183212 28.1825428 -21.7720222
-130.6609497 27.9610252 -14.0427942
-131.3723755 27.9603786 -14.5510263
-132.1159363 27.9566631 -15.1450329
-132.8510742 27.9584255 -15.7752104
153.0870056 27.3053741 74.6532516
153.9341736 27.9160118 73.1741791
153.1522522 27.8635025 74.2061996
-93.3358612 29.4462452 -19.8608322
-133.1202545 29.2234726 -13.1854954
-133.8542328 29.2120743 -13.7712317
154.0238190 28.4678307 72.6934280
153.1835480 28.4167576 73.8323593
73.0777588 28.3765926 70.5110245
-90.9812546 30.1328545 -22.2209225
-92.0177612 30.1114731 -20.0996170
-92.5977097 30.0723972 -19.1887932
-93.1795120 30.0515022 -18.4138908
153.2813110 28.9916172 73.3676376
73.1108093 28.9480343 70.1760559
72.5701981 28.9764500 69.2597046
-90.8260345 30.7876415 -20.4526367
-91.3722382 30.7519207 -19.5189705
-91.9268265 30.7219105 -18.5648937
-92.4808350 30.7074280 -17.7089195
-93.0321655 30.6799030 -16.9850655
153.3849945 29.5697708 72.8789520
73.1155624 29.5237656 69.7676620
72.5755692 29.5584621 68.8432312
153.4851685 30.1439209 72.3843460
73.1559830 30.0963936 69.4131165
-135.2434998 31.7670326 -10.1194439
-135.9628143 31.7743397 -10.6826677
-136.7330017 31.7568111 -11.3362589
-137.4946289 31.7390556 -12.0286264
73.1590881 30.6855793 68.9741821
-88.1629562 32.6803513 -19.8104210
-138.0317535 32.3660583 -11.3661489
-86.9265060 33.3063660 -20.5094051
-87.4757385 33.3017311 -19.4650688
-88.0424500 33.3057251 -18.3972473
-137.8427277 33.0050278 -10.1376839
74.2913971 31.7765026 69.9609070
73.7560501 31.8107948 69.0655670
74.3260498 32.3539429 69.5383835
-85.6025543 34.6042099 -19.8152065
-138.9541779 34.2734566 -9.0792751
-139.7383270 34.2625504 -9.8033390
153.1322021 32.9733009 70.7530594
152.2749786 32.9095573 71.9795609
74.3506546 32.9388657 69.0782700
-140.2897644 34.8981438 -9.5871010
-141.0312195 34.9302902 -10.5050249
152.3808899 33.4955940 71.3767853
-83.7306442 35.9061890 -20.5380859
-84.2700577 35.8840561 -19.4172306
-140.1004333 35.5846062 -8.4029074
-140.9171906 35.5203667 -9.2629032
152.5431824 34.0921364 70.6571350
75.4606628 34.0376091 69.8760071
74.9311523 34.0725861 68.9978027
-83.0944443 36.5602570 -20.3639278
-141.4768524 36.1699181 -8.6342878
75.4855881 34.6226349 69.3710098
-82.4084549 37.1778488 -20.4098835
-82.9805756 37.1738510 -19.1480732
-141.3086853 36.7993927 -7.6274910
-142.0741577 36.8050346 -8.3323345
-142.8667755 36.7999649 -9.1163340
152.7631531 35.2504730 69.2420197
151.9566040 35.2024918 70.5021439
151.1627350 35.1535378 71.6708908
-81.6582870 38.4493942 -19.1300259
-144.0408325 38.0703316 -8.5681982
149.8729858 36.2474136 72.4941177
76.6655884 36.2991753 69.5797043
76.1383209 36.3367462 68.6929016
75.6009369 36.3783569 67.7603760
-80.4918365 39.1213799 -20.3867321
149.9831085 36.8357925 71.8479385
76.7102203 36.8864517 69.0028152
-79.8599548 39.7754517 -20.4972286
-80.3978577 39.7454529 -19.2369614
-145.3082123 39.3408661 -8.2946615
77.7788696 37.4204102 70.0965729
77.2868042 37.4518433 69.2510910
-79.2119446 40.4205894 -20.7048225
-145.1504822 39.9717865 -7.3697400
-145.9296265 39.9771347 -8.1516685
77.8330612 37.9834137 69.5283127
-78.5859375 41.0624771 -20.8977585
-79.1530685 41.0528870 -19.4784565
-144.9883575 40.6037674 -6.4611802
148.7835388 38.5134125 71.8203354
77.8846741 38.5922928 68.8964920
77.9453049 39.1610870 68.3399506
77.4482803 39.2140198 67.3898239
-77.8948517 42.3408241 -19.9833298
-146.2183990 41.8967133 -6.3901334
149.0727997 39.6807327 70.1116409
77.9713593 39.7800331 67.6544342
-76.6436844 43.6390915 -20.7148418
147.7419434 40.7431602 70.6209412
80.1469955 40.8151245 69.7348709
79.6343765 40.8464546 68.9630966
