93.8576050 -3.1309588 84.3205795
91.7097244 -3.1778276 82.5551605
89.5865250 -3.2308595 80.4962311
140.0836487 -0.6214600 85.3267517
137.4949188 -0.6071215 87.2145004
134.9326172 -0.5947663 88.8081512
132.4407959 -0.5926985 90.0847778
89.3382416 -0.9662460 83.0752716
87.2164459 -1.0130093 80.8864365
142.3511353 1.5883440 85.6922607
139.6914215 1.6059117 87.8050308
137.1434631 1.6077316 89.4880066
134.6096497 1.6167152 90.9364929
132.1377411 1.6190314 92.1107407
89.1203079 1.2808911 85.2738037
86.9891968 1.2407911 83.2378693
84.8854218 1.1980757 80.9056396
144.6378479 3.7935984 85.7159119
141.9922485 3.8016958 87.9769058
139.3670197 3.8085475 89.8919983
136.8424072 3.8098857 91.4410553
120.0360489 3.7734821 96.7712708
117.6735458 3.7677569 96.9657745
88.9292450 3.5088949 87.1637115
86.7921600 3.4755712 85.2443771
84.6775589 3.4422984 83.0670700
147.0322876 5.9912534 85.2969818
144.2978516 5.9963136 87.8566360
141.6804810 5.9981198 89.9227448
139.0888977 5.9978652 91.6788635
136.5821228 5.9989305 93.1353455
119.8456345 5.9498792 98.1486664
117.4861450 5.9460683 98.3525391
88.7635651 5.7257309 88.8335876
86.6212997 5.7018795 87.0048981
84.5083466 5.6753006 84.9521255
82.3902969 5.6473770 82.5743103
146.7077026 8.1876392 87.3156433
143.9985962 8.1872921 89.6783295
141.4096527 8.1859293 91.6098633
138.8373871 8.1804304 93.2610321
136.3490601 8.1755161 94.6246262
119.6756134 8.1138010 99.3666611
117.3302307 8.1121607 99.5498199
84.3534241 7.8956008 86.5650635
82.2297440 7.8737226 84.3049316
80.1435089 7.8533525 81.7412338
149.1478271 10.3824673 86.4154739
146.4209595 10.3737297 89.0352249
143.7447205 10.3687115 91.2502670
141.1803589 10.3575420 93.0528717
138.6220856 10.3520241 94.6250916
136.1481323 10.3433170 95.9292068
119.5216217 10.2787218 100.4617004
117.1841278 10.2698784 100.6279755
84.2202759 10.1046381 87.9637299
82.0912170 10.0924845 85.8019562
151.7016296 12.5793200 84.9806519
148.8717651 12.5658426 88.0468826
138.4308319 12.5145569 95.8078232
135.9688110 12.5019588 97.0581284
110.2827682 12.3956833 101.2292709
108.0617065 12.3901749 100.9109344
105.8058395 12.3804979 100.4756927
103.6229706 12.3722782 99.9365845
101.3774719 12.3631306 99.2540894
99.2270355 12.3586407 98.5220337
84.1005783 12.3074741 89.1860123
81.9664307 12.3004742 87.0910950
151.4380951 14.7597618 86.5437393
148.6439209 14.7388859 89.4152374
138.2633362 14.6728821 96.8342285
135.8088684 14.6579895 98.0396042
110.1777802 14.5511179 102.0459290
107.9474945 14.5426874 101.7169647
105.7059631 14.5365524 101.2901993
103.5193481 14.5328121 100.7624359
101.2793579 14.5250149 100.0944824
99.1218109 14.5220699 99.3605804
84.0002823 14.5035467 90.2401123
81.8606720 14.5030966 88.1952972
79.7688980 14.5063000 85.9483871
77.6635361 14.5096655 83.3495636
151.2104797 16.9348717 87.8634949
148.4479065 16.9082012 90.5721283
138.1266174 16.8240891 97.7129211
135.6741638 16.8085442 98.8916397
133.2271118 16.7945194 99.9033966
130.8256836 16.7797966 100.7502823
128.4528656 16.7667656 101.4501877
126.0840149 16.7568455 102.0234375
123.7669678 16.7448902 102.4535522
121.4250107 16.7356243 102.7954025
119.1501694 16.7258339 102.9967270
116.8399506 16.7183933 103.1033020
114.5935440 16.7111988 103.0882263
112.3222504 16.7044353 102.9738541
110.0800247 16.6994362 102.7554245
101.1958313 16.6833916 100.8290100
99.0308685 16.6809349 100.0994568
96.8271408 16.6810970 99.2102814
94.6660614 16.6790123 98.2307434
92.4909058 16.6817513 97.1090622
90.3299866 16.6821938 95.8546600
79.6706161 16.7091789 86.9453583
77.5628128 16.7200127 84.4243011
153.8605347 19.1445217 85.7611542
151.0206909 19.1046257 88.9431000
148.2812805 19.0708275 91.5336456
145.6372681 19.0419998 93.6894073
143.0388641 19.0170498 95.5314026
140.5115051 18.9938068 97.0979156
138.0007324 18.9733791 98.4543381
135.5579071 18.9549675 99.6021118
133.1180420 18.9376812 100.5890808
130.7236938 18.9237289 101.4199982
128.3518372 18.9090958 102.1054230
125.9891815 18.8981228 102.6628113
96.7534714 18.8400993 99.8476639
94.5898438 18.8435154 98.8792572
92.4150238 18.8472786 97.7703629
90.2586060 18.8545704 96.5405807
79.5922089 18.9089108 87.7925491
77.4791870 18.9270096 85.3243027
153.6855164 21.3161964 86.7632217
150.8727417 21.2697754 89.8086395
133.0294495 21.0798759 101.1611786
130.6303558 21.0640316 101.9742432
92.3556366 21.0140533 98.3238602
90.1924591 21.0240936 97.0993881
79.5265198 21.1062202 88.4839172
77.4078827 21.1315174 86.0669708
75.3288193 21.1612282 83.3484802
153.5510864 23.4858322 87.5457001
150.7453308 23.4336796 90.5028000
132.9520721 23.2212524 101.6269836
130.5610046 23.2029705 102.4272385
90.1418762 23.1908779 97.5552216
79.4723816 23.3011589 89.0387344
77.3516006 23.3333092 86.6546555
75.2686691 23.3709259 83.9821777
153.4462891 25.6547890 88.1268616
150.6502075 25.5962543 91.0221405
132.8944397 25.3608932 101.9795532
90.0991516 25.3583565 97.8991623
75.2213440 25.5798340 84.4559326
153.3634338 27.8242531 88.5466309
150.5844421 27.7594547 91.3846436
132.8474731 27.5003967 102.2435455
90.0725250 27.5249023 98.1484604
75.1857758 27.7893543 84.7768250
153.3253937 29.9958611 88.7641525
150.5409393 29.9239922 91.5921478
132.8145142 29.6414871 102.3884735
90.0469589 29.6931992 98.2827072
87.9011841 29.7232666 96.9476013
85.7476959 29.7573929 95.4449615
75.1659546 30.0007038 84.9532089
73.0830765 30.0717583 81.9331741
156.2088318 32.2680588 85.3168335
153.3073120 32.1705055 88.8241730
150.5279846 32.0916901 91.6410141
132.7988586 31.7843132 102.4315796
85.7354813 31.9370708 95.4832230
75.1561890 32.2147141 84.9808197
73.0745544 32.2954597 81.9567108
156.2160950 34.4564781 85.1993484
153.3132324 34.3498497 88.7160797
150.5330811 34.2632217 91.5478287
132.7985992 33.9295692 102.3827515
85.7361145 34.1197701 95.4080048
75.1571045 34.4331360 84.8566360
153.3485413 36.5350761 88.4379425
150.5634155 36.4399338 91.3071365
132.8169098 36.0795135 102.2218170
130.4263611 36.0518723 103.0162888
85.7435150 36.3064537 95.2230453
75.1719589 36.6567688 84.5864334
153.4202423 38.7285957 87.9699249
150.6243896 38.6250763 90.8931351
132.8435669 38.2308540 101.9708633
130.4545746 38.2046738 102.7587738
128.0883636 38.1809120 103.4183502
92.2149277 38.3488846 99.0309448
90.0602875 38.3929367 97.8114395
87.9097824 38.4429932 96.4470825
85.7636795 38.4977341 94.9293747
75.1982193 38.8882599 84.1579971
153.5173798 40.9310532 87.3061676
150.7072449 40.8167801 90.3280487
132.8908997 40.3904457 101.6077805
130.4956512 40.3602867 102.4088440
128.1274414 40.3365135 103.0798187
125.7720642 40.3156662 103.6213226
94.4116669 40.4865723 99.7628021
92.2418594 40.5303040 98.6662827
90.0916672 40.5796967 97.4326935
87.9354019 40.6344223 96.0496216
85.7948914 40.6952744 94.5224304
75.2322998 41.1276550 83.5726776
-113.5349884 44.7938156 -7.4882221
153.6623230 43.1474838 86.4152832
150.8267822 43.0212822 89.5694656
128.1822815 42.4992142 102.6262741
125.8282776 42.4778595 103.1737747
96.6212769 42.6267052 100.2866669
94.4551239 42.6698380 99.3084793
79.4731293 43.1522713 88.1118164
77.3638458 43.2580795 85.6272125
75.2901001 43.3760834 82.8289185
-100.6777649 47.2748985 -6.4673367
-103.0556870 47.2129059 -4.9666710
-105.4709320 47.1661911 -3.8036945
-107.9101181 47.1351395 -2.9283731
-110.3832169 47.1115456 -2.3509750
-112.8869705 47.0980301 -2.0330260
-115.4094238 47.1012268 -1.9435890
-117.9728241 47.1114044 -2.1429210
-120.5700073 47.1376839 -2.6247303
150.9762726 45.2373199 88.6231003
128.2512970 44.6672516 102.0666046
125.8965759 44.6453514 102.6296692
123.5682297 44.6299820 103.0593262
121.2456894 44.6189651 103.3732834
118.9529724 44.6118240 103.5810699
116.6694946 44.6092567 103.6789551
114.4043808 44.6137314 103.6626358
112.1495438 44.6222839 103.5425186
96.6747818 44.8132401 99.7339859
94.5023499 44.8624725 98.7303162
79.5321884 45.3906021 87.3240814
77.4285431 45.5065880 84.7751160
-95.4667282 49.7545013 -5.2632036
-97.8064880 49.6718597 -3.3388433
-100.1778564 49.6057587 -1.7436837
-102.5649490 49.5509949 -0.4604464
-104.9950867 49.5081100 0.5365382
-107.4356689 49.4773788 1.3101373
-109.9048157 49.4558182 1.8530353
-112.3941574 49.4461670 2.1782472
-114.9037476 49.4442520 2.2883191
-117.4383469 49.4524918 2.1774385
-120.0130005 49.4706421 1.8149496
-122.6244049 49.5035439 1.2164150
-125.2750244 49.5471268 0.3238528
151.1637115 47.4678230 87.4487457
148.3817444 47.3401070 90.2602234
145.7070618 47.2347832 92.5723572
114.4763336 46.7886925 103.0415802
112.2162323 46.7989006 102.9154510
103.3183441 46.8864059 101.3838348
101.1095963 46.9227028 100.7199249
98.9191513 46.9641304 99.9432297
96.7384415 47.0079880 99.0612183
94.5694885 47.0583229 98.0472870
79.6020813 47.6419144 86.3636093
77.5083618 47.7704468 83.7337189
-90.4159241 52.2927628 -5.5232124
-92.7113953 52.1824265 -3.0852695
-95.0489578 52.0904922 -1.0618078
-97.4033356 52.0133209 0.5914359
-99.7852554 51.9528656 2.0037560
-102.1796265 51.9033356 3.1669760
-124.7725677 51.8921280 4.1921086
-127.4372101 51.9431305 3.1921377
-130.1506042 52.0132065 1.8860092
148.5806580 49.5753670 89.0060883
145.8774567 49.4571457 91.4538651
114.5623169 48.9767227 102.2965012
112.3017654 48.9854202 102.1844330
98.9974518 49.1634979 99.1731415
96.8110199 49.2152290 98.2658157
94.6418152 49.2716904 97.2366791
79.6953964 49.9071350 85.2310410
77.6100082 50.0489655 82.4871216
-87.7452240 54.7534561 -4.1165633
-90.0363693 54.6295395 -1.5754486
-92.3594208 54.5248184 0.5406985
-94.7067337 54.4429741 2.3480096
-97.0711975 54.3702583 3.8660319
-99.4594727 54.3082199 5.1503944
-101.8548203 54.2596893 6.2111411
-124.3593140 54.2480125 7.3953171
-126.9899750 54.2962952 6.5474505
-129.6658325 54.3576889 5.4428163
-132.3855896 54.4348984 4.0225992
-135.1753693 54.5357780 2.2143416
148.8207703 51.8299294 87.4966888
146.0896759 51.6992378 90.1025620
143.4344788 51.5907440 92.2568512
140.8545074 51.4997177 94.0723648
114.6637421 51.1678886 101.4557190
112.3979797 51.1801529 101.3448486
110.1541824 51.1996689 101.1130829
107.9163055 51.2216148 100.7812042
105.6920776 51.2504311 100.3164825
99.0881195 51.3758659 98.2798157
84.0094757 51.9286880 88.5703964
81.8956451 52.0508995 86.3846283
79.8048019 52.1901245 83.8794098
-85.1369171 57.2335701 -3.3083415
-87.4250717 57.0936241 -0.6244159
-89.7316589 56.9795647 1.6422055
-92.0718536 56.8853149 3.5755455
-94.4222870 56.8006020 5.2293019
-96.7913132 56.7313385 6.6517200
-129.2736511 56.7135124 8.4003944
-131.9596558 56.7869492 7.1629977
-134.7048798 56.8767014 5.6061172
146.3338165 53.9608116 88.5034790
143.6625061 53.8408470 90.8061066
141.0527802 53.7377167 92.7355270
114.7782669 53.3752136 100.4822464
112.5112228 53.3885117 100.3651581
110.2677612 53.4077988 100.1365967
108.0208740 53.4338036 99.7861786
105.8033600 53.4641151 99.3234634
103.5880432 53.5021439 98.7522125
101.3827820 53.5489120 98.0479584
99.1942520 53.5996513 97.2466278
84.1190186 54.2065773 87.2079468
82.0178680 54.3399544 84.9233093
79.9316711 54.4952240 82.2833862
-82.5848923 59.7345772 -2.9972494
-84.8570633 59.5796738 -0.1307431
-87.1593323 59.4505386 2.2949414
-89.4853210 59.3407211 4.3849292
-91.8210983 59.2421837 6.1622181
-94.1786499 59.1648903 7.7182508
-96.5523987 59.0943069 9.0501232
-128.9336548 59.0798187 10.9447174
-131.5973969 59.1481171 9.8263435
-134.3104248 59.2340889 8.4439659
-137.0628510 59.3376312 6.7599096
146.6319733 56.2504501 86.6001434
143.9176636 56.1112671 89.1175003
141.2932129 55.9992676 91.1627121
138.7213135 55.9051743 92.8827667
136.2011414 55.8261414 94.3330688
88.5066605 56.2529678 89.6093597
86.3724060 56.3707199 87.7468948
84.2570038 56.5026855 85.6372147
82.1577682 56.6524963 83.2064209
-80.0727463 62.2613411 -3.2010121
-82.3348846 62.0858917 -0.1016088
-84.6244965 61.9384079 2.5267708
-86.9380112 61.8124733 4.7761221
-89.2675247 61.7051620 6.7337089
-91.6101379 61.6128616 8.4136448
-128.6352234 61.4468346 13.1589355
-131.2840118 61.5155258 12.1272354
-133.9785004 61.5981445 10.8538218
-136.7013092 61.6969833 9.3272266
-139.4948730 61.8183899 7.4591351
144.2238464 58.4108810 87.1028290
141.5641785 58.2809753 89.3389359
138.9708252 58.1754532 91.1980896
136.4324036 58.0910873 92.7368240
88.6471710 58.5492439 87.9914093
86.5254822 58.6770821 86.0410309
84.4117737 58.8242226 83.7932663
-77.6025085 64.8202362 -3.9044809
-79.8502579 64.6180725 -0.4981714
-82.1253204 64.4479675 2.3397741
-84.4265366 64.3047333 4.7971416
-86.7436523 64.1812897 6.9141684
-89.0824966 64.0761108 8.7593422
-91.4231720 63.9844284 10.3706560
-128.3833771 63.8195496 15.0809431
-131.0139160 63.8885384 14.1278782
-133.6893311 63.9685745 12.9525709
-136.3874512 64.0693130 11.5474567
-139.1588287 64.1827469 9.8227768
-141.9857483 64.3247910 7.7381043
141.8987732 60.5992012 87.1664352
139.2654877 60.4754829 89.2261963
136.7042847 60.3768387 90.8994980
93.0920105 60.6336517 89.5297852
90.9512787 60.7414818 87.9532700
88.8164444 60.8689880 86.1257324
86.6986237 61.0144615 84.0335312
84.6067886 61.1768646 81.6284332
-79.6617126 66.9848328 1.7788012
-81.9508362 66.8214111 4.4424915
-138.8716888 66.5573273 11.8482046
-141.6751404 66.6919861 9.9235678
-144.5370483 66.8573074 7.5970397
142.2920532 62.9518127 84.5679016
139.6098633 62.8111305 86.8868942
137.0230103 62.6957321 88.7374420
93.2820892 62.9547844 87.6063080
91.1449280 63.0786705 85.9130249
89.0175323 63.2183037 83.9630127
86.9167328 63.3821030 81.6955872
-79.5069504 69.3620148 3.7029982
-81.7969208 69.1998749 6.2312508
-138.6270752 68.9395523 13.5942039
-141.4043579 69.0719757 11.7917528
-144.2478027 69.2311401 9.6218281
140.0351868 65.1920319 84.0530548
137.4024048 65.0555496 86.1834641
134.8202209 64.9467621 87.9046860
132.3092804 64.8569336 89.3055878
129.8358917 64.7876434 90.4384308
127.4069824 64.7359772 91.3494110
97.8214417 65.0848389 88.2984467
95.6566772 65.1882477 86.9458466
93.4991455 65.3118896 85.3626022
91.3728714 65.4513397 83.5344543
89.2594452 65.6106796 81.4015350
-77.0974426 71.9358978 2.5687556
-79.3732224 71.7475891 5.3559713
-81.6707764 71.5858154 7.7895784
-98.1246490 70.9165497 18.3151932
-100.5169525 70.8687820 19.1478405
-102.9258118 70.8308105 19.8409233
-105.3396454 70.8002319 20.4054890
-107.7662582 70.7811127 20.8379536
-110.2138748 70.7705841 21.1476860
-112.6654053 70.7699966 21.3268967
-115.1430664 70.7767487 21.3783112
-143.9926605 71.6154861 11.3487320
137.8575745 67.4647598 83.0635529
135.2287903 67.3352051 85.0764694
132.6846771 67.2289429 86.6802368
130.1759949 67.1474457 87.9619141
127.7272873 67.0843430 88.9793777
98.0616760 67.4556198 85.9032364
95.9030838 67.5739059 84.4327393
93.7640381 67.7094116 82.7180634
91.6421585 67.8714752 80.6778488
-76.9796524 74.3301544 4.0885582
-79.2594147 74.1406708 6.7654452
-81.5651093 73.9794922 9.1292257
-98.0160599 73.3023224 19.4090233
-100.4098358 73.2534637 20.2230816
-102.8089523 73.2163391 20.9147606
-105.2328186 73.1863861 21.4657784
-107.6571045 73.1672592 21.8892250
-110.1010437 73.1560287 22.1948814
-112.5502396 73.1549911 22.3771229
-115.0226517 73.1633759 22.4299583
-143.7763062 74.0107803 12.8179150
-146.6391907 74.1960068 10.5070744
133.1350555 69.6566772 83.4913254
130.5957947 69.5570374 84.9970551
128.1156616 69.4802399 86.1727142
125.6708832 69.4234924 87.0875778
123.2676697 69.3812180 87.7732391
107.1472168 69.5018768 87.3227005
104.9202118 69.5698090 86.5633392
102.7132034 69.6566010 85.6082458
100.5269775 69.7554932 84.4597015
98.3551788 69.8688278 83.0908508
96.2053375 70.0071793 81.4554749
-76.8750916 76.7302322 5.3650174
-93.1744308 75.8229446 18.3112373
-95.5436859 75.7547607 19.4034748
-97.9287415 75.6925354 20.3453102
-100.3139191 75.6449432 21.1534367
-112.4511337 75.5456238 23.2893028
-114.9160614 75.5535431 23.3540154
-117.3956757 75.5701904 23.2840424
-119.9009705 75.5991592 23.0854626
-122.4264374 75.6371689 22.7574673
-124.9651947 75.6855621 22.2927322
-143.6033173 76.4135895 14.0515213
-146.4508972 76.5990219 11.8277931
131.1086578 72.0320740 81.3193588
128.5834198 71.9365845 82.7711411
126.1045074 71.8625870 83.8727264
123.6790085 71.8138123 84.6714020
107.4834442 71.9272308 84.3747864
105.2531815 72.0059967 83.5446167
103.0521698 72.1002197 82.5011139
100.8706207 72.2152634 81.2195129
-76.8005676 79.1412506 6.4361596
-93.1050568 78.2245636 19.1390648
-95.4719238 78.1507645 20.2196369
-97.8507996 78.0908279 21.1518250
-100.2379150 78.0406952 21.9478207
-119.8108902 77.9967346 23.8794632
-122.3218384 78.0348434 23.5794277
-124.8639450 78.0844193 23.1205120
-143.4537201 78.8257294 15.0938749
-146.2908478 79.0125122 12.9352932
126.6580048 74.3866882 79.7865372
124.1896362 74.3234100 80.8273163
121.7628555 74.2764587 81.5646591
119.3756409 74.2555389 81.9967270
117.0347977 74.2536240 82.2107239
114.7018280 74.2705154 82.1805115
112.4148865 74.3001556 81.9484253
110.1343307 74.3536072 81.4780273
107.8956909 74.4240112 80.7864075
105.6718597 74.5144348 79.8507004
-76.7333221 81.5622253 7.3121595
-93.0458603 80.6286316 19.8249817
-95.4073334 80.5554810 20.8910694
-122.2517471 80.4375839 24.2493916
-124.7805176 80.4903870 23.8044701
-143.3351135 81.2469864 15.9387913
-146.1661377 81.4366760 13.8350391
-149.0596008 81.6603470 11.3364944
117.6018677 76.8366394 77.6825027
115.2505493 76.8502502 77.7037659
112.9532318 76.8827133 77.4862976
-76.6909332 83.9943542 7.9934626
-92.9976807 83.0415878 20.3921814
-122.1804962 82.8491058 24.8041897
-124.7212982 82.9019470 24.3635597
-143.2393341 83.6791153 16.6073723
-146.0674438 83.8725433 14.5409527
-148.9628296 84.1005173 12.0806942
-74.3721771 86.6688232 5.7082253
-76.6581650 86.4369659 8.5114965
-92.9659576 85.4615631 20.8130684
-124.6735764 85.3225021 24.7880630
-148.8863983 86.5536804 12.6305475
-74.3562927 89.1293640 6.0760126
-76.6401291 88.8923340 8.8561382
-92.9477997 87.8897095 21.1351357
-124.6497269 87.7514954 25.0887909
-148.8554382 89.0236206 12.9629107
-74.3489609 91.6072845 6.2365670
-76.6358109 91.3627625 9.0220127
-92.9367828 90.3278198 21.3213902
-124.6315231 90.1895065 25.2744522
-148.8398132 91.5071411 13.1307926
-72.1043396 94.3952637 3.0039568
-74.3589249 94.1000214 6.2339182
-76.6432571 93.8456802 9.0409908
-92.9409409 92.7777328 21.3776569
-122.1101227 92.5791168 25.7562046
-124.6345673 92.6396027 25.3255386
-148.8446655 94.0071182 13.1176558
-69.9148026 97.2943268 -1.1660501
-72.1362152 96.9208298 2.7567153
-88.2588501 95.4583588 18.7305450
-90.5981979 95.3431778 20.0884666
-92.9657288 95.2388229 21.3084698
-95.3216629 95.1555405 22.3556938
-122.1317673 95.0378418 25.6960487
-124.6640778 95.1028900 25.2522297
-143.1879120 96.0287323 17.4491558
-145.9983521 96.2568893 15.3819656
-148.8998718 96.5294266 12.8849955
-69.9711990 99.8636780 -1.7313015
-72.1804352 99.4699936 2.2959957
-88.2878876 97.9419250 18.5202637
-90.6321335 97.8212128 19.8853226
-92.9911346 97.7154007 21.1074409
-95.3564911 97.6274414 22.1692581
-119.6528854 97.4552460 25.8203926
-122.1700134 97.5098038 25.5049820
-124.6998596 97.5761185 25.0622559
-143.2518616 98.5461807 17.1222744
-146.0696411 98.7861404 15.0118713
-148.9807739 99.0734863 12.4506159
-70.0471954 102.4691315 -2.6006675
-72.2539825 102.0448456 1.6168692
-88.3368301 100.4392624 18.1696892
-90.6766815 100.3151703 19.5487404
-112.2787018 99.8551102 25.7083263
-114.7329025 99.8688354 25.7787437
-117.2082291 99.8980713 25.7100697
-119.7063904 99.9407349 25.5125084
-122.2244263 99.9974213 25.1853256
-124.7594070 100.0680542 24.7292938
-143.3399811 101.0866013 16.6110287
-146.1775055 101.3410187 14.4278221
-72.3322754 104.6545792 0.6507826
-88.3970108 102.9574661 17.6653061
-97.8374710 102.5343323 22.3551636
-100.2228088 102.4702454 23.1549072
-112.3405457 102.3505096 25.2872372
-114.8081512 102.3668442 25.3392677
-122.2952652 102.4993896 24.7458382
-124.8289185 102.5720520 24.2798500
-143.4602051 103.6490479 15.9105253
-146.3129883 103.9216156 13.6363239
-72.4419022 107.3000107 -0.6017516
-74.6647034 106.9019470 3.1929417
-76.9232635 106.5714798 6.3544397
-88.4753571 105.4940796 17.0066833
-97.9094696 105.0553284 21.7640266
-100.3010941 104.9864655 22.5861816
-102.6958008 104.9291229 23.2852058
-105.1087189 104.8928833 23.8406487
-107.5270691 104.8668060 24.2693596
-109.9678116 104.8576126 24.5663948
-112.4158173 104.8635101 24.7253170
-114.8916626 104.8810959 24.7734051
-122.3832321 105.0192261 24.1612682
-124.9276886 105.0994034 23.6716499
-143.6168671 106.2425842 14.9831438
-74.7872543 109.5568848 1.8362544
-77.0308075 109.1987076 5.1708951
-88.5637054 108.0574265 16.1772232
-90.9045486 107.9122009 17.6505527
-93.2595062 107.7865067 18.9333572
-95.6204071 107.6813736 20.0660477
-98.0031433 107.5928650 21.0490036
-100.3905487 107.5249100 21.8681259
-102.7905579 107.4660873 22.5671921
-105.2022781 107.4268646 23.1338406
-107.6229401 107.4025650 23.5637169
-110.0636749 107.3887024 23.8706512
-112.5131760 107.3922958 24.0396118
-114.9862442 107.4121170 24.0808640
-117.4708328 107.4485626 23.9878235
-119.9757919 107.4981766 23.7669411
-122.4973526 107.5620804 23.4164619
-125.0419693 107.6456757 22.9075451
-143.7958984 108.8615799 13.8576937
-74.9395905 112.2651520 0.0955896
-77.1619568 111.8717957 3.6721220
-79.4304657 111.5431747 6.6764393
-81.7162704 111.2617950 9.2619286
-138.4097748 110.9914246 16.5073986
-141.1856079 111.2380829 14.6496305
-144.0247498 111.5245667 12.4273968
-77.3295059 114.5945892 1.8306228
-79.5800705 114.2331543 5.0444069
-81.8573074 113.9262543 7.7879343
-138.6332550 113.6498642 15.0652657
-141.4337769 113.9193268 13.0759716
-77.5370026 117.3767166 -0.4626383
-79.7612000 116.9732285 3.0689921
-82.0203018 116.6388168 5.9886093
-84.3125763 116.3620682 8.4682846
-86.6233673 116.1213760 10.6223221
-88.9482117 115.9120407 12.5205507
-91.2873306 115.7378235 14.1437721
-133.4315186 115.8963242 16.5751572
-136.1369629 116.1046066 15.1091309
-138.9088593 116.3565445 13.3215170
-79.9875641 119.7876587 0.5828526
-82.2237625 119.4080276 3.8180041
-84.5038528 119.0947876 6.5129271
-86.8043900 118.8323593 8.8132668
-89.1253128 118.6060104 10.8023548
-91.4577332 118.4170456 12.5174131
-133.7080383 118.6101837 14.7684174
-136.4311829 118.8418732 13.1754990
-139.2341003 119.1206055 11.2067966
-82.4753036 122.2568817 1.0961440
-84.7314224 121.9056091 4.0929289
-87.0190353 121.6045151 6.6099877
-89.3304443 121.3567657 8.7525625
-91.6616516 121.1455078 10.5886536
-123.4242630 120.7051926 16.8852253
-126.0222168 120.8281326 16.1711445
-128.6425629 120.9755249 15.2522850
-131.3006897 121.1564026 14.0884876
-134.0215912 121.3754044 12.6257734
-136.7795105 121.6365814 10.8424072
-85.0204926 124.7942276 1.1105527
-87.2798004 124.4554443 3.9300349
-89.5796204 124.1714630 6.2891092
-91.8967438 123.9427261 8.2652149
-123.7119446 123.4542389 14.8213158
-126.3163910 123.5903778 14.0268288
-128.9713593 123.7624741 12.9824667
-131.6614685 123.9699249 11.6536102
-134.4156799 124.2227783 9.9961376
-89.8812485 127.0818863 3.2524045
-92.1867523 126.8102722 5.4714065
-94.5171509 126.5874939 7.3305798
-96.8689117 126.4086456 8.8862810
-118.8936462 126.0631104 13.4662542
-121.4586029 126.1552505 13.0040617
-124.0628586 126.2837677 12.3210897
-126.6839294 126.4342346 11.4205656
-129.3671265 126.6314316 10.2119484
-132.0850830 126.8681488 8.6882000
-92.5434418 129.7940674 1.9668461
-94.8574982 129.5303345 4.1069632
-97.1945190 129.3184357 5.8535485
-119.2623291 128.9386902 10.6665154
-121.8493729 129.0468597 10.1145134
-124.4586105 129.1847229 9.3293467
-127.1253967 129.3696594 8.2330704
-95.2915192 132.6220551 -0.1107197
-97.6045532 132.3673248 1.9865601
-99.9589386 132.1616974 3.6645722
-102.3388672 132.0073853 4.9998217
-104.7385406 131.8892212 6.0585818
-107.1757126 131.8115082 6.8469477
-109.6265030 131.7661438 7.3885899
-112.1071014 131.7494354 7.7141981
-114.6082382 131.7727356 7.7926846
-117.1487427 131.8307800 7.6280251
-119.7130280 131.9211578 7.2173324
-122.3280487 132.0558929 6.5133014
-107.6647034 134.9229126 2.6086838
-110.1231232 134.8713379 3.2028046
-112.6180191 134.8582458 3.5268645
-115.1314163 134.8880157 3.5675428
-117.6969223 134.9584961 3.2999392
113.8833466 -17.4352131 67.2865448
112.7064743 -17.4597836 67.0487518
120.4755096 -16.0687675 71.1048355
119.2794189 -16.0789509 71.4012451
118.0792999 -16.0752773 71.6207352
116.8917236 -16.0692444 71.7311630
115.7065964 -16.0864334 71.7412643
114.5489044 -16.1073627 71.6377258
113.3883362 -16.1220684 71.4726105
112.2397766 -16.1403160 71.2107086
111.1165009 -16.1611958 70.8890457
109.9799881 -16.1886559 70.4303284
108.8717575 -16.2256279 69.8715591
107.7526398 -16.2933216 69.2211456
124.9959106 -14.8728199 72.6029968
123.7516022 -14.8674564 73.2193909
122.5025101 -14.8709259 73.7351685
121.2844849 -14.8638840 74.1263504
120.0669556 -14.8662310 74.4200439
107.3774490 -15.0170164 72.6111221
106.2794037 -15.0484171 71.9791870
105.1844788 -15.1005421 71.2411575
129.7101135 -13.7523327 72.5238037
128.4017639 -13.7341871 73.5520554
125.8395004 -13.6882114 75.0897827
124.5901871 -13.6687641 75.6703644
123.3687744 -13.6690187 76.1484528
122.1369553 -13.6591148 76.5770569
120.9304504 -13.6659298 76.8762512
119.7224579 -13.6688795 77.1074219
107.0673065 -13.8195000 75.3694458
105.9629059 -13.8465595 74.7987518
104.8634872 -13.8679819 74.1783829
103.7742233 -13.9133358 73.4503784
102.6922455 -13.9461632 72.6267548
101.6206741 -13.9678631 71.6717377
100.5505066 -14.0300121 70.5753708
131.9273376 -12.5988913 73.5432129
130.5708466 -12.5361099 74.6703186
129.2853699 -12.5150414 75.6079865
128.0092773 -12.5055771 76.4165878
126.7585831 -12.4981194 77.1077576
125.4851379 -12.4873161 77.7148590
124.2509995 -12.4802160 78.2096024
100.2514648 -12.7988853 73.4813843
99.1783066 -12.8289042 72.3994522
98.1372452 -12.9149618 71.2368393
134.2079773 -11.4378023 74.2244415
132.8518982 -11.3741407 75.4966278
131.5118256 -11.3696718 76.4566650
130.1977081 -11.3486147 77.3812790
128.9461060 -11.3434954 78.1366425
127.6803741 -11.3275747 78.8358307
126.4362030 -11.3279295 79.4170303
125.1818390 -11.3148346 79.9428101
123.9685822 -11.3189878 80.3457031
99.9957123 -11.6273603 75.8782806
98.9123001 -11.6559658 74.9382324
97.8502274 -11.6953592 73.9356155
96.7710037 -11.7761078 72.7720337
135.1236725 -10.2468529 75.7205887
133.7952728 -10.2248650 76.9135895
97.6063995 -10.5157108 76.1727905
96.5473557 -10.5485992 75.1568985
95.5009003 -10.5939131 74.0659180
94.4426880 -10.6649551 72.8086777
136.0890503 -9.0969067 77.0244904
134.7581482 -9.0716705 78.2093658
133.4542847 -9.0577345 79.2318878
97.4037933 -9.3509254 78.1771240
96.3318481 -9.3861885 77.2237396
95.2854843 -9.4135084 76.2200623
94.2202911 -9.4490614 75.0742645
138.4897919 -7.9810619 76.7310715
137.1203461 -7.9549665 78.0951309
135.7500305 -7.9243746 79.3262177
95.0823975 -8.2516546 78.1510849
94.0090790 -8.2900286 77.0896606
92.9437408 -8.3346786 75.9270859
91.9135208 -8.3623133 74.6874695
90.8652191 -8.4188175 73.2787476
140.9106140 -6.8820791 76.1030273
139.5125427 -6.8332062 77.6573486
138.1481781 -6.8092613 79.0307922
136.8090057 -6.8019934 80.2079010
135.4652405 -6.7816057 81.2908020
94.9039383 -7.1019502 79.8560028
93.8240585 -7.1338558 78.8703613
92.7650909 -7.1622252 77.8161316
91.7167358 -7.1940689 76.6441498
90.6754303 -7.2282410 75.3654251
89.6265259 -7.2883825 73.9789886
141.9971161 -5.7488666 76.8165970
140.5443726 -5.7031689 78.4271240
90.4890900 -6.0745373 77.2072372
89.4569855 -6.1088638 75.9361572
88.3877869 -6.1679831 74.4907990
141.6557159 -4.5868859 78.9799118
140.2392731 -4.5597415 80.4350967
90.3218384 -4.9263506 78.8667679
89.2863388 -4.9509950 77.6806412
88.2274628 -4.9905486 76.3180084
87.2061615 -5.0378046 74.9107132
142.7415619 -3.4557178 79.4512863
141.3504639 -3.4396472 80.9000549
139.9720154 -3.4243169 82.2039337
88.0715714 -3.8439412 77.9714279
87.0527573 -3.8666093 76.6678543
85.9882660 -3.9309630 75.1692429
143.8585663 -2.3432889 79.7567139
142.4582062 -2.3223729 81.2619705
141.0890045 -2.3099849 82.5932388
139.7162323 -2.2903333 83.8023834
87.9244385 -2.7056091 79.4595490
86.8986206 -2.7275434 78.2211838
85.8413086 -2.7664981 76.7949829
84.7984085 -2.8218949 75.3011017
146.4192047 -1.2608547 78.2069092
144.9789124 -1.2260867 79.9673386
143.5898285 -1.2117279 81.4972916
142.2161407 -1.1982465 82.8763046
85.7085495 -1.6157272 78.3231354
84.6739655 -1.6460005 76.9054184
83.6240845 -1.7049857 75.3586426
146.1185150 -0.1153019 80.0336685
144.7193909 -0.1034617 81.6423035
143.3410492 -0.0884033 83.0699692
141.9721832 -0.0727269 84.3594055
85.5827866 -0.4854309 79.6971664
84.5465851 -0.5070314 78.3539734
83.5064240 -0.5371256 76.8836975
147.3127289 0.9942197 79.9492035
145.8572693 1.0067035 81.6786346
144.4688568 1.0207030 83.1707306
83.3795776 0.6031192 78.2725677
82.3256073 0.5570813 76.7508011
147.0455933 2.1143596 81.5634842
145.6235352 2.1218188 83.1440125
144.2501831 2.1317875 84.5329895
83.2552872 1.7312621 79.5214386
82.2216034 1.7043508 78.0761261
149.7265778 3.2007918 79.4171448
148.2422180 3.2210426 81.3391495
146.8271027 3.2260611 82.9822922
83.1482315 2.8562677 80.6784897
82.1142502 2.8403382 79.3032837
81.0683594 2.8004675 77.8035431
149.4774933 4.3210239 80.9567642
148.0366058 4.3278904 82.7169647
146.6146240 4.3366470 84.2896347
83.0476227 3.9761486 81.7475739
82.0110321 3.9626865 80.4280319
80.9778290 3.9446735 78.9917831
79.9432297 3.9234288 77.4157791
150.6816101 5.4246864 80.5406723
149.2449036 5.4332752 82.3641968
80.8759003 5.0647879 80.0776520
79.8419647 5.0513797 78.5628967
78.8177109 5.0278616 76.9322891
150.4654541 6.5357289 81.8931885
149.0384216 6.5368185 83.6184540
80.7735901 6.1799059 81.0633621
79.7508087 6.1731920 79.6323013
78.7276917 6.1585522 78.0557480
151.7734680 7.6275172 81.1891251
150.2608643 7.6385469 83.1191254
148.8506927 7.6407309 84.7535629
78.6337509 7.2799511 79.0791931
77.5823898 7.2528071 77.4200592
153.0752869 8.7288399 80.3519287
151.5477295 8.7412701 82.4218750
150.0853271 8.7390499 84.2231598
148.6845856 8.7388592 85.7730255
78.5504532 8.3992777 80.0340729
152.8542480 9.8425837 81.5657272
151.3720856 9.8383589 83.5117950
80.5595779 9.5281858 83.6546173
79.5075302 9.5199337 82.3153076
78.4648438 9.5117950 80.9038162
154.1808929 10.9413319 80.5804749
152.6675720 10.9407396 82.6718445
151.1968079 10.9352493 84.5247116
80.4984818 10.6379433 84.3916931
79.4314194 10.6298456 83.0631409
153.9996796 12.0409470 81.6799850
146.9018555 12.0110464 89.5976868
145.5693970 12.0039454 90.7380829
144.2202911 12.0031986 91.8134308
142.9388428 11.9930344 92.7484283
141.6539001 11.9926281 93.6192474
140.3817444 11.9828472 94.4176178
80.4360809 11.7467651 85.0701752
79.3768311 11.7419176 83.7812347
78.3299332 11.7354965 82.4414978
153.8104858 13.1414490 82.6992493
146.7922211 13.0942879 90.2818756
145.4524384 13.0890398 91.3983765
144.1226044 13.0810127 92.4322510
142.8360748 13.0733700 93.3627014
141.5677032 13.0710793 94.2033386
140.2908020 13.0629053 94.9907532
80.3759460 12.8514061 85.7000732
79.3164825 12.8480358 84.4408035
78.2783051 12.8479052 83.1240768
77.2164764 12.8447313 81.6708145
76.1956253 12.8456049 80.1627808
155.1837769 14.2400293 81.5234985
153.6675720 14.2355785 83.5763092
146.6791534 14.1851368 90.9207306
145.3496094 14.1754704 92.0056152
141.4830933 14.1519766 94.7506027
140.2075195 14.1422014 95.5250626
76.1479340 13.9603014 80.8712997
75.1003571 13.9593287 79.2158432
74.0566559 13.9527025 77.4392319
155.0165100 15.3385191 82.4070129
153.5384216 15.3240423 84.3700256
146.5794220 15.2668781 91.5015869
145.2618713 15.2575340 92.5628357
141.3922424 15.2316570 95.2653732
140.1127014 15.2257328 96.0322723
76.0791397 15.0675697 81.4830399
75.0421677 15.0739651 79.8749847
74.0187988 15.0780592 78.1493530
154.8661041 16.4339046 83.2219315
153.3942413 16.4169102 85.1329193
146.4913025 16.3477383 92.0365524
145.1822662 16.3384190 93.0732498
143.8587341 16.3266220 94.0524597
142.5673218 16.3194275 94.9389114
141.3175354 16.3082561 95.7277679
140.0469971 16.2989941 96.4786072
108.4346771 16.1578751 102.3615799
107.3115005 16.1551743 102.1749268
106.1793518 16.1584301 101.9640350
105.0936279 16.1502876 101.7259827
103.9957199 16.1472149 101.4541168
102.8972778 16.1479206 101.1608887
76.0266571 16.1755810 82.0636444
75.0000000 16.1842422 80.5181274
73.9613266 16.1910210 78.8086090
156.2615662 17.5415878 81.8285522
154.7458191 17.5231819 83.9402542
153.2987823 17.5024815 85.7715530
146.4057770 17.4282436 92.5345001
145.0954285 17.4187870 93.5542908
143.7691803 17.4071541 94.5142365
142.5040741 17.3940239 95.3646240
141.2477875 17.3829975 96.1509781
139.9751587 17.3771019 96.9022217
108.3922501 17.2319126 102.6897888
107.2746506 17.2292900 102.5098724
102.8514252 17.2247162 101.4929047
75.9808960 17.2835808 82.6022873
74.9425964 17.2941360 81.0671387
156.1349182 18.6324139 82.5490036
124.2808228 18.3523674 102.8420868
123.1171570 18.3477440 103.0331955
121.9343414 18.3454437 103.2076187
120.7861786 18.3368454 103.3395233
119.6569366 18.3362045 103.4390335
118.5036392 18.3336716 103.5105743
117.3575821 18.3246460 103.5520782
116.1934052 18.3272514 103.5790253
115.0897980 18.3196182 103.5722809
113.9648361 18.3160172 103.5364990
112.8307266 18.3160286 103.4797516
111.6868134 18.3110123 103.3922195
110.5664825 18.3073425 103.2785797
109.4609070 18.3060417 103.1442108
108.3458557 18.3001499 103.0011444
107.2318268 18.3056240 102.8244781
102.8104248 18.3008633 101.8004379
101.6895294 18.2990303 101.4803772
100.5864258 18.2990341 101.1411591
99.5209274 18.3010712 100.7812958
98.4226990 18.2983932 100.3771362
75.9367828 18.3901691 83.0742416
74.9009171 18.4019051 81.5603409
73.8567276 18.4109058 79.9400177
156.0316467 19.7229652 83.1797638
124.2265778 19.4263687 103.1421814
123.0706024 19.4196339 103.3279877
121.8871613 19.4139175 103.4909592
118.4595718 19.3988953 103.7920990
117.3191910 19.3978157 103.8325500
116.1585007 19.3959713 103.8570786
115.0505447 19.3926697 103.8436279
113.9236603 19.3919182 103.8029633
112.7948074 19.3858109 103.7503738
111.6523819 19.3839321 103.6682281
107.1907425 19.3744373 103.1055984
106.0674667 19.3754997 102.8771362
104.9740601 19.3726749 102.6566925
103.8638229 19.3630295 102.3943329
102.7663345 19.3730202 102.0913391
101.6457138 19.3750687 101.7671814
100.5518494 19.3745213 101.4205170
99.4849548 19.3781319 101.0612183
98.3837738 19.3790169 100.6624374
75.9016495 19.4963646 83.5086365
74.8543243 19.5092316 82.0018768
73.8205261 19.5221672 80.4248352
155.9178619 20.8137112 83.7527618
128.8710632 20.5205383 102.3742828
127.6939087 20.5129528 102.6729507
126.5076447 20.5052185 102.9476013
125.3588562 20.4987621 103.1915741
124.1878433 20.4939785 103.4071732
123.0358429 20.4872952 103.5871811
117.2773209 20.4640999 104.0899277
116.1156082 20.4665222 104.1020050
107.1613617 20.4469681 103.3550720
99.4441376 20.4531193 101.3174973
98.3532028 20.4553261 100.9203186
97.2580109 20.4574471 100.4904099
96.1515732 20.4631615 100.0329285
95.0850601 20.4646225 99.5582809
94.0006485 20.4648056 99.0405731
73.7790833 20.6310558 80.8485870
157.4324493 21.9243088 82.0441666
155.8371124 21.8993835 84.2691803
128.8339996 21.5863838 102.6192703
127.6539154 21.5789814 102.9159393
99.4223175 21.5318832 101.5589600
98.3196793 21.5329685 101.1564026
97.2283401 21.5344353 100.7315903
96.1257935 21.5397491 100.2746429
95.0495911 21.5429192 99.7905502
93.9642105 21.5458965 99.2766953
73.7519379 21.7413635 81.2330246
155.7632599 22.9832249 84.7616501
128.7895050 22.6578369 102.8492813
127.6233139 22.6487923 103.1407852
99.3860016 22.6048317 101.7857437
95.0293961 22.6221581 100.0146942
93.9386902 22.6267147 99.4990997
92.8578568 22.6338673 98.9599915
91.7606506 22.6390781 98.3788147
73.7217865 22.8497906 81.5700684
155.6887817 24.0748520 85.1177216
128.7574158 23.7283478 103.0509567
92.8474121 23.7152290 99.1680527
91.7363358 23.7216148 98.5754318
73.6941299 23.9573536 81.8592987
72.6451187 23.9800072 80.1873169
157.1609955 25.2024441 83.3571243
155.6325378 25.1635380 85.4088593
131.1116791 24.8120022 102.5168381
129.9300232 24.8033257 102.8787231
128.7380219 24.7943764 103.2100220
92.8126602 24.7939701 99.3241653
91.7167664 24.8032856 98.7402344
73.6769714 25.0650215 82.1230240
72.6412354 25.0929527 80.4497910
157.1018372 26.2923775 83.6518860
155.5761871 26.2509060 85.6938171
131.0869141 25.8798599 102.6662979
129.9089661 25.8709335 103.0214310
94.9574280 25.8588200 100.4996796
93.8850784 25.8681870 100.0035782
92.7892838 25.8757362 99.4564819
91.6958694 25.8846436 98.8809738
73.6626053 26.1726265 82.3456650
72.6216507 26.2032604 80.6675110
157.0524750 27.3817463 83.9232178
155.5228424 27.3380356 85.9445801
131.0456238 26.9517155 102.8048935
129.8800812 26.9415264 103.1475830
92.7756195 26.9558220 99.5882111
91.6882782 26.9670677 99.0107346
73.6321106 27.2805233 82.4956818
72.5923767 27.3126335 80.8552094
71.5674515 27.3470306 79.0911636
70.5544434 27.3862419 77.1326904
157.0176239 28.4720020 84.0934448
155.5011749 28.4258060 86.1032410
131.0385590 28.0195465 102.8986816
91.6746979 28.0486851 99.1138458
73.6135254 28.3885651 82.6221771
72.5788116 28.4234848 81.0002365
71.5556870 28.4613609 79.2330551
70.5538483 28.5025501 77.3109283
158.5648041 29.6185951 81.9447708
156.9912262 29.5639153 84.2069397
155.4761658 29.5144920 86.2261505
131.0252686 29.0904160 102.9486694
92.7367401 29.1246262 99.7638702
91.6654053 29.1310730 99.1831665
71.5436249 29.5754662 79.3280029
70.5191498 29.6198406 77.3861313
158.5500031 30.7140503 82.0185852
156.9783630 30.6560936 84.2816315
155.4727631 30.6042461 86.2870560
131.0091858 30.1610107 102.9842072
93.8218384 30.1885509 100.3327408
92.7437668 30.2009602 99.7913513
91.6557388 30.2142296 99.2197952
71.5364990 30.6903267 79.3759308
70.5128479 30.7376251 77.4519730
158.5219727 31.8095322 82.0861053
130.9943695 31.2296104 103.0237350
93.8220596 31.2700462 100.3460541
92.7484207 31.2830162 99.8141861
91.6510544 31.2975578 99.2362595
90.5696411 31.3127270 98.6312103
89.5067596 31.3282433 98.0084915
88.4236832 31.3451595 97.3365097
87.3540344 31.3627853 96.6335907
71.5304718 31.8063622 79.3789215
70.5080109 31.8567314 77.4614410
158.5218964 32.9071884 82.0692825
130.9982910 32.3019867 103.0335999
129.8173370 32.2915535 103.3843994
92.7374420 32.3660431 99.8046036
91.6389465 32.3816643 99.2229156
90.5646362 32.3974152 98.6247787
89.5019302 32.4143791 98.0024796
88.4215240 32.4324608 97.3281479
87.3397522 32.4515533 96.6158447
71.5387039 32.9224930 79.3651733
70.5131607 32.9767799 77.4320755
158.5573578 34.0082550 81.9763489
131.0040436 33.3742142 103.0150452
129.8180847 33.3627090 103.3768616
92.7296219 33.4503250 99.7678680
91.6329346 33.4672775 99.1850281
87.3419189 33.5409355 96.5913391
73.5999908 33.9417267 82.7030640
72.5614777 33.9896889 81.0587311
71.5352707 34.0414162 79.2747498
70.5218735 34.0985489 77.3399429
131.0001984 34.4463577 102.9709473
129.8213043 34.4341354 103.3300705
128.6296082 34.4261436 103.6539536
93.8186035 34.5180969 100.2530518
92.7402344 34.5343704 99.7148132
91.6446991 34.5521011 99.1354141
87.3492126 34.6310272 96.5413055
73.5908966 35.0574722 82.5727234
72.5576248 35.1070061 80.9320450
71.5343552 35.1617737 79.1428528
70.5197296 35.2229996 77.1920624
157.0287323 36.1375694 83.9333496
155.4858398 36.0693932 85.9809265
128.6343384 35.4984131 103.5752411
93.8230743 35.6022530 100.1699448
92.7501831 35.6181564 99.6375275
91.6565170 35.6374588 99.0599518
90.5605164 35.6600456 98.4721680
88.4388123 35.7001839 97.1968155
87.3588562 35.7211723 96.4455490
73.6072998 36.1713638 82.4480667
157.0422058 37.2376518 83.7065506
155.5177917 37.1683998 85.7650223
128.6431274 36.5707474 103.4740524
127.4776611 36.5633621 103.7609634
126.2903137 36.5532188 104.0287552
94.9147339 36.6708603 100.5807495
93.8219833 36.6897469 100.0612793
92.7465439 36.7064438 99.5261688
91.6565399 36.7259445 98.9492111
90.5757980 36.7471161 98.3533325
89.5036087 36.7694397 97.7251587
88.4317398 36.7908401 97.0374603
87.3533325 36.8163567 96.3140030
73.6035004 37.2911682 82.2401123
157.0972595 38.3431282 83.3908615
155.5577087 38.2689095 85.4952240
126.3040161 37.6282578 103.9066238
125.1596603 37.6219559 104.1487732
94.9283676 37.7546844 100.4576111
93.8420715 37.7744217 99.9388962
73.6248856 38.4097443 82.0128174
72.5909271 38.4692192 80.3251801
71.5746307 38.5333481 78.4837799
155.6090546 39.3724518 85.1731720
126.3151398 38.7037582 103.7678604
125.1669083 38.6970978 104.0050583
97.1113815 38.8070374 101.2536469
96.0045090 38.8257713 100.7878571
94.9370804 38.8430367 100.3018341
93.8420181 38.8631973 99.7822342
73.6489487 39.5308266 81.7456512
72.6258011 39.5923195 80.0261002
-107.4394226 43.1579437 -15.5326099
-111.0902328 43.0788345 -13.7576628
-112.3403702 43.0623474 -13.4586544
-113.5983887 43.0537987 -13.2137442
-114.8632736 43.0525436 -13.1562386
-116.1392975 43.0568504 -13.2278614
157.2568970 40.5694427 82.6193314
155.6455994 40.4771194 84.8285370
124.0207825 39.7686424 104.0471649
105.8988800 39.7885437 103.7442169
98.2006760 39.8808861 101.4931183
97.1276855 39.8923721 101.0712128
96.0199890 39.9123154 100.6032562
73.6717682 40.6542473 81.4248047
-102.1958771 44.4197159 -14.5840244
-104.5132751 44.3240089 -12.4938936
-105.7266464 44.3270493 -11.6767149
-106.9129791 44.3089600 -10.9693041
-108.1331482 44.2643204 -10.4124775
-109.3472900 44.2475624 -9.9596405
-110.5944138 44.2459106 -9.5857372
-111.8456497 44.2300377 -9.3269196
-115.6274338 44.2312927 -9.0764561
-116.9314346 44.2367973 -9.1669521
-118.2227325 44.2498245 -9.3800793
-119.5654144 44.2350464 -9.7126122
-120.8884964 44.2229843 -10.1300278
155.7601624 41.5935745 84.3432007
124.0293198 40.8429337 103.8518372
122.8834991 40.8388634 104.0414200
107.0407181 40.8598862 103.7467499
105.9151917 40.8681641 103.5307922
104.8208618 40.8883438 103.3130341
98.2244263 40.9639511 101.2935028
97.1294327 40.9835587 100.8585434
96.0385895 41.0009995 100.3997498
73.6900711 41.7832642 81.0589142
-99.4340973 45.6311531 -12.7861691
-100.5887222 45.5957794 -11.5694456
-101.7600098 45.5542870 -10.5122967
-102.9349899 45.5017929 -9.6428661
-104.0986176 45.4736748 -8.8382244
-105.3176117 45.4478951 -8.1220503
-106.5206757 45.4200058 -7.5657816
-107.7533875 45.4000282 -7.0729456
-108.9642715 45.3868980 -6.6558113
-110.2096329 45.3732643 -6.3327961
-111.4482727 45.3640060 -6.0869169
-115.2435608 45.3589706 -5.8275957
-116.5349274 45.3635941 -5.8940706
-117.8114700 45.3780212 -6.0353684
-119.1278534 45.3966942 -6.2672725
-120.4305038 45.4116592 -6.5992341
-121.7712708 45.4266930 -7.0386086
-123.1253052 45.4498024 -7.6023569
-124.4819946 45.4773064 -8.2424002
155.8501282 42.7099495 83.8487625
124.0670471 41.9238472 103.6319122
122.9104385 41.9168205 103.8173981
121.7476196 41.9155807 103.9657059
120.5946655 41.9070435 104.0939789
119.4571533 41.9044876 104.1959381
118.3037109 41.9010162 104.2660370
117.1742935 41.9059258 104.3077393
116.0248413 41.9019356 104.3438187
104.8428497 41.9646530 103.0787811
103.7293854 41.9747124 102.8070602
98.2385254 42.0555458 101.0648041
73.7154922 42.9141159 80.6445694
-95.6367035 46.9013176 -13.2596836
-96.7756119 46.8657303 -11.7312164
-97.8985901 46.8179321 -10.4358463
-99.0629883 46.7540207 -9.3052082
-122.7218781 46.5902252 -4.4928255
-124.0544434 46.6258278 -5.0074162
-125.4375534 46.6458435 -5.6904449
-126.7913818 46.6748352 -6.4185834
155.9491882 43.8306198 83.2779541
124.0868454 43.0026093 103.3978729
122.9365921 42.9963951 103.5752411
121.7728119 42.9934769 103.7224884
120.6153564 42.9889336 103.8534622
119.4782257 42.9873695 103.9539795
118.3239594 42.9863815 104.0246735
117.1937103 42.9874992 104.0679779
116.0456238 42.9850159 104.0932922
114.9282837 42.9895706 104.0873413
113.7855835 42.9935150 104.0451965
112.6740875 42.9953346 103.9846497
111.5383911 42.9979820 103.8998108
110.4339523 43.0156250 103.8137360
104.8575668 43.0533295 102.8387680
103.7571106 43.0598831 102.5698090
102.6572113 43.0764008 102.2784042
99.3612442 43.1283684 101.2225189
98.2694321 43.1407433 100.8242798
73.7565613 44.0443649 80.1874313
-93.0343018 48.1632347 -12.9507132
-94.1829987 48.1180649 -11.2491875
-95.2980042 48.0550079 -9.8279343
-96.4510345 47.9999619 -8.5367222
-97.5944519 47.9399071 -7.4656062
-98.7630157 47.9061852 -6.4322057
-122.3907700 47.7408371 -1.8747376
-123.7159882 47.7654610 -2.3266675
-125.0758743 47.7929878 -2.8915672
-126.4022217 47.8338165 -3.5119388
-127.8115234 47.8556709 -4.3035669
-129.1925201 47.8632965 -5.1305084
156.0476379 44.9558945 82.6459198
154.5251770 44.8591461 84.6842499
153.0579071 44.7796402 86.5353088
110.4431381 44.0918846 103.5397339
109.3467789 44.0854645 103.4266052
107.1028214 44.1184006 103.0353012
105.9845428 44.1250153 102.8262100
104.8899002 44.1369743 102.5771790
103.7751389 44.1527481 102.2956161
102.6759338 44.1683159 101.9979324
101.5820160 44.1786957 101.6871796
100.4753113 44.1996803 101.3344727
99.3901901 44.2177467 100.9555969
98.2908783 44.2383003 100.5497437
75.8678436 45.0360947 82.9272919
74.8136444 45.1094513 81.3315659
73.7915955 45.1824417 79.6555176
-90.5065536 49.4442940 -13.1386719
-91.6122513 49.3900909 -11.2888737
-92.7158127 49.3131599 -9.7216644
-93.8651199 49.2580261 -8.2459278
-127.4497147 49.0176239 -1.6969876
-128.8128662 49.0581665 -2.4402022
-130.2314148 49.0842209 -3.3304763
-131.6294403 49.0978012 -4.2852292
154.6171722 45.9778671 84.0498123
153.1576691 45.8963890 85.9381180
110.4839783 45.1771774 103.2563705
106.0180511 45.2159958 102.5368805
104.9217377 45.2243500 102.2871628
103.8098602 45.2399254 102.0106125
102.7116241 45.2557449 101.7182770
101.6109772 45.2728157 101.3990021
100.5140533 45.2865143 101.0458755
99.4331284 45.3043823 100.6655502
98.3231659 45.3296127 100.2497940
75.8961945 46.1693726 82.3978500
74.8513107 46.2464600 80.7802353
73.8342133 46.3229980 79.0694733
-89.1044998 50.6834755 -11.7558994
-90.2070923 50.6054688 -9.9574966
-91.3307419 50.5327606 -8.3572559
-92.4527054 50.4616776 -6.9891610
-93.6160355 50.4114914 -5.6978526
-127.1669922 50.1669159 0.5430653
-128.4980927 50.2101936 -0.0965198
-129.8916779 50.2511063 -0.8709378
-131.2710266 50.2936668 -1.7349470
-132.6766052 50.3441467 -2.7437253
154.7327576 47.1062050 83.3214264
153.2559204 47.0186310 85.2807922
110.5138550 46.2702904 102.9518433
106.0472107 46.3021469 102.2180405
104.9496002 46.3195915 101.9735489
75.9414368 47.3042641 81.8428268
74.9006348 47.3844376 80.1905975
-87.7267761 51.9085693 -10.7029152
-88.8343964 51.8190536 -8.9062099
-132.3482513 51.5087204 -0.3763261
-133.7754517 51.5439987 -1.3949995
154.8955536 48.2488861 82.4798355
153.3576965 48.1408806 84.5568390
110.5519714 47.3559761 102.6053925
106.0814285 47.3966522 101.8809280
104.9888306 47.4130707 101.6351318
75.9832458 48.4475479 81.2137604
74.9416351 48.5313339 79.5248642
-85.2881851 53.2327766 -11.9069338
-86.3558960 53.1367111 -9.9017973
-87.4741211 53.0509453 -8.0639668
-88.5960922 52.9709473 -6.4862070
-132.0676270 52.6620407 1.7099717
-133.4646301 52.7131920 0.7965236
-134.8777771 52.7634125 -0.2263447
-136.3452606 52.7866058 -1.3736619
153.5009460 49.2778244 83.7026138
152.0329590 49.1902084 85.5752258
150.6170654 49.1180420 87.2036514
110.5944290 48.4464035 102.2269363
109.4814987 48.4596939 102.0839081
108.3567276 48.4642715 101.9259720
107.2458954 48.4745560 101.7419662
106.1258316 48.4911995 101.5142822
105.0297775 48.5069542 101.2602081
103.9169083 48.5255661 100.9751892
102.8203125 48.5427094 100.6788406
101.7106857 48.5620613 100.3471146
100.6162567 48.5813751 99.9766235
76.0396729 49.5918655 80.5367126
74.9929047 49.6877022 78.8074036
-82.8870392 54.5669022 -13.6894999
-83.9576569 54.4781761 -11.2857647
-85.0486298 54.3745461 -9.2105103
-86.1350632 54.2854347 -7.4159822
-137.4521332 54.0247192 -0.4109587
-138.9295044 54.0895996 -1.7650065
153.6801453 50.4303360 82.7621078
152.1646118 50.3227310 84.7432022
150.7369995 50.2445946 86.4504089
110.6385803 49.5404892 101.8348846
109.5251617 49.5526199 101.6938095
108.3925781 49.5676498 101.5293808
107.2892151 49.5765152 101.3380890
106.1739197 49.5931053 101.1072845
105.0760498 49.6032410 100.8550949
103.9587326 49.6242828 100.5709381
100.6612930 49.6833878 99.5711594
76.0979080 50.7436028 79.7887573
-82.6470566 55.7242050 -10.8962278
-83.7238541 55.6136436 -8.7984419
-84.8303680 55.5230675 -6.9252496
-85.9378738 55.4339752 -5.3270445
-137.1462708 55.2119751 1.6034064
