-121.8205490 130.6234741 29.7047825
-124.3734207 130.7493744 29.0556545
-132.2202454 131.3002625 25.9221077
-134.9113617 131.5523682 24.4083271
-137.6589355 131.8474579 22.5908051
-74.5018005 135.6692505 7.2811575
-76.6914749 135.1708679 10.9663572
-78.9413147 134.7614288 13.9991722
-81.2042160 134.4175110 16.5745678
-83.4897232 134.1310272 18.7844734
-85.7964325 133.8782654 20.7164726
-127.1528778 133.5453491 26.8841972
-129.7770691 133.7414551 25.7778950
-132.4553223 133.9753265 24.4201736
-135.1565247 134.2465668 22.8011436
-79.1366577 137.5541229 11.8299427
-81.3871460 137.1731567 14.6222706
-83.6673126 136.8490753 17.0044670
-85.9671478 136.5787048 19.0480785
-127.3879013 136.2336884 25.2856369
-130.0294342 136.4472351 24.0910091
-132.7233276 136.7033691 22.6212997
-135.4540405 137.0042877 20.8470612
-81.6093597 140.0008392 12.2445316
-83.8780670 139.6434937 14.8360615
-86.1627884 139.3424377 17.0362549
-88.4736633 139.0910034 18.9242554
-90.7981110 138.8786163 20.5538788
-122.4540253 138.6159210 25.2922859
-125.0431213 138.7812500 24.4467831
-127.6704407 138.9783783 23.3884449
-130.3284760 139.2160492 22.0723534
-133.0467072 139.4999695 20.4428120
-81.8908081 142.9359436 9.2457848
-84.1295471 142.5238647 12.1855383
-86.4066238 142.1840668 14.6114235
-88.6991119 141.9010925 16.6640377
-91.0231857 141.6625977 18.4218674
-122.7402878 141.3878479 23.2442665
-125.3442154 141.5700073 22.3063660
-127.9925156 141.7893066 21.1243496
-130.6845398 142.0558624 19.6418743
-86.6964264 145.1317291 11.5928507
-88.9822845 144.8042297 13.8985729
-91.2888641 144.5336914 15.8369198
-93.6168213 144.3134613 17.4688740
-95.9626923 144.1343994 18.8258743
-117.9274139 143.9382172 22.1791267
-120.4871216 144.0689087 21.5978470
-123.0784454 144.2357330 20.7860298
-125.7075729 144.4414215 19.7156773
-128.3846436 144.6970367 18.3467789
-91.6102524 147.5189514 12.6447153
-93.9279785 147.2566528 14.4840126
-96.2679138 147.0553894 15.9869556
-118.2881393 146.8422241 19.4390354
-120.8717499 146.9919586 18.7409477
-123.4888229 147.1845398 17.7798004
-94.3261719 150.3598022 10.6659203
-96.6524887 150.1069336 12.4307518
-99.0029144 149.9114990 13.8576431
-101.3790436 149.7702942 14.9663324
-103.7842407 149.6654968 15.8313904
-106.2088165 149.6084290 16.4340458
-108.6591797 149.5775146 16.8261700
-111.1392517 149.5932770 16.9865646
-113.6284485 149.6391144 16.9254951
-116.1690140 149.7370300 16.6014709
-118.7366867 149.8681030 16.0312309
-121.3427658 150.0479279 15.1716003
-101.8530579 152.9495850 10.7257166
-104.2482681 152.8242493 11.7166595
-106.6765747 152.7508545 12.4138737
-109.1321869 152.7222443 12.8257570
-111.6288605 152.7452087 12.9432278
124.5711823 1.3329628 74.7093811
119.7025452 1.3717571 76.2374268
118.5386887 1.3573617 76.3049011
117.3788986 1.3057364 76.2359009
113.9522629 1.2641433 75.4607773
112.8436432 1.2476927 74.9715958
125.2538986 2.4925876 78.5609436
124.0359268 2.5263348 79.0024109
122.8145599 2.5125554 79.4091949
121.6106415 2.5016918 79.7071533
120.4291687 2.4981434 79.8539429
119.2381287 2.4956579 79.9458542
118.0889511 2.4985459 79.9740372
116.9319305 2.4971166 79.9082031
115.7882004 2.4863360 79.7596588
114.6422195 2.4799693 79.5413437
113.5212402 2.4696872 79.2128296
112.4068451 2.4596009 78.7986603
111.2921371 2.4394951 78.2830734
110.2038574 2.4399729 77.7198563
109.1007919 2.4034929 76.9962769
129.8214569 3.6516552 79.2445984
128.5510864 3.6724715 80.0708313
127.2853165 3.6609728 80.7991257
126.0541306 3.6378736 81.3672409
124.8238220 3.6416695 81.8246613
123.6131363 3.6500435 82.2147522
122.4198990 3.6469741 82.5126190
121.2263794 3.6329732 82.7014008
120.0540466 3.6276309 82.8243866
118.8767090 3.6293855 82.8992157
117.7311325 3.6205778 82.8800507
116.5686035 3.6079786 82.7835388
115.4266586 3.5988555 82.6369781
114.2885895 3.5920718 82.4252930
113.1601105 3.5903664 82.1542511
112.0493927 3.5824914 81.7936249
110.9257431 3.5762923 81.3535233
109.8323059 3.5693042 80.8378067
108.7265244 3.5635505 80.2330856
107.6505203 3.5492976 79.5631104
106.5701294 3.5317998 78.7684479
105.5077362 3.5179734 77.8943787
104.4485245 3.4738214 76.8716049
130.6526947 4.7604413 81.6900101
129.3738861 4.7924790 82.4931564
128.1447601 4.7884803 83.1233521
104.1000977 4.6469407 79.9404221
135.4768677 5.8798537 80.5301361
134.1234131 5.9182787 81.7396240
132.8274384 5.9178119 82.7596512
131.5441284 5.9007587 83.6593170
130.2760162 5.9024310 84.4323196
129.0117188 5.8956213 85.0770874
127.7975540 5.8950419 85.6193237
103.8184814 5.7571216 82.5143890
102.7511063 5.7405667 81.6529541
101.6999359 5.7503710 80.7219086
100.6539993 5.7343478 79.6352158
99.6134796 5.6966815 78.4319153
135.0403442 7.0246315 83.4844360
99.3316650 6.8417068 81.0266113
138.6959534 8.1207838 82.4439011
137.3344421 8.1303368 83.7624969
136.0083008 8.1364784 84.9345169
134.6915588 8.1264143 85.9276581
99.1013794 7.9563618 83.2868958
98.0398865 7.9444122 82.2116699
96.9903259 7.9151659 81.0529327
141.0658417 9.2241440 82.2524261
139.6459656 9.2420321 83.7724991
138.3128357 9.2468672 85.0571823
136.9894104 9.2338867 86.1639328
96.7790451 9.0508995 83.2207413
95.7306747 9.0412521 82.0445251
94.6932373 9.0138617 80.7515411
142.0619202 10.3327188 83.2906876
140.6492157 10.3526964 84.8403931
139.2825317 10.3406925 86.1516953
137.9816589 10.3338509 87.2453613
136.6791077 10.3237152 88.2206879
96.5850525 10.1638908 85.1794281
95.5258408 10.1570616 84.0624466
94.4874878 10.1502504 82.8583755
93.4574738 10.1293468 81.5694809
141.6761169 11.4478331 85.7042084
94.2975082 11.2559738 84.7518921
93.2677994 11.2550068 83.5529404
92.2376556 11.2474442 82.2429504
144.1046448 12.5535040 84.9220428
142.7295074 12.5441351 86.4245987
141.3721466 12.5325527 87.7515182
94.1241150 12.3518858 86.4393768
93.0749588 12.3497868 85.2938690
92.0502243 12.3535604 84.0813599
91.0152664 12.3394737 82.7530670
145.1594391 13.6534290 85.5145264
143.7789154 13.6408672 87.0488739
91.8799438 13.4538651 85.7536545
90.8489380 13.4509373 84.4956970
89.8068848 13.4428444 83.1281738
88.7801743 13.4184151 81.6327209
144.8512878 14.7334690 87.5213470
143.4794617 14.7254038 88.9287872
91.7283630 14.5461206 87.2718048
90.6885681 14.5498285 86.0865784
89.6518097 14.5520439 84.7832336
88.6403809 14.5540190 83.3901825
87.5999908 14.5351467 81.8320465
147.3971405 15.8348064 86.1925507
145.9677429 15.8299675 87.8417969
144.5661011 15.8166695 89.3173447
143.2207642 15.8033037 90.5879745
87.4654846 15.6644516 83.5216141
148.5277863 16.9343052 86.3509750
147.0864410 16.9249916 88.0670319
145.7046204 16.9023762 89.5446320
144.3080902 16.8914547 90.9146881
142.9846802 16.8826523 92.0910110
87.3156662 16.7526569 85.0777130
86.2888031 16.7557907 83.5865173
149.6473846 18.0349236 86.4111786
148.2308350 18.0156269 88.1586838
87.1737823 17.8417358 86.4615707
86.1662216 17.8576164 85.0823212
149.3512726 19.1122894 88.1800995
147.9596710 19.0918045 89.7864761
87.0462112 18.9322624 87.7415009
86.0351410 18.9460506 86.4289551
85.0083466 18.9557667 84.9828033
83.9655304 18.9510803 83.3785248
150.5568237 20.1966648 88.0016327
149.1085510 20.1790981 89.7321701
147.7408447 20.1542835 91.2081146
84.8842621 20.0481873 86.2624893
83.8649750 20.0621147 84.7589951
150.3018036 21.2725716 89.5406036
148.8497009 21.2532406 91.1861572
147.4992676 21.2272167 92.5597992
84.7737274 21.1355515 87.4644547
83.7552948 21.1549072 86.0259552
82.7336578 21.1647224 84.4308624
151.5009918 22.3706131 89.2548141
150.0812836 22.3393326 90.9166412
82.6314316 22.2654762 85.6710968
152.7294464 23.4636364 88.8046265
151.2745667 23.4361172 90.6055984
149.8705139 23.3999882 92.1676483
82.5118408 23.3443642 86.7818069
81.4889526 23.3636703 85.2050171
153.9692841 24.5611877 88.2497101
152.5031128 24.5330296 90.1479111
82.4129868 24.4277420 87.8165283
81.3948669 24.4519367 86.3072968
80.3921967 24.4812889 84.6624832
153.7416840 25.6314659 89.5711823
152.3031006 25.5927677 91.3543930
82.3236542 25.5117378 88.7670135
81.3051605 25.5386143 87.3074799
80.2997437 25.5692387 85.7261200
155.0176697 26.7302265 88.8517685
153.5411377 26.6933689 90.7742462
152.1135712 26.6551819 92.4628296
80.2096405 26.6549454 86.7137985
154.8051453 27.7939739 90.0620117
153.3535614 27.7524967 91.8814850
151.9553833 27.7158852 93.4647827
80.1337051 27.7391243 87.6259918
154.6080017 28.8591862 91.1708527
80.0547562 28.8215847 88.4558868
78.9989014 28.8429718 86.8793564
155.9552155 29.9633732 90.2002640
154.4538574 29.9174500 92.1383972
79.9889145 29.9061852 89.2382660
78.9586258 29.9397774 87.7154846
157.2860260 31.0785942 89.1071777
155.7677917 31.0245972 91.1981049
154.2946930 30.9770069 93.0365448
107.6609344 30.5319099 108.4298325
106.5424500 30.5459347 108.1462555
79.9328995 30.9870586 89.9568481
78.8889313 31.0240135 88.4326019
77.8754883 31.0635090 86.8510284
157.0949249 32.1404877 90.1080322
155.6239624 32.0822868 92.0733643
154.1549072 32.0348625 93.8499527
109.7528839 31.5772572 109.3014221
108.6930695 31.5822258 109.0943146
107.5988235 31.5911102 108.8513641
106.4794083 31.5983181 108.5708771
79.8499527 32.0643005 90.5791473
78.8289795 32.1056557 89.1247025
77.8155670 32.1479187 87.5622559
76.7937851 32.1949234 85.8432083
156.9503784 33.2010727 90.9883041
109.7085190 32.6309090 109.7050629
108.6441193 32.6159172 109.5062332
106.4267120 32.6507187 108.9898224
105.3047104 32.6618271 108.6781998
104.2464371 32.6682358 108.3708496
77.7539597 33.2337379 88.2343369
76.7227554 33.2789307 86.5437851
156.8050842 34.2599106 91.8081055
109.6637573 33.6836052 110.1017761
104.1997604 33.7236252 108.7579041
77.6994934 34.3154297 88.8469391
158.1898499 35.3805695 90.5261307
156.6660004 35.3194504 92.5609131
125.3365097 34.7387466 110.6978378
124.2250824 34.7327576 110.8468246
123.0811691 34.7247772 110.9672546
121.9404526 34.7243004 111.0675812
120.7745209 34.7220116 111.1515198
119.6481247 34.7216110 111.1999741
111.8411636 34.7297859 110.7623291
110.7129593 34.7384262 110.6042633
109.6120453 34.7337952 110.4458389
104.1514053 34.7784233 109.1085281
77.6362610 35.3971596 89.3936691
158.0567322 36.4426193 91.2459488
156.5482330 36.3793488 93.2315521
125.2879333 35.7880363 111.0346298
124.1671677 35.7835045 111.1851196
123.0313721 35.7778702 111.3036499
121.8906250 35.7730713 111.4041748
120.7282791 35.7733040 111.4833527
119.6048126 35.7723198 111.5177078
111.8036270 35.7841682 111.0942383
110.6696930 35.7910957 110.9273376
109.5743103 35.7969971 110.7582474
104.1123199 35.8363419 109.4422150
77.5938873 36.4807243 89.9252701
157.9359589 37.5039864 91.9081726
156.4454498 37.4382477 93.8295212
125.2418900 36.8361740 111.3427124
120.6964264 36.8219948 111.7790375
119.5594482 36.8236198 111.8082275
118.4524307 36.8211594 111.8131714
117.3294220 36.8195267 111.8033752
116.1975555 36.8232841 111.7802200
115.0705414 36.8249588 111.7219696
113.9725494 36.8319130 111.6430817
112.8678131 36.8317108 111.5401001
109.5337219 36.8492203 111.0536270
102.9936295 36.9059486 109.3996735
101.9107819 36.9205437 109.0301514
100.8040695 36.9329300 108.6314697
99.7270203 36.9474030 108.2065048
98.6718750 36.9637642 107.7606430
97.5917664 36.9783669 107.2790222
77.5599747 37.5648422 90.3890533
157.8338165 38.5654678 92.4973145
156.3483276 38.4987411 94.3686905
125.2022018 37.8839417 111.6206818
120.6505508 37.8693390 112.0536499
119.5241165 37.8729057 112.0852509
118.4142303 37.8705330 112.0908051
117.2876053 37.8728256 112.0876999
116.1613922 37.8758926 112.0575790
115.0225601 37.8737717 111.9926300
113.9315491 37.8801346 111.9161682
112.8268661 37.8827591 111.8133011
102.9513474 37.9601898 109.6807327
99.6860733 38.0055733 108.4849701
98.6340942 38.0225754 108.0423050
97.5696716 38.0433731 107.5765991
77.5295105 38.6504974 90.8117142
76.4816895 38.7042542 89.2406693
75.4875946 38.7646370 87.6213684
157.7383575 39.6273041 93.0242157
156.2738190 39.5591736 94.8304138
132.1594238 38.9906731 110.3959045
130.9667053 38.9773483 110.7242126
129.7999725 38.9681854 111.0178680
128.6449585 38.9602470 111.2735367
127.4921646 38.9514160 111.4982681
126.3336639 38.9434471 111.7057953
125.1591034 38.9374924 111.8859406
114.9877930 38.9288902 112.2437820
98.5940094 39.0820656 108.3015137
97.5278778 39.1023865 107.8327637
75.4487381 39.8525085 88.0295563
159.1174622 40.7663956 91.5202713
157.6485901 40.6896591 93.4949493
156.1968231 40.6225471 95.2556992
132.1202545 40.0393410 110.6441498
130.9333801 40.0289688 110.9659805
129.7635803 40.0191040 111.2478027
127.4213257 39.9884377 111.7250290
98.5725021 40.1424103 108.5419464
97.4923096 40.1617661 108.0658264
75.4160309 40.9413109 88.3838882
74.4090500 41.0108910 86.6137390
160.6603088 41.9172211 89.6260834
159.0407867 41.8318405 91.9618225
132.0845947 41.0904579 110.8640671
130.8976898 41.0781479 111.1812897
100.6884613 41.1663933 109.6207199
99.6199112 41.1859932 109.2062759
98.5523911 41.2025757 108.7678375
95.3038025 41.2665710 107.2368698
75.3870621 42.0302010 88.7108612
74.3840790 42.1032143 86.9607697
158.9665375 42.8973465 92.3575745
132.0513000 42.1431656 111.0625076
130.8609314 42.1304970 111.3852386
100.6612549 42.2256050 109.8053970
95.2711945 42.3293686 107.4227066
75.3555603 43.1190796 88.9986115
74.3334198 43.1933975 87.2377472
73.3252258 43.2710838 85.3691254
158.9232483 43.9646950 92.6651382
134.3851013 43.2223091 110.5078049
133.1990814 43.2077065 110.8901062
132.0268097 43.1930733 111.2388153
130.8256989 43.1822281 111.5629272
95.2520447 43.3935509 107.5878983
94.2059021 43.4196091 107.0321503
93.1459503 43.4468155 106.4435043
75.3452454 44.2096863 89.2573166
74.3191986 44.2867241 87.5001297
158.8705444 45.0331726 92.9452209
134.3544922 44.2752228 110.6602325
133.1710205 44.2598076 111.0450287
131.9900665 44.2461281 111.3955841
130.8081360 44.2329941 111.7085114
94.1828995 44.4846878 107.1748581
93.1163788 44.5131836 106.5762939
75.3192139 45.3017464 89.4363403
74.2942505 45.3809280 87.6905136
73.2969208 45.4645844 85.8460236
72.2707596 45.5564766 83.7788696
158.8414917 46.1029739 93.1667862
134.3325043 45.3285217 110.7929230
133.1409302 45.3125153 111.1811447
94.1720047 45.5509758 107.2960129
93.1012573 45.5799332 106.6908875
73.2850494 46.5639915 86.0027008
158.8089142 47.1752281 93.3510895
134.3261719 46.3829041 110.8880005
94.1647644 46.6177368 107.3924713
93.0937271 46.6479416 106.7903442
73.2678070 47.6639595 86.1194382
160.3518982 48.3536491 91.3223572
158.7541809 48.2481956 93.4866791
134.3040771 47.4407768 110.9431458
95.2083893 47.6557922 108.0217972
94.1546249 47.6850395 107.4641724
93.0764313 47.7166023 106.8619003
92.0096512 47.7493362 106.2354355
90.9376221 47.7839050 105.5681534
89.8774109 47.8199654 104.8731232
88.8298874 47.8573990 104.1463776
73.2617035 48.7651291 86.2067947
160.3109589 49.4299240 91.4031754
158.7417145 49.3244514 93.5533295
134.2792664 48.4955406 111.0123520
133.0919495 48.4818230 111.3987198
94.1450958 48.7535324 107.5139465
89.8802490 48.8923187 104.9258957
88.8181305 48.9324417 104.1842499
73.2579346 49.8685379 86.2447433
134.2771149 49.5509148 111.0597000
133.0911255 49.5343323 111.4367447
94.1450882 49.8225555 107.5410233
89.8585968 49.9682808 104.9313507
88.8232956 50.0074043 104.2121582
73.2528763 50.9746628 86.2274017
134.2742310 50.6095505 111.0655289
133.0830383 50.5919342 111.4421082
131.9120483 50.5767365 111.7904663
96.2624512 50.8315315 108.6200485
95.1856232 50.8626938 108.0827332
94.1323395 50.8945427 107.5231323
93.0665894 50.9292603 106.9250717
92.0000000 50.9655342 106.2957687
90.9243927 51.0035896 105.6265869
89.8788910 51.0417519 104.9408264
88.8194351 51.0844498 104.2029877
73.2472916 52.0838852 86.1546707
160.3301392 52.6827087 91.3393555
158.7601471 52.5675964 93.4749069
131.9125671 51.6355438 111.7716980
130.7259827 51.6215286 112.0858307
96.2740250 51.9006233 108.5965958
95.1901398 51.9336166 108.0536652
92.0037766 52.0388985 106.2692032
90.9181519 52.0799332 105.5905991
89.8620911 52.1208954 104.8959198
88.8226166 52.1626663 104.1700287
75.2744446 52.9904289 89.6875305
74.2645798 53.0875053 87.9608002
73.2564163 53.1940079 86.0676041
158.7824860 53.6539993 93.3541718
131.9149323 52.6952553 111.7344437
130.7318268 52.6814728 112.0381393
96.2621155 52.9744759 108.5407104
95.1942902 53.0048294 108.0079422
92.0036926 53.1161232 106.2089233
90.9286499 53.1564789 105.5441437
89.8651428 53.1986237 104.8467712
88.8248444 53.2420883 104.1110916
75.2743988 54.0984421 89.5482178
74.2622681 54.1991730 87.8055573
158.7975922 54.7418060 93.1969147
131.9173279 53.7567291 111.6709290
130.7384033 53.7428513 111.9721298
96.2873688 54.0436058 108.4822845
95.1834564 54.0831070 107.9258652
94.1388397 54.1160431 107.3693466
93.0662994 54.1549683 106.7559052
92.0019836 54.1939812 106.1240311
88.8246765 54.3247681 104.0165253
75.2934113 55.2064743 89.3954010
74.2795029 55.3115921 87.6314545
-107.9480209 61.3252945 -7.7764516
-109.1562576 61.2974968 -7.3607788
-110.3943939 61.2938881 -7.0481830
158.8393402 55.8366470 92.9521866
131.9325104 54.8219223 111.5784912
130.7387695 54.8053436 111.8882599
129.5858307 54.7917175 112.1731873
128.4340210 54.7807617 112.4319458
96.2749100 55.1217346 108.3804703
95.2092056 55.1542587 107.8390732
94.1464005 55.1923447 107.2721100
93.0796127 55.2314568 106.6617737
92.0154877 55.2718887 106.0311890
88.8323898 55.4079857 103.9061508
75.3047943 56.3194427 89.1837082
74.2890167 56.4286461 87.3920364
-101.4350433 62.5186348 -6.7179031
-102.6271057 62.5012283 -5.7553258
-103.7815399 62.4630966 -4.9322000
-104.9970932 62.4261398 -4.2591124
-106.1912155 62.4008141 -3.7316117
-107.4216537 62.3775749 -3.2826123
-108.6369629 62.3589554 -2.9523692
-109.8828430 62.3486519 -2.7000148
-111.1366882 62.3269272 -2.5475769
-112.3979950 62.3256760 -2.4861808
-113.6646194 62.3521729 -2.5399518
-114.9501038 62.3705521 -2.6864169
-116.2800140 62.3589516 -2.9499040
-117.5766373 62.3631821 -3.2885528
-118.9372711 62.3872299 -3.8112421
158.8796539 56.9328766 92.6631546
129.5961151 55.8567505 112.0615234
128.4391022 55.8463783 112.3181915
121.5595779 55.7962074 113.2548904
96.2993851 56.1960297 108.2606430
95.2106400 56.2339897 107.7065811
90.9570084 56.3970718 105.2246475
89.9004059 56.4425430 104.5187683
88.8463669 56.4915085 103.7741241
75.3230133 57.4337616 88.9341431
74.3169022 57.5462952 87.1358032
73.2866058 57.6766205 85.1465073
-97.5290222 63.7304192 -5.8982019
-98.6890106 63.6924057 -4.6929770
-99.8466339 63.6351929 -3.6544085
-101.0103455 63.5817947 -2.7716908
-117.1287918 63.4573326 0.2958829
-118.4488983 63.4870605 -0.0770677
-119.7626648 63.5187912 -0.5344787
-121.1158752 63.5323219 -1.1296960
-122.4834747 63.5511932 -1.8363128
158.9452515 58.0362549 92.2912140
129.6147919 56.9235344 111.9286423
128.4588470 56.9115219 112.1857147
100.5954590 57.1469536 109.9617844
99.5283508 57.1736336 109.5518417
98.4522934 57.2076683 109.1019592
97.3675690 57.2421188 108.6071320
96.3027191 57.2767143 108.0901108
95.2160034 57.3145828 107.5466385
92.0289078 57.4381485 105.7369537
90.9581451 57.4845200 105.0495758
89.8918381 57.5335274 104.3323364
88.8584137 57.5801163 103.5989227
75.3319397 58.5557289 88.6157074
74.3350449 58.6713715 86.8180847
-94.8629608 64.9389572 -4.7141738
-96.0108643 64.8721313 -3.3809764
-97.1544571 64.8007126 -2.2732649
-98.3256226 64.7348709 -1.2933789
-99.4934845 64.6796494 -0.4201160
-100.6715851 64.6331482 0.3383359
-116.7613831 64.5181351 3.2308493
-118.0760880 64.5440063 2.9349680
-119.3764343 64.5780945 2.5686660
-120.7079010 64.6163864 2.0868509
-122.0418396 64.6590958 1.5224617
-123.4051132 64.6838150 0.8420672
-124.8028259 64.7107391 0.0066734
159.0077057 59.1421318 91.8905106
129.6307526 57.9897079 111.7678223
128.4816437 57.9787407 112.0193710
127.3093338 57.9653816 112.2510834
126.1661377 57.9598427 112.4454269
117.0876999 57.9568977 113.0431290
115.9698792 57.9649353 113.0006409
114.8537445 57.9678612 112.9422836
113.7414474 57.9858818 112.8537979
101.6944809 58.1932335 110.1929703
100.6175537 58.2173500 109.7974243
99.5466309 58.2498322 109.3806152
96.3215637 58.3557663 107.9193726
95.2402420 58.3931847 107.3754730
94.1850433 58.4350929 106.8043823
93.1153488 58.4777985 106.1917419
92.0570526 58.5195656 105.5533371
90.9873734 58.5687790 104.8660049
75.3719711 59.6759796 88.2932968
74.3342896 59.8060532 86.4098969
-91.1610565 66.2271805 -5.7278390
-92.2650681 66.1505051 -4.1423273
-93.4028549 66.0749054 -2.6975598
-94.5327301 65.9930649 -1.4511130
-95.6955032 65.9248047 -0.3158734
-124.3793640 65.8320770 3.0416346
-125.7429123 65.8706131 2.2593613
159.1037140 60.2575188 91.4134903
129.6538696 59.0627975 111.5722046
128.5028076 59.0497246 111.8300171
127.3313522 59.0383034 112.0689621
126.1869659 59.0313721 112.2685089
121.6164703 59.0105972 112.7924423
117.1062546 59.0229301 112.8757782
115.9983368 59.0307617 112.8327332
114.8734360 59.0382919 112.7658539
113.7773590 59.0485382 112.6803970
110.4353027 59.0927010 112.2558136
109.3453522 59.1088104 112.0674362
99.5629883 59.3280182 109.1854095
96.3408508 59.4367218 107.7282257
95.2514572 59.4780426 107.1687775
94.1952209 59.5218277 106.5920105
93.1370850 59.5639763 105.9841385
92.0745544 59.6086349 105.3387756
90.9973297 59.6584625 104.6421204
75.3959656 60.8054619 87.8883743
-88.6369934 67.5135193 -5.8344154
-89.7288208 67.4120789 -4.0119276
-90.8455811 67.3104248 -2.4301498
-91.9670029 67.2212830 -1.0566778
-93.1198807 67.1427078 0.1884008
-94.2556229 67.0758286 1.2733656
-95.4344330 67.0192413 2.2715566
-124.0430298 66.9108276 5.6312623
-125.3784943 66.9720840 4.9630022
-126.7587433 67.0325775 4.1615539
159.2034912 61.3784866 90.8598557
157.6781616 61.2373695 92.9915161
156.1920776 61.1180878 94.9101257
127.3618698 60.1062698 111.8656464
126.2078400 60.1007309 112.0629272
125.0579987 60.0946388 112.2256165
123.9417572 60.0936623 112.3628693
122.7761688 60.0853348 112.4937210
121.6470337 60.0847626 112.5914001
120.5068893 60.0823212 112.6619110
119.3899231 60.0898895 112.6975861
118.2652817 60.0908890 112.7057114
117.1266785 60.0959320 112.6846161
113.7970352 60.1237755 112.4873657
112.6778107 60.1351585 112.3720398
111.5764771 60.1474724 112.2290268
110.4707184 60.1598740 112.0587234
109.3767014 60.1813927 111.8661499
108.2837982 60.1964569 111.6558609
99.5842743 60.4094391 108.9623489
77.4499435 61.7078209 90.7702103
76.4191055 61.8200607 89.1422577
75.4361420 61.9349785 87.4501724
-87.2220306 68.6737518 -4.4067674
-88.3326263 68.5708847 -2.6273017
-126.4391098 68.1126709 6.6042428
-127.7931976 68.1784134 5.8202591
-129.1940155 68.2366791 4.9123306
-130.6029053 68.2868958 3.8721499
157.7597961 62.3536911 92.4516907
156.2600555 62.2253876 94.4268265
127.3904343 61.1820450 111.6341705
126.2459106 61.1770897 111.8242798
125.0855484 61.1687431 111.9872360
123.9644928 61.1643410 112.1315231
122.7913513 61.1577759 112.2636795
121.6757278 61.1595230 112.3593903
120.5356293 61.1566277 112.4321671
119.4166260 61.1614227 112.4727707
118.2913055 61.1617928 112.4865570
117.1556778 61.1723595 112.4634247
113.8245010 61.1974106 112.2674942
112.7009583 61.2079277 112.1477432
111.5964355 61.2254639 112.0013199
110.4892349 61.2420807 111.8327560
109.3956909 61.2554245 111.6473694
108.3009949 61.2750206 111.4344101
103.9427109 61.3723145 110.2853470
100.6834412 61.4612579 109.1511230
99.6016693 61.4972992 108.7232819
77.4847565 62.8357086 90.3314590
76.4639740 62.9487877 88.6777191
-86.9494705 69.7447739 -1.4964080
-88.0737915 69.6451874 0.0435289
-126.1591949 69.2134323 8.7445889
-127.5066299 69.2735291 8.0425577
-128.8846283 69.3407898 7.2262468
-130.2592163 69.4121780 6.3064036
-131.6777649 69.4707565 5.2552452
159.4400635 63.6429062 89.5576935
157.8812256 63.4813690 91.8123398
156.3795013 63.3486176 93.8171082
109.4194870 62.3361549 111.3950653
108.3275833 62.3585930 111.1765289
107.2276077 62.3770676 110.9399338
105.0371857 62.4292755 110.3550339
103.9631653 62.4581833 110.0175323
102.8745499 62.4865265 109.6595383
101.7948380 62.5136871 109.2929611
100.7084198 62.5465660 108.8948975
99.6319275 62.5815659 108.4592438
77.5171356 63.9677887 89.8235474
76.5146942 64.0834274 88.1313858
-83.4141998 71.1987228 -4.3523297
-84.5066147 71.0694504 -2.3309751
-85.6003723 70.9411163 -0.5929069
-86.7252579 70.8365097 0.9660280
-87.8527603 70.7422562 2.3362470
-131.3589172 70.5861359 7.5103159
156.4655151 64.4676514 93.2040710
109.4460831 63.4172707 111.1146545
108.3628693 63.4348755 110.8979568
107.2599487 63.4628983 110.6498413
106.1673050 63.4855728 110.3799973
105.0748367 63.5073242 110.0781631
103.9929581 63.5411301 109.7371826
102.8945313 63.5760574 109.3728256
101.8229065 63.5987396 109.0108337
100.7333374 63.6369476 108.6043854
99.6587830 63.6690598 108.1626511
77.5720825 65.1016083 89.2904816
76.5491486 65.2314758 87.5531540
-82.1060104 72.4087219 -3.5738516
-83.1661377 72.2634583 -1.6604285
-84.2881165 72.1409454 0.1314319
-85.3929214 72.0284500 1.6684809
-86.5373306 71.9446335 3.1287932
-87.6614990 71.8515701 4.3605847
-131.0854492 71.6915359 9.5440426
-132.4815979 71.7567368 8.5817862
-133.8886719 71.8455276 7.4942861
-135.3328857 71.9384613 6.2521238
158.1719055 65.7650452 90.3420334
156.5937805 65.5986176 92.4955673
155.1289825 65.4727707 94.3629608
153.6784821 65.3547821 96.0564575
79.6503601 66.0164337 91.7791138
78.6160049 66.1327286 90.2710648
77.6200867 66.2458801 88.6957397
-80.7876816 73.6169205 -3.1332836
-81.8788223 73.4781113 -1.0810611
-82.9634094 73.3534470 0.6668385
-133.6102753 72.9622345 9.4878426
-135.0329895 73.0525055 8.3625069
-136.4814301 73.1211243 7.1232948
156.7311707 66.7396851 91.7319870
155.2494354 66.6011429 93.6488113
153.8074036 66.4869843 95.3726196
79.7022095 67.1516876 91.2083969
78.6692886 67.2723465 89.6620483
77.6679153 67.3964462 88.0447693
-79.5019379 74.8527222 -2.8207483
-80.5751114 74.7007217 -0.7726414
-81.6781921 74.5695419 1.0797429
-82.7841797 74.4552917 2.6921656
-133.3614807 74.0763092 11.2692394
-134.7831421 74.1608734 10.2164392
-136.1667480 74.2620544 9.1079073
155.3717957 67.7376099 92.8735352
153.9055939 67.6096954 94.6768112
92.2726593 67.3031006 103.0010834
91.2126007 67.3603210 102.2685699
90.1581192 67.4246368 101.4942474
89.1087112 67.4920197 100.6753235
88.0514145 67.5611420 99.8042755
87.0091400 67.6346664 98.8956909
79.7533417 68.2950974 90.5726700
78.7259598 68.4200592 88.9813538
-78.2264099 76.1002960 -2.6912012
-79.3099670 75.9417725 -0.5449504
-80.3968658 75.8025208 1.3249468
-135.9158936 75.3735352 10.8965206
-137.3743439 75.4653778 9.6748657
-138.8146973 75.5741730 8.3585663
155.5412750 68.8944702 92.0096664
154.0365753 68.7483063 93.8821640
92.3154221 68.4165039 102.5377045
91.2516022 68.4770050 101.7968903
88.0851517 68.6869888 99.2870941
87.0548706 68.7583923 98.3744431
79.8104935 69.4475555 89.8590546
78.7815857 69.5814514 88.2110138
-76.9563675 77.3515167 -2.7487550
-78.0334091 77.1861115 -0.5341793
-79.1358871 77.0441895 1.4398148
-80.2256012 76.9147568 3.1421843
-135.6982880 76.4933929 12.5161076
-137.1270447 76.5870361 11.3928223
-138.5452576 76.6951294 10.1698818
-140.0341797 76.7866974 8.7770348
154.1900024 69.8986053 92.9860001
92.3750992 69.5265884 102.0614014
91.3020706 69.5939789 101.3024673
88.1422043 69.8087311 98.7517242
87.1029587 69.8863144 97.8102264
79.8803711 70.6036835 89.0892563
-75.7227173 78.6232605 -2.8791776
-76.7817535 78.4446411 -0.6146013
-77.8787842 78.2925491 1.4125063
-138.3031311 77.8189774 11.8144970
-139.7809296 77.9170303 10.5021420
154.3763123 71.0684509 91.9810104
92.4224396 70.6440811 101.5248260
91.3527527 70.7193222 100.7467804
90.3048630 70.7857819 99.9462814
89.2533951 70.8618927 99.0797272
88.1987762 70.9383011 98.1632538
87.1524658 71.0251236 97.1910400
79.9424133 71.7736511 88.2319031
-75.5440369 79.7124023 -0.8563296
-76.6330185 79.5522232 1.2696458
-77.7366104 79.4113922 3.1283844
-138.1000671 78.9461365 13.2875500
-139.5537109 79.0496674 12.0610352
-141.0011902 79.1420288 10.7702188
154.5592651 72.2428284 90.9121704
153.0694885 72.0784607 92.7783203
151.6391907 71.9520645 94.4696198
82.0407104 72.6832199 90.4544830
81.0258179 72.8110504 88.9560776
80.0245514 72.9495544 87.3345642
-74.3199539 80.9977722 -1.2463413
-75.4043655 80.8242569 0.9777099
-140.7638855 80.2943420 12.2603312
-142.2550354 80.3970795 10.8385286
153.2661438 73.2583389 91.6454391
151.8091583 73.1182022 93.4330521
82.1162720 73.8532257 89.5655594
-73.1166534 82.2957916 -1.8219604
-74.1726532 82.1107178 0.4950948
-75.2729721 81.9475250 2.5772209
-140.5654144 81.4244690 13.6295643
-142.0150757 81.5431213 12.3043919
151.9955750 74.2830429 92.3163605
84.2364960 74.7798004 91.4532700
83.2074051 74.9059372 90.0705338
82.2138748 75.0270081 88.5966263
-71.8840637 83.6014709 -2.6131785
-72.9848022 83.4072571 -0.0738496
-74.0399780 83.2281799 2.0444803
-75.1528397 83.0738449 4.0045271
-99.5404510 81.6282043 23.0443077
-100.7294083 81.6069031 23.3965702
-101.9371490 81.5822601 23.7121620
-103.1318512 81.5775909 23.9973946
-104.3643188 81.5558624 24.2311192
-105.5626373 81.5456924 24.4345016
-140.3871307 82.5614929 14.8970661
-141.8374023 82.6764984 13.6230202
-143.2908630 82.8147430 12.1492739
152.2080688 75.4775314 91.0640793
84.3247604 75.9522552 90.5256729
83.3001633 76.0862274 89.0825729
-71.7574615 84.7117157 -0.8618317
-72.8501663 84.5265961 1.4764173
-73.9409637 84.3603668 3.4958448
-75.0586700 84.2128448 5.3469572
-99.4625397 82.7875443 23.8717308
-100.6387024 82.7645493 24.2176208
-101.8567886 82.7411957 24.5351181
-103.0514450 82.7260742 24.7999058
-104.2768707 82.7137146 25.0315170
-105.4778748 82.7067566 25.2414837
-140.2180786 83.7066498 16.0636387
-141.6488495 83.8195343 14.8651085
-143.1090240 83.9424438 13.5238094
152.4710846 76.6996765 89.6587830
150.9503479 76.5194626 91.5905838
149.5254974 76.3830643 93.2557983
148.1315765 76.2699814 94.7296143
146.7910919 76.1687775 96.0177612
84.4078064 77.1396027 89.4832611
83.3999329 77.2719193 87.9843445
-73.8254089 85.4940872 4.7807894
-74.9536438 85.3550797 6.5423174
-99.3893127 83.9429016 24.6406231
-104.1923065 83.8804550 25.8090496
-105.3866425 83.8604965 26.0118752
-142.9421844 85.0855713 14.7089176
-144.3945007 85.2210236 13.3042507
151.2069092 77.7469406 90.2119598
149.7462616 77.5831070 91.9644775
148.3319244 77.4550934 93.5159454
146.9650879 77.3398438 94.9162674
84.5151215 78.3367233 88.3436279
83.5159302 78.4761429 86.7805405
-73.7143555 86.6258850 5.9905386
-74.8720474 86.5003052 7.6715636
-99.3156967 85.1023712 25.3564930
-104.1118240 85.0312805 26.5271835
-105.3098602 85.0285263 26.7427120
-142.7776337 86.2364883 15.7975063
-144.2291412 86.3693314 14.4476280
-145.7521057 86.4991455 12.9346037
148.5405273 78.6480789 92.2065735
147.1618958 78.5232010 93.6953735
86.6654358 79.2687683 90.0122452
85.6477051 79.4016876 88.6195679
84.6232452 79.5505829 87.0782166
-73.6149216 87.7816925 7.0688844
-74.7892609 87.6533279 8.6725082
-99.2471390 86.2647552 26.0358047
-100.4253235 86.2402649 26.3697433
-101.6346436 86.2239914 26.6906357
-102.8198471 86.2046127 26.9546776
-104.0444641 86.1909866 27.1993904
-105.2297897 86.1886673 27.4084377
-145.5622864 87.6553497 14.0517607
148.7847290 79.8692322 90.7329636
147.3848724 79.7263641 92.3152695
86.7726746 80.4832458 88.7689819
85.7710800 80.6182251 87.3238297
-73.5841675 88.9465485 8.0156069
-74.7187195 88.8137054 9.5992727
-99.1793976 87.4279022 26.6827888
-100.3608932 87.4103928 27.0267620
-101.5712128 87.3839722 27.3318748
-102.7606049 87.3693390 27.5964394
-103.9765320 87.3536758 27.8356285
-105.1671600 87.3474426 28.0420914
-145.4119110 88.8105011 15.0764046
149.0815735 81.1261063 89.0435181
147.6237030 80.9439087 90.7798004
146.1995850 80.8108063 92.3565369
144.8497009 80.7103653 93.6889801
88.9324875 81.4383850 90.1505508
87.9233398 81.5612259 88.8634872
86.9017792 81.7033005 87.4196167
85.8983765 81.8559952 85.8810120
-72.5092468 90.2053375 7.5677152
-73.5205612 90.1033859 8.9251184
-74.6617203 89.9727325 10.4706755
-145.2636719 89.9698792 16.0123577
-146.7354431 90.1079865 14.5656099
147.9301300 82.2078323 89.0034943
146.4609985 82.0427856 90.7451172
145.0781708 81.9184265 92.2225342
89.0630417 82.6588135 88.8291931
88.0579376 82.7863998 87.4665070
87.0330887 82.9475861 85.9168472
-73.4439011 91.2612991 9.7408810
-74.6052170 91.1421432 11.2902012
-145.1522064 91.1306076 16.8568001
-146.5984802 91.2746582 15.4504528
146.7749481 83.3246613 88.9532928
145.3603973 83.1581039 90.5494080
143.9463959 83.0247040 92.0231552
142.6104584 82.9242706 93.2685089
91.2636948 83.6258240 89.9836807
90.2284622 83.7547455 88.7354126
89.2033768 83.8937378 87.3753815
88.2036743 84.0373535 85.9209137
-73.3893967 92.4296112 10.5188808
-74.5467377 92.3062439 12.0357714
-118.4915085 90.9279556 29.9167690
-119.7543411 90.9510345 29.7322292
-121.0154648 90.9835205 29.5309753
-122.2502594 91.0185394 29.3028831
-123.5508728 91.0517807 29.0120449
-124.8023071 91.0961227 28.6988029
-145.0281372 92.2965393 17.6653824
-146.4719391 92.4423523 16.2801533
-148.0087585 92.5934219 14.7104034
144.2109070 84.2716827 90.3048630
142.8627014 84.1558151 91.6641846
91.3973389 84.8650360 88.5300446
90.3733902 84.9947510 87.2168808
89.3550262 85.1393814 85.7640381
-73.3547440 93.6094666 11.2529755
-74.4842148 93.4747620 12.6988544
-118.4335861 92.0996704 30.4179745
-119.6788101 92.1268158 30.2532692
-124.7394028 92.2638397 29.2203903
-144.9137573 93.4664917 18.4076977
-146.3529816 93.6107025 17.0526810
144.5305481 85.5572128 88.3276672
143.1337891 85.4073563 89.8621750
141.7733154 85.2895813 91.2117157
140.4143982 85.1819763 92.4292374
93.6041565 85.8641815 89.3655167
92.5777359 85.9806061 88.2066345
91.5586243 86.1129990 86.9238129
90.5410919 86.2610779 85.4908905
-72.2725143 94.8979187 10.5919456
-73.3039551 94.7815552 11.8954906
-74.4537125 94.6512756 13.3466911
-87.1199265 93.6769180 24.2502003
-88.2931213 93.6184387 24.9357719
-89.4572754 93.5659561 25.5685577
-90.6407013 93.5164185 26.1743183
-91.8089447 93.4716339 26.7386780
-92.9870911 93.4242477 27.2654819
-94.1598740 93.3885880 27.7521954
-95.3508911 93.3571777 28.2057343
-96.5317841 93.3203888 28.6144791
-97.7286911 93.2986755 28.9975281
-113.4158630 93.1984482 31.2492008
-114.6641693 93.2108231 31.2118683
-115.8917999 93.2249832 31.1328659
-117.1364365 93.2498703 31.0235348
-118.3826523 93.2724304 30.8891239
-119.6332397 93.2995071 30.7220535
-124.6802521 93.4379120 29.7075157
-144.8268433 94.6406021 19.0591736
-146.2424164 94.7830353 17.7579803
-147.7639160 94.9400787 16.2489834
143.4963684 86.7382126 87.7667389
142.0740814 86.5667191 89.2936783
140.7041931 86.4437256 90.6093597
93.7765732 87.1159668 87.7517090
92.7434692 87.2541275 86.4609528
91.7351913 87.3929977 85.0852203
90.7192383 87.5819244 83.5199890
-73.2471008 95.9571304 12.4790764
-74.4101105 95.8294754 13.9246368
-87.0816498 94.8507462 24.7228050
-88.2591248 94.7959290 25.4046726
-89.4181290 94.7419510 26.0264206
-90.6040344 94.6904907 26.6336880
-91.7620392 94.6421585 27.1848507
-92.9579620 94.6047974 27.7227879
-97.6717224 94.4661407 29.4219589
-113.3661652 94.3721695 31.6820278
-114.6131287 94.3796082 31.6396770
-118.3408356 94.4452515 31.3230000
-119.5928497 94.4729156 31.1497135
-120.8514938 94.5003662 30.9513206
-122.0882339 94.5346527 30.7288399
-123.3629761 94.5728836 30.4600334
-124.6309814 94.6143494 30.1535435
-144.7405090 95.8193130 19.6639709
-146.1501160 95.9618988 18.3929424
-147.6692047 96.1187363 16.9011250
141.0141907 87.7263489 88.5764618
139.6546478 87.5989151 89.8912201
138.3271027 87.5100403 91.0217590
96.0247803 88.1356201 88.3421860
94.9787598 88.2669525 87.1691284
93.9590912 88.3945618 85.9202728
92.9377670 88.5530396 84.5237350
-73.2043762 97.1389084 13.0196438
-74.3627167 97.0084534 14.4453621
-84.7230377 96.1609955 23.6935844
-89.3711853 95.9167404 26.4436169
-90.5652618 95.8708649 27.0519505
-91.7326355 95.8202744 27.6042995
-92.9142685 95.7761688 28.1302223
-97.6413422 95.6428909 29.8375664
-98.8404770 95.6162491 30.1954041
-100.0148087 95.5940704 30.5120869
-103.6294708 95.5432587 31.2982140
-107.2307739 95.5199280 31.8133888
-108.4497375 95.5227966 31.9291553
-109.6785965 95.5199203 32.0111160
-110.8738861 95.5283661 32.0573196
-112.1062164 95.5393677 32.0823669
-113.3249588 95.5482407 32.0759811
-114.5699234 95.5604248 32.0445099
-118.2827835 95.6231461 31.7310410
-119.5372925 95.6494904 31.5616035
-147.5642700 97.3010254 17.5180626
140.0088654 88.9426117 87.6858215
138.6394501 88.8015900 88.9790039
96.2124939 89.4186325 86.4934082
95.1796265 89.5549774 85.2240829
94.1664124 89.7133331 83.8464203
-73.1907883 98.3258820 13.5387058
-74.3377762 98.1927338 14.9406643
-84.6861191 97.3399506 24.0955467
-88.1870728 97.1486359 26.2174644
-89.3391724 97.0974731 26.8325539
-90.5206604 97.0454407 27.4247093
-91.7034302 97.0019150 27.9867783
-92.8885498 96.9567108 28.5065022
-94.0566177 96.9165649 28.9794750
-95.2371902 96.8825150 29.4237404
-96.4220123 96.8498077 29.8332176
-97.6033554 96.8203812 30.2175064
-98.8063354 96.7965775 30.5745831
-99.9846039 96.7712479 30.8782864
-103.5917892 96.7213135 31.6648178
-107.2135315 96.6971436 32.1719971
-108.4197998 96.6981659 32.2876549
-109.6481018 96.7019501 32.3787460
-110.8461914 96.7024155 32.4270706
-112.0788651 96.7127304 32.4463959
-113.3027802 96.7209320 32.4435425
-114.5287857 96.7377625 32.4233627
-115.7654343 96.7512131 32.3543320
-116.9951324 96.7765961 32.2416878
-118.2496338 96.7994385 32.1004868
-119.4930878 96.8279114 31.9391289
-147.5015869 98.4877777 18.0472374
-148.9736481 98.6524506 16.5561352
139.0281525 90.1590729 86.6093903
137.6611023 89.9970474 87.8947296
136.3199158 89.8959732 89.0512924
135.0234070 89.8120117 90.0337067
133.7400513 89.7420654 90.8844986
100.5957489 90.2427139 88.7212982
99.5310059 90.3642426 87.7517242
98.4985657 90.4739075 86.7443161
97.4510345 90.5959473 85.6153183
96.4400635 90.7323456 84.3800964
-70.8913345 99.7899246 11.1219587
-72.0397186 99.6531067 12.5442581
-73.1622925 99.5142517 13.9854345
-74.2994385 99.3800430 15.3658657
-84.6565781 98.5223236 24.4610519
-85.8199921 98.4552155 25.2069817
-86.9801483 98.3919373 25.9044018
-88.1660461 98.3363037 26.5813484
-94.0210190 98.0994873 29.3237801
-95.2093964 98.0602722 29.7669983
-98.7808533 97.9752426 30.9235535
-99.9598389 97.9507828 31.2138710
-101.1579285 97.9330139 31.5075340
-102.3424149 97.9163208 31.7736015
-103.5603180 97.9003448 32.0027885
-104.7491455 97.8919144 32.1961555
-105.9630508 97.8855438 32.3606186
-107.1799164 97.8813324 32.5005722
-108.3796463 97.8793716 32.6219940
-116.9535522 97.9587860 32.5743370
-118.2119751 97.9810028 32.4390106
-119.4577484 98.0087891 32.2782860
-120.7164917 98.0400467 32.0835152
-121.9590149 98.0748291 31.8622055
-147.4268494 99.6780777 18.5402641
-148.9028320 99.8445816 17.0519714
138.0857239 91.4086533 85.2410965
136.6841431 91.2604370 86.6227570
135.3399200 91.1204834 87.7832642
134.0466003 91.0381012 88.7515106
100.8046951 91.5609131 86.6980896
99.7605591 91.6704254 85.6784973
98.7311859 91.8005219 84.5445099
97.6959229 91.9621124 83.2660675
-70.8567963 100.9888382 11.4759483
-72.0228653 100.8463516 12.9602966
-73.1458740 100.7048645 14.4062443
-74.2708664 100.5707932 15.7566442
-84.6363220 99.7098770 24.8025188
-85.7914886 99.6420517 25.5306702
-86.9633331 99.5783310 26.2349072
-88.1345978 99.5169678 26.9005489
-93.9967194 99.2808228 29.6414623
-95.1786270 99.2442932 30.0796471
-98.7421799 99.1515427 31.2336407
-99.9188843 99.1337128 31.5273609
-101.1244354 99.1113052 31.8272934
-104.7255402 99.0702209 32.5015106
-105.9386749 99.0642471 32.6654434
-107.1420135 99.0609055 32.8074799
-108.3591919 99.0596542 32.9220009
-116.9312439 99.1399231 32.8757744
-118.1840515 99.1625366 32.7517166
-119.4203949 99.1921539 32.5904427
-120.6950455 99.2227631 32.3886185
-121.9219131 99.2583389 32.1739998
-147.3651123 100.8716202 18.9767723
-148.8245697 101.0410461 17.5065804
-150.3627014 101.2309494 15.8183708
-151.9380798 101.4333191 13.9739513
135.7688904 92.5451813 85.0334854
134.4071198 92.3821869 86.2691269
133.1101532 92.2830658 87.2761841
131.8378906 92.2127762 88.1209564
130.5636749 92.1506729 88.8724670
129.3228760 92.0937576 89.5210037
128.0859680 92.0487213 90.0787354
126.8854828 92.0186462 90.5315094
107.4396362 92.3387222 89.1735535
106.3667984 92.4009323 88.6052246
105.2804337 92.4933167 87.9167175
104.2198486 92.5743866 87.1930389
103.1514130 92.6746140 86.3519897
102.0989227 92.7763138 85.4320297
101.0580292 92.8902893 84.4056396
100.0124054 93.0418701 83.2158432
-70.8418579 102.1953049 11.7875919
-71.9900284 102.0434723 13.3205175
-101.1020126 100.2947617 32.1115532
-115.6691895 100.3051682 33.2452393
-116.9099960 100.3238297 33.1552849
-120.6673508 100.4082489 32.6726952
-121.8909302 100.4442902 32.4614487
-123.1685638 100.4822540 32.1990280
-124.4245148 100.5260620 31.9071465
-150.3046112 102.4333572 16.2251835
133.5645905 93.7319565 84.4017181
132.2257385 93.5917358 85.4395676
130.9039001 93.4992905 86.3614807
129.6538696 93.4359055 87.1128616
128.4058685 93.3776245 87.7743073
127.1891022 93.3328857 88.3178558
107.6907730 93.6641846 87.0224838
106.6206512 93.7358093 86.3945694
105.5381470 93.8288574 85.6604156
104.4728622 93.9250565 84.8288803
103.4252396 94.0362015 83.8788071
102.3865814 94.1603622 82.8618164
-70.8283539 103.4018860 12.0868216
-71.9776001 103.2427673 13.6611977
-96.3065796 101.5869141 30.9881668
-115.6393814 101.4888763 33.5070267
-120.6360245 101.5961304 32.9340019
-121.8565903 101.6317368 32.7269173
-123.1420441 101.6710052 32.4571609
-124.4020233 101.7152557 32.1599464
-150.2364502 103.6358414 16.6077576
128.7975922 94.7667389 84.9949493
127.5573807 94.6943665 85.6604614
126.3028259 94.6526337 86.2153549
125.0808182 94.6248322 86.6514816
123.8740540 94.5992279 87.0329590
122.6869278 94.5672989 87.3633423
119.1704559 94.5727921 87.7211990
118.0163269 94.5877686 87.7122040
116.8833160 94.6051102 87.6402130
115.7295761 94.6306229 87.4932404
114.6036758 94.6641235 87.2802658
113.4788361 94.7041245 87.0115585
112.3671875 94.7501678 86.6802216
111.2684174 94.8076706 86.2614288
110.1527634 94.8642731 85.7637939
109.0720749 94.9402466 85.1681061
107.9923859 95.0087509 84.5301895
-69.6939774 104.7745361 10.7457399
-70.8149567 104.6083603 12.3603287
-71.9574127 104.4472733 13.9261913
-93.9274139 102.8434372 30.3831978
-95.1187439 102.8074951 30.8239059
-119.3372879 102.7550659 33.3529587
-120.6153564 102.7866287 33.1608047
-124.3639984 102.9062881 32.3963394
-150.2150574 104.8495636 16.8781433
-151.7519226 105.0598221 15.0846701
128.0215607 96.1791763 82.3231812
126.7391205 96.0866013 83.0889587
125.5088043 96.0571899 83.6394806
124.2766418 95.9970398 84.1129303
123.0758972 95.9663239 84.4798050
119.5189667 95.9534149 85.0155487
118.3545151 95.9596939 85.0616684
117.2248383 95.9844284 85.0065765
116.0579071 96.0253677 84.8378143
114.9327545 96.0628204 84.5958710
113.8080902 96.0951691 84.2903976
112.7030869 96.1347046 83.9359207
111.6064148 96.1933517 83.4766083
110.5058212 96.2795715 82.8695221
109.4242096 96.3740997 82.2052002
-69.6886749 105.9879761 10.9752913
-70.8030167 105.8183594 12.5963621
-71.9445496 105.6566925 14.1477661
-93.9236450 104.0367126 30.5842247
-95.1039352 103.9992447 31.0206108
-119.3267899 103.9466095 33.5487900
-120.5897369 103.9805908 33.3525620
-124.3511047 104.1001740 32.5959969
-150.1807098 106.0657959 17.1249542
-151.7218628 106.2797165 15.3289118
123.5755844 97.5182953 80.8448029
122.3597260 97.4805450 81.2444916
121.1476593 97.4406738 81.4676819
119.9715881 97.4142532 81.5930481
118.7914352 97.4095993 81.7036591
114.2449417 97.5538940 80.8438263
113.1338348 97.6379242 80.4384460
-69.6732483 107.2057800 11.1546116
-93.9115295 105.2322769 30.7437057
-95.0912094 105.1952515 31.1733303
-119.3125992 105.1431198 33.7063942
-120.5706406 105.1770401 33.5143242
-121.8070908 105.2131653 33.2991486
-123.0820084 105.2539597 33.0449715
-124.3335342 105.2985077 32.7579575
-150.1576538 107.2866516 17.3206234
-151.7128754 107.5044861 15.5194874
-69.6822052 108.4256134 11.3119116
-93.9034958 106.4314651 30.8702850
-95.0898743 106.3933487 31.3049011
-96.2786713 106.3571930 31.7235394
-118.0600662 106.3125305 33.9895859
-119.3014832 106.3421097 33.8370476
-120.5598450 106.3761292 33.6474915
-121.7980957 106.4132004 33.4278984
-123.0778503 106.4552460 33.1711311
-124.3335114 106.4999008 32.8860092
-150.1479034 108.5143433 17.4534588
-68.5348511 109.8528976 9.5784950
-69.6772079 109.6522369 11.4048271
-91.5472107 107.7192535 30.0209637
-92.7349091 107.6731644 30.5231762
-93.9000015 107.6328888 30.9783955
-116.8010635 107.4849472 34.2352219
-118.0491562 107.5129776 34.1003227
-119.2891769 107.5433578 33.9382973
-150.1290283 109.7450867 17.5551338
-67.4545441 111.3024750 7.6896915
-68.5552368 111.0852661 9.6369572
-69.6808624 110.8836517 11.4535446
-91.5453644 108.9252243 30.0915642
-92.7277145 108.8792572 30.5963249
-119.3033752 108.7507248 33.9991722
-150.1258545 110.9831085 17.5914173
-64.2325745 113.4070892 0.1310185
-65.3152008 113.0718536 3.0255847
-66.3725815 112.7960358 5.4665756
-67.4719543 112.5466919 7.6661744
-91.5386047 110.1372375 30.1235123
-92.7370834 110.0862045 30.6400146
-119.2873383 109.9566574 34.0521164
-120.5561066 109.9931717 33.8742447
-121.7844543 110.0306168 33.6520462
-123.0657501 110.0765305 33.3760223
-124.3232498 110.1234436 33.0900955
-150.1395569 112.2302856 17.5566883
-64.2513046 114.6779861 -0.0130360
-65.3122711 114.3458252 2.8271036
-66.3778381 114.0592804 5.3193045
-67.4730225 113.8025513 7.5584803
-91.5475616 111.3488388 30.1380310
-92.7391129 111.2985382 30.6501389
-93.8987350 111.2579575 31.1105061
-95.0929413 111.2160339 31.5377598
-118.0505905 111.1356659 34.2368851
-121.7911377 111.2428513 33.6757507
-123.0722504 111.2899017 33.3937492
-124.3173523 111.3351593 33.1109619
-150.1535645 113.4821472 17.4727993
-65.3266068 115.6212845 2.6172998
-91.5647507 112.5621338 30.1212540
-92.7533798 112.5136719 30.6367912
-101.0381317 112.2834091 33.2861328
-102.2212524 112.2614212 33.5563583
-103.4409103 112.2426300 33.7958641
-110.6668625 112.2329254 34.5329056
-123.0817337 112.5064392 33.3838882
-124.3272018 112.5531998 33.0947075
-147.2081909 114.3301163 20.4825649
-148.6770020 114.5244675 18.9986935
-150.1916504 114.7440796 17.3207741
-151.7601929 114.9917755 15.4491177
-65.3480377 116.9057236 2.3258846
-91.5716400 113.7857666 30.0655861
-92.7540588 113.7361374 30.5875473
-101.0522156 113.4953766 33.2585983
-102.2248001 113.4781723 33.5133553
-103.4434204 113.4637451 33.7414513
-104.6371460 113.4517975 33.9352570
-115.5847778 113.5121765 34.4056091
-123.0896759 113.7256393 33.3334312
-124.3521194 113.7776031 33.0361366
-147.2399292 115.5871124 20.3272324
-148.6916809 115.7822495 18.8466682
-65.3828583 118.1994324 1.9753628
-66.4492950 117.8819046 4.6205683
-67.5320511 117.6053772 6.9661283
-91.5817719 115.0069427 30.0001240
-92.7699509 114.9554367 30.5191269
-93.9337921 114.9149551 30.9814758
-95.1184464 114.8680878 31.4295464
-101.0648651 114.7145004 33.1966591
-104.6547394 114.6657639 33.8358231
-105.8556213 114.6578979 34.0431595
-107.0585251 114.6589050 34.1941109
-108.2765656 114.6642456 34.2943153
-115.6062393 114.7362213 34.3247604
-116.8516235 114.7612610 34.2361526
-118.0876236 114.7894058 34.1067581
-119.3371048 114.8273315 33.9315948
-120.6091309 114.8686676 33.7267456
-121.8411331 114.9060364 33.5049667
-123.1130753 114.9537659 33.2443085
-124.3638916 115.0026627 32.9507523
-147.2787781 116.8506470 20.1177273
-148.7289429 117.0504150 18.6138229
-150.2922974 117.2912292 16.8635254
-66.4926376 119.1705551 4.2583108
-67.5804443 118.8822632 6.6619515
-91.6001434 116.2338486 29.9046001
-92.7972336 116.1786194 30.4187546
-93.9579697 116.1370163 30.8833370
-95.1370544 116.0931168 31.3360710
-96.3210602 116.0523834 31.7508526
-99.8720169 115.9630280 32.8004265
-101.0748749 115.9396439 33.0982018
-105.8688354 115.8798599 33.9422607
-107.0799637 115.8809586 34.0838623
-108.2886734 115.8837051 34.1935310
-111.9581299 115.9079514 34.3325768
-113.1622925 115.9189911 34.3300171
-114.4109421 115.9396591 34.2946434
-115.6251450 115.9592896 34.2278442
-116.8673859 115.9855957 34.1281281
-118.1059113 116.0156174 33.9952087
-119.3465424 116.0498428 33.8270607
-120.6175766 116.0918732 33.6192207
-121.8562622 116.1353226 33.3925247
-123.1306152 116.1823883 33.1296844
