102.0994339 55.6747818 116.5591431
97.8410339 55.8042870 114.6498871
78.1051636 56.9633408 96.6074753
77.1043549 57.0656013 94.9391785
161.2085266 57.6098709 99.0623627
159.7078400 57.4912033 101.0687256
158.2538452 57.3849182 102.8596725
129.6256866 56.4604149 119.3970490
102.0604630 56.7141876 116.8118515
97.8138885 56.8476944 114.9260178
78.0717850 58.0268173 97.0146561
77.0763245 58.1339989 95.3549042
161.0918732 58.6499481 99.6053619
134.2160034 57.5430222 118.5567398
133.0685425 57.5265198 118.8733902
131.9073181 57.5107117 119.1694946
130.7459564 57.5018463 119.4368210
129.5802307 57.4895706 119.6614227
100.9670715 57.7875748 116.6326675
99.8742828 57.8192749 116.1612244
98.8187027 57.8547745 115.6733398
97.7777481 57.8902779 115.1706696
78.0298157 59.0925331 97.3590317
77.0314789 59.2033653 95.6957703
161.0293732 59.6907654 100.0361633
134.1724701 58.5750313 118.8051453
98.7935333 58.8984146 115.9068756
97.7519226 58.9348755 115.3986359
78.0039825 60.1601868 97.6809692
77.0158463 60.2715187 96.0492249
76.0072327 60.3996964 94.2014542
160.9530334 60.7338715 100.4341431
134.1281128 59.6091957 119.0159073
98.7746735 59.9429665 116.1137543
97.7290268 59.9805679 115.5965118
96.6609802 60.0208549 115.0491333
95.6059265 60.0632935 114.4801254
77.9711838 61.2296638 97.9409409
76.9701080 61.3428726 96.3076019
75.9765167 61.4659767 94.5374298
74.9930420 61.5934525 92.6400986
162.4297638 61.9189148 98.6112595
160.8766785 61.7792969 100.8009644
134.1029816 60.6442909 119.1871796
98.7470627 60.9862900 116.2829132
97.6993866 61.0271416 115.7686844
96.6377411 61.0683823 115.2282562
95.5765076 61.1109390 114.6577911
77.9520187 62.3016243 98.1828995
76.9522324 62.4151535 96.5723114
162.3455200 62.9683266 98.9559326
160.8244019 62.8268127 101.0992737
134.0763855 61.6776123 119.3643036
132.9320679 61.6619034 119.6798859
131.7788544 61.6437225 119.9821548
96.6068726 62.1148071 115.3858566
95.5628052 62.1602325 114.8237000
94.4892807 62.2072105 114.2042465
93.4433975 62.2553329 113.5627518
77.9271545 63.3749542 98.3715515
76.9220276 63.4902077 96.7704468
162.2930145 64.0202179 99.2236176
160.7756958 63.8773956 101.3483582
134.0556641 62.7130241 119.5229111
132.9148254 62.6960945 119.8303604
94.4686966 63.2581329 114.3361740
93.4448624 63.3077736 113.7120895
77.9109039 64.4504395 98.5292816
76.9155045 64.5663452 96.9590149
162.2480469 65.0752411 99.4389267
160.7433624 64.9314499 101.5300293
136.3992767 63.7912445 118.9194641
135.2188416 63.7694321 119.2975464
94.4493942 64.3111191 114.4429245
93.4308624 64.3606873 113.8251648
77.8934555 65.5283051 98.6474380
76.9034958 65.6471863 97.0684052
162.2268524 66.1344910 99.5856018
160.7205811 65.9884949 101.6699371
136.3673096 64.8302765 119.0245132
135.2104492 64.8092651 119.3875732
95.5173798 65.3145065 115.1484680
94.4475021 65.3651199 114.5323181
93.4006882 65.4169312 113.8963928
77.8884125 66.6076813 98.7422943
76.8892136 66.7300873 97.1425858
75.8869934 66.8630371 95.3756790
73.8963242 67.1650696 91.4329910
162.1826172 67.1941071 99.7190628
160.6974945 67.0477600 101.7744293
136.3528595 65.8707352 119.0977478
135.1866455 65.8498535 119.4596710
134.0051117 65.8301392 119.8009415
96.5691223 66.3197250 115.7926407
95.5098495 66.3690948 115.2086563
94.4369354 66.4208450 114.5894623
93.3984833 66.4737854 113.9579773
92.3516235 66.5290070 113.2884827
91.3047028 66.5877075 112.5772247
77.8833771 67.6895599 98.7960129
76.8910828 67.8134766 97.2096710
75.8607407 67.9542923 95.4067764
74.9153137 68.0956497 93.5823975
73.8996353 68.2583389 91.4918060
163.8023834 68.4394913 97.3354492
162.1853485 68.2618713 99.7487488
160.6748657 68.1100464 101.8343277
136.3479004 66.9134674 119.1465302
135.1725159 66.8911438 119.5146179
133.9942474 66.8715134 119.8533173
96.5550308 67.3758850 115.8183212
95.5037384 67.4257202 115.2389832
94.4290009 67.4788971 114.6210327
93.3930817 67.5319443 113.9951172
92.3471680 67.5887833 113.3235016
91.2882233 67.6499176 112.5989914
77.8853989 68.7744446 98.8084183
76.8843231 68.9026184 97.1991119
75.8724060 69.0448685 95.4062576
74.9115143 69.1916046 93.5498810
162.2044678 69.3327560 99.7356567
160.6694946 69.1757355 101.8408813
133.9866333 67.9147491 119.8838120
132.8488159 67.8966675 120.1996689
97.6134186 68.3848495 116.3729858
96.5375519 68.4349976 115.8128510
95.5042572 68.4828033 115.2552643
91.2942657 68.7115860 112.6155319
77.8788300 69.8640289 98.7624435
76.8949203 69.9933624 97.1543121
162.2278137 70.4084702 99.6636429
160.6775513 70.2456360 101.7987671
133.9849243 68.9587631 119.8964081
97.6180801 69.4415970 116.3711624
96.5496902 69.4914093 115.8202209
95.5032806 69.5414963 115.2560120
91.2823486 69.7775040 112.5913544
77.8830490 70.9544373 98.7008820
76.8970108 71.0870438 97.0845718
-104.5918274 79.8109207 0.3376642
-108.2242584 79.7306900 1.5234002
-109.4844055 79.7415619 1.6709946
-110.7322235 79.7544250 1.7291024
-112.0172501 79.7739487 1.6272190
-113.3226700 79.7525024 1.4296948
-114.5952454 79.7622604 1.1169763
162.2209473 71.4840546 99.5729065
160.6816406 71.3179932 101.7199097
133.9858246 70.0064774 119.8733673
132.8647766 69.9863968 120.1568680
95.5054626 70.6023102 115.2229614
94.4306564 70.6599426 114.5943604
93.3894882 70.7181702 113.9504395
92.3357544 70.7797470 113.2676544
91.2987823 70.8416748 112.5593796
77.8860016 72.0490265 98.5958328
76.8921356 72.1844864 96.9815674
-98.2259979 80.9982452 0.6683925
-99.3877335 80.9306412 1.6892594
-100.5454254 80.8738708 2.5661426
-101.7344284 80.8073578 3.3029521
-102.8952255 80.7544556 3.9538851
-104.1156082 80.7033691 4.4698477
-105.3131180 80.6872101 4.9103513
-106.5505676 80.6688232 5.2368054
-107.7626648 80.6557159 5.4893494
-109.0217590 80.6457672 5.6328835
-112.8140182 80.6890564 5.5269198
-114.0914993 80.7062836 5.3143358
162.2358398 72.5661163 99.4096909
160.7177429 72.3996887 101.5502625
133.9931641 71.0545425 119.8269653
132.8597565 71.0360413 120.1305618
95.4931030 71.6552277 115.1730042
94.4289932 71.7266083 114.5330200
93.4035797 71.7828827 113.8982086
92.3400574 71.8479614 113.2042770
91.2953415 71.9129715 112.4871368
77.8934555 73.1487274 98.4395905
76.8896866 73.2898636 96.7985458
-94.3777771 82.1739655 1.0817078
-97.8173599 81.9258499 4.4719067
-98.9824524 81.8665161 5.3245602
-100.1656342 81.8135300 6.0684347
-101.3568420 81.7635345 6.7116518
-102.5372086 81.7238846 7.2581162
-103.7581787 81.6802826 7.6835890
-104.9542236 81.6709900 8.1005011
-106.1962280 81.6412354 8.3650436
-107.4082108 81.6351929 8.6076326
-108.6542206 81.6274109 8.7473049
-112.4282684 81.6552505 8.7467804
-113.6795883 81.6759491 8.6091404
-114.9857712 81.6988831 8.3673954
-116.2709656 81.7348785 8.0471096
-117.5992355 81.7951279 7.5968504
-118.9084015 81.8501892 7.0666809
-120.2654266 81.8710709 6.4344473
162.2866516 73.6570435 99.1652527
160.7499695 73.4814301 101.3509827
133.9951630 72.1039658 119.7692947
132.8609009 72.0885849 120.0818634
98.6714401 72.5753479 116.7339935
95.4826431 72.7415771 115.0871429
77.9136734 74.2484741 98.2621689
76.9193420 74.3922424 96.6130447
-91.7677460 83.3460083 2.0664744
-92.8943787 83.2456894 3.4474926
-94.0166473 83.1445084 4.6606512
-95.1735077 83.0603256 5.7680945
-96.3209457 82.9786606 6.6999664
-97.4910202 82.9141235 7.5286188
-98.6730270 82.8568344 8.2604580
-119.8515778 82.8968658 9.5808859
-121.1845856 82.9540482 8.9530792
-122.5482788 82.9867096 8.2148228
160.7952118 74.5697098 101.1020660
134.0157318 73.1595001 119.6804123
132.8642273 73.1395874 119.9928818
131.6934204 73.1200104 120.2842712
128.2539978 73.0862427 120.9566803
98.6865997 73.6406631 116.6251526
97.6237259 73.6937103 116.1030273
96.5589371 73.7474213 115.5506821
95.5146332 73.8011398 114.9714355
77.9290466 75.3542938 98.0339355
76.9414978 75.5016785 96.3674088
-88.1089935 84.6757050 0.6291234
-89.2133789 84.5517731 2.4812899
-90.3208160 84.4219055 4.0204945
-91.4322891 84.3154068 5.3502555
-92.5791626 84.2190475 6.5433636
-93.7168121 84.1372452 7.5944924
-94.8915634 84.0618057 8.5512066
-96.0376053 83.9960785 9.3699789
-97.2194443 83.9361115 10.1126614
-98.4040070 83.8866577 10.7900171
-119.5102692 83.9117584 12.2569885
-120.8391418 83.9680099 11.7084579
-122.1645660 84.0327301 11.0792999
-123.5339661 84.1010208 10.3365898
-124.8883591 84.1636810 9.5061483
160.8587189 75.6651154 100.7766953
129.4107971 74.1514206 120.6438980
128.2675781 74.1399612 120.8404083
99.7488785 74.6576538 116.9888916
98.6990891 74.7057495 116.4982452
97.6489410 74.7577896 115.9781036
77.9446793 76.4641647 97.7648773
-86.6941833 85.7910080 2.3703403
-87.7884064 85.6614838 4.1123405
-88.9028778 85.5329895 5.6359692
-124.5230331 85.2009735 12.1804113
-125.9144135 85.2826080 11.3110704
-127.2916183 85.3432922 10.3820343
162.5022125 76.9674225 98.0953217
160.9014893 76.7611084 100.4451447
129.4219666 75.2069168 120.5087662
128.2729950 75.1938477 120.7046738
124.8834229 75.1830597 121.1190491
123.7412949 75.1786041 121.2263947
113.7743454 75.2773743 120.9034119
104.0364609 75.5443420 118.5553665
102.9905319 75.5834198 118.1929855
101.9047318 75.6306915 117.7612762
100.8463287 75.6761856 117.3171616
99.7687988 75.7265472 116.8462448
98.7115631 75.7758560 116.3541489
97.6608887 75.8295593 115.8232880
77.9751740 77.5764542 97.4718704
-85.2982635 86.9194031 3.7473044
-86.4118042 86.7761078 5.4119043
-87.5228500 86.6451874 6.8751192
-88.6505966 86.5369949 8.2100229
-124.2176895 86.2315445 14.5187626
-125.5940704 86.3106766 13.7389984
-126.9584427 86.3961487 12.8803043
-128.3504028 86.4837646 11.9032679
-129.7613983 86.5566559 10.8119278
160.9993591 77.8734131 100.0322189
159.4696960 77.6936417 102.0858765
158.0265045 77.5442429 103.8650208
129.4437561 76.2651062 120.3586807
123.7635574 76.2400055 121.0679550
122.6550903 76.2371902 121.1458206
121.5321503 76.2466278 121.1788635
120.4186859 76.2495422 121.1967545
119.2955093 76.2600098 121.1801987
118.2050323 76.2793274 121.1551437
104.0519104 76.6121902 118.3980713
102.9960403 76.6545258 118.0164108
101.9100800 76.7030563 117.5871048
100.8576355 76.7464828 117.1538162
97.6735077 76.9032974 115.6435242
77.9952774 78.6990967 97.0854797
77.0071945 78.8628311 95.3367004
-82.8552551 88.2177505 2.9520807
-83.9643097 88.0670776 4.8912759
-85.0432968 87.9180908 6.4898996
-86.1704407 87.7944794 7.9730582
-129.4031372 87.6271515 13.2829828
-130.8336334 87.7148209 12.1506462
159.5424957 78.7987061 101.6388931
158.1109314 78.6498795 103.4333038
129.4623108 77.3218918 120.1837692
128.3383484 77.3123856 120.3587036
123.7862549 77.2973175 120.8992233
122.6819916 77.3045502 120.9583588
121.5535049 77.3058014 120.9968872
120.4394150 77.3136215 121.0144958
117.1181870 77.3422318 120.9011841
116.0115585 77.3622894 120.8149109
112.7383804 77.4230652 120.4304504
111.6403580 77.4497528 120.2369766
110.5500183 77.4760895 120.0148697
109.4611740 77.5032501 119.7796555
108.3768311 77.5345154 119.5288696
105.1546860 77.6424179 118.5795441
104.0680695 77.6836853 118.2145233
103.0173340 77.7228165 117.8342285
101.9390106 77.7705536 117.4085236
97.6948166 77.9780426 115.4478912
78.0394211 79.8216400 96.6850204
-81.5395355 89.3903809 3.8445477
-82.6099243 89.2216187 5.6932344
-83.7327271 89.0750961 7.4130979
-84.8340912 88.9520874 8.8825407
-85.9652328 88.8338470 10.1934185
-129.1070709 88.6660538 15.4563932
-130.5013428 88.7731171 14.4453573
-131.9116974 88.8735199 13.3339863
-133.3712006 88.9694443 12.0377102
159.6282959 79.9113617 101.1391754
158.1700897 79.7511597 102.9976883
129.4976501 78.3929367 119.9716644
128.3611298 78.3787079 120.1684799
127.2148209 78.3743362 120.3536148
126.0766144 78.3707047 120.5073090
124.9485550 78.3647690 120.6128311
123.8047256 78.3639526 120.6986313
120.4691544 78.3763962 120.8212280
117.1401749 78.4106445 120.7126770
116.0391235 78.4255066 120.6249542
114.9432068 78.4455566 120.5120239
113.8325806 78.4643555 120.3697205
112.7646332 78.4826965 120.2163391
109.4905090 78.5661087 119.5854416
108.3970032 78.6037979 119.3127975
107.3289413 78.6362381 119.0214996
106.2449036 78.6752625 118.7085876
105.1779785 78.7103500 118.3785858
104.0931168 78.7527771 118.0170364
103.0338745 78.7954865 117.6269531
101.9631577 78.8449860 117.1946716
100.9095230 78.8925400 116.7466736
99.8254700 78.9487305 116.2604523
98.7672501 78.9997559 115.7589951
97.7131348 79.0583649 115.2212524
80.0709991 80.6429291 99.4437332
79.0817032 80.7876053 97.9212418
78.0722198 80.9528503 96.2166595
77.0656967 81.1362991 94.4022369
-79.1571045 90.7497559 2.3171339
-80.2141876 90.5686340 4.4591722
-81.3071365 90.3989487 6.3955650
-131.6183929 89.9296265 15.4619522
-133.0289917 90.0396957 14.3170853
159.7656860 81.0443802 100.5615768
158.2548828 80.8627090 102.4859085
129.5245056 79.4570465 119.7427673
128.3864594 79.4460220 119.9509048
127.2449799 79.4329987 120.1312790
126.1009674 79.4375992 120.2741394
124.9788361 79.4301071 120.3895035
123.8399506 79.4322433 120.4808044
120.4950256 79.4444733 120.6042480
117.1626205 79.4813080 120.4945679
116.0612793 79.4911118 120.4062195
114.9688110 79.5167694 120.2829285
113.8597336 79.5373535 120.1413956
112.7817612 79.5569229 119.9918900
109.4996796 79.6455841 119.3500824
108.4277954 79.6728668 119.0866547
107.3552551 79.7079697 118.7974854
106.2752914 79.7468643 118.4849243
105.2087784 79.7831802 118.1553726
104.1192932 79.8280182 117.7839508
103.0558929 79.8734283 117.3832932
101.9913864 79.9200363 116.9518127
100.9192352 79.9755859 116.4894943
99.8441010 80.0261993 116.0048828
98.7935791 80.0792465 115.5022125
97.7448730 80.1371002 114.9684753
80.1107330 81.7674866 98.9996338
79.1258316 81.9166565 97.4490509
78.1005249 82.0950165 95.6853333
-77.8629761 91.9581451 2.7273409
-78.9314575 91.7667694 4.9795928
-79.9980545 91.5882645 6.8799162
-81.1079330 91.4340897 8.6154156
-131.3567352 90.9832687 17.3880577
-132.7292633 91.0995941 16.3554211
-134.1731110 91.2154007 15.1413574
-135.6136017 91.3192291 13.8509960
158.3560791 81.9843597 101.9006042
120.5208588 80.5153809 120.3595428
117.1954193 80.5471725 120.2521896
80.1460648 82.9011841 98.4887238
79.1622849 83.0571136 96.8975525
-76.5807037 93.1782150 2.9851508
-77.6518250 92.9727249 5.2802515
-78.7320404 92.7870941 7.2716150
-133.8976746 92.2770996 17.0723362
-135.3093567 92.3977127 15.8737946
158.4717255 83.1124725 101.2666626
120.5579529 81.5839691 120.0849228
119.4366074 81.5955353 120.0769653
118.3380814 81.6049576 120.0441437
117.2321472 81.6219788 119.9793320
80.1882401 84.0399933 97.9287338
79.2026672 84.2043076 96.2918243
-75.3095856 94.4127502 3.0557027
-76.3790207 94.1996536 5.4260054
-77.4577789 94.0027008 7.4659576
-78.5649719 93.8389130 9.3232365
-133.6613770 93.3429565 18.8052464
-135.0389099 93.4756851 17.7000465
158.5969849 84.2520981 100.5473404
157.0869598 84.0677185 102.4680634
155.7118073 83.9284821 104.0771255
80.2469940 85.1825867 97.3326721
-75.1329346 95.4382095 5.4308581
-76.1961670 95.2310333 7.5109496
-133.4646606 94.4202423 20.3605976
-134.8234558 94.5424881 19.3387032
-136.2634277 94.6658020 18.1366253
-137.6778717 94.8011398 16.8667526
157.2236328 85.2100601 101.7174225
155.8083649 85.0542679 103.4223938
80.3038330 86.3378296 96.6533813
-73.8791962 96.6882706 5.2217736
-74.9634018 96.4783554 7.4596014
-76.0439377 96.2878799 9.3830423
-133.2568665 95.5092926 21.8192654
-134.6050720 95.6237183 20.8670959
-136.0333862 95.7462158 19.7358723
-137.4338074 95.8830109 18.5405769
-138.9233093 96.0025101 17.1664810
157.3736572 86.3617554 100.8804016
155.9354858 86.1901474 102.6741638
82.3627777 87.1626663 99.0860214
81.3643570 87.3230591 97.5584564
80.3562012 87.5102463 95.8871536
-72.6811523 97.9571991 4.9450741
-73.7224121 97.7316742 7.2026234
-138.6794434 97.0989990 18.7658882
157.5415344 87.5286560 99.9732056
156.0626068 87.3365707 101.8593674
82.4281082 88.3187714 98.3702621
81.4317627 88.4871826 96.7979889
-71.4483185 99.2440186 4.3787136
-72.5322266 99.0061264 6.8933859
-73.5825882 98.7993469 8.9890900
-138.4624023 98.1921539 20.2358932
-139.9126434 98.3194809 18.9304619
156.2346802 88.5029755 100.9135284
154.7702026 88.3268280 102.7165527
153.3882294 88.1835175 104.2566223
82.5009537 89.4827957 97.5964508
81.5003128 89.6642990 95.9790726
-71.3110046 100.2989883 6.3116546
-138.2624054 99.2866974 21.5886803
-139.6764221 99.4305725 20.3466778
-141.1801147 99.5680389 18.9097214
156.4376068 89.6907120 99.8831177
154.9186401 89.4840469 101.7923508
153.5261383 89.3359680 103.4023666
82.5753326 90.6567001 96.7457123
-70.1248245 101.6061020 5.6382036
-71.1777878 101.3644867 8.0134869
-138.1119080 100.3853760 22.8091965
-139.5024567 100.5281448 21.6322327
-140.9449615 100.6802139 20.2920570
155.1065521 90.6640320 100.7424927
153.6916199 90.5029755 102.4386292
84.6543274 91.4989929 98.8985214
83.6460800 91.6677399 97.3997803
82.6549759 91.8487549 95.7918549
-69.9813385 102.6677780 7.2841282
-71.0563889 102.4414063 9.5224686
-72.1725616 102.2364197 11.5670280
-73.2489777 102.0552521 13.3002605
-140.7655182 101.7817230 21.5549583
155.3068695 91.8558655 99.6077881
153.8538818 91.6740723 101.4046097
84.7404556 92.6757660 98.0008316
83.7322617 92.8566437 96.4219894
82.7460175 93.0498123 94.7399750
-70.9515991 103.5298004 10.9034653
-72.0679169 103.3334961 12.8269939
-73.1632843 103.1607132 14.5205746
-140.5758514 102.8896179 22.7517109
-142.0277557 103.0467758 21.3876953
-143.5395508 103.2040329 19.8863258
154.0734253 92.8816833 100.2433167
152.6089325 92.6918640 101.9568405
151.2365875 92.5502014 103.4352875
86.8347702 93.5439987 99.8387604
85.8135147 93.7086487 98.4531021
84.8287811 93.8720474 96.9933395
83.8228455 94.0652924 95.3375778
-71.9826889 104.4419327 14.0007963
-73.0758667 104.2732391 15.6185789
-143.3470459 104.3253098 21.0638771
152.8205261 93.8910828 100.7870560
151.4096680 93.7241745 102.3670120
86.9296265 94.7265015 98.8834229
85.9113541 94.8996887 97.4340363
84.9395065 95.0723724 95.9263382
-71.9011459 105.5561371 15.0540409
-73.0016632 105.3903198 16.6362648
-143.1664429 105.4437180 22.1735039
153.0609283 95.1285095 99.4819412
151.6144409 94.9260483 101.1602707
89.0575256 95.6113129 100.4695587
88.0209045 95.7735443 99.1694641
87.0284729 95.9313202 97.8184662
86.0109558 96.1142197 96.2990112
-71.8308258 106.6795654 16.0499706
-72.9281921 106.5097885 17.5886459
-104.3824158 104.7520447 35.8955078
-105.5912552 104.7552490 36.0397301
-106.7931671 104.7470169 36.1399689
-108.0133820 104.7502899 36.2144852
-109.2357483 104.7596893 36.2671318
-110.4404449 104.7641296 36.2795715
-143.0289917 106.5618439 23.1751881
-144.5238647 106.7349701 21.6850414
151.8438416 96.1542435 99.8107986
89.1514969 96.8113480 99.4280243
88.1267548 96.9751663 98.0792007
87.1389236 97.1426163 96.6591873
86.1376266 97.3394547 95.0933456
-71.7575760 107.8036346 16.9795036
-72.8635864 107.6427536 18.4914322
-104.3209229 105.8905640 36.5099945
-105.5199280 105.8833466 36.6480637
-106.7280426 105.8866653 36.7575836
-107.9435272 105.8872681 36.8361740
-109.1642227 105.8954468 36.8891945
-110.3736267 105.9018631 36.9044952
-142.8919373 107.6864929 24.1189060
-144.3876343 107.8620605 22.6503296
152.1260834 97.4201202 98.2817459
150.6579132 97.2016373 100.0415115
149.2522888 97.0369720 101.6014633
89.2555008 98.0241699 98.2867889
88.2334061 98.2025299 96.8567657
-70.6603012 109.0811615 16.4358673
-71.6963272 108.9322357 17.8391914
-72.7953339 108.7755127 19.2868118
-104.2556534 107.0279999 37.0835800
-105.4621277 107.0265579 37.2315445
-109.1000214 107.0345459 37.4833298
-110.3024216 107.0445633 37.4961739
-142.7550812 108.8138428 25.0033646
-144.2300873 108.9927826 23.5818977
-145.6861572 109.1795502 22.0812531
150.9249268 98.4521484 98.4696350
149.4772491 98.2610855 100.1815491
89.3719711 99.2552719 97.0267944
88.3636093 99.4404678 95.5395508
-70.5902405 110.2077103 17.2861252
-71.6415253 110.0678253 18.6129284
-72.7494202 109.9128036 20.0404549
-104.2039185 108.1719818 37.6222763
-105.4155350 108.1660767 37.7752838
-109.0497284 108.1713104 38.0237846
-110.2409668 108.1875992 38.0408554
-142.6438141 109.9480133 25.8005486
-144.1228943 110.1240463 24.4038258
-145.5602417 110.3118210 22.9468594
151.2624664 99.7688065 96.6326904
149.7460938 99.5312347 98.6109848
148.3448944 99.3486633 100.1980438
146.9562378 99.1909103 101.6098175
93.5520020 99.8622742 100.6984329
92.5314178 100.0048218 99.5870438
91.5152588 100.1562500 98.3914490
90.5111542 100.3184738 97.0965271
89.5103912 100.5002594 95.6611938
-70.5225983 111.3491440 17.9854546
-116.3327484 109.4357300 38.1909676
-117.5725555 109.4695740 38.0218506
-118.8101196 109.5086594 37.8260651
-120.0783844 109.5449829 37.5914726
-145.4215851 111.4489441 23.7741108
147.2024841 100.4368744 100.0861053
93.6759796 101.0895309 99.4623337
92.6597443 101.2398834 98.2957230
91.6475296 101.4028320 97.0315704
-70.4412079 112.4944763 18.6375999
-116.2814560 110.5827789 38.6884499
-117.5202637 110.6146698 38.5230980
-118.7628784 110.6511841 38.3239250
-120.0146027 110.6946106 38.0940475
-145.3043823 112.5907822 24.5243244
147.5044403 101.7310715 98.3181992
146.1300049 101.5591431 99.7886505
144.7503510 101.4118042 101.1468964
93.8083801 102.3405151 98.1009674
92.8053741 102.4892578 96.8937759
-70.3809357 113.6441803 19.2598629
-89.8732834 111.9510040 35.0188217
-91.0274658 111.8990707 35.5289268
-92.2212830 111.8556290 36.0209503
-93.3803940 111.8125458 36.4665260
-94.5627518 111.7769089 36.8782730
-95.7314072 111.7390900 37.2507172
-96.9201889 111.7179184 37.6125641
-98.1110458 111.6902008 37.9323959
-99.2854004 111.6651917 38.2088776
-100.4795380 111.6507568 38.4688721
-101.6588287 111.6336517 38.6911583
-102.8801041 111.6194153 38.8973274
-104.0641022 111.6108704 39.0741730
-105.2655563 111.6073303 39.1984406
-106.4762115 111.6079102 39.2996597
-107.6798553 111.6108246 39.3838577
-113.7792206 111.6795731 39.3537598
-114.9972916 111.7008286 39.2681808
-118.7037430 111.8042297 38.7858810
-119.9648743 111.8451233 38.5506935
-145.2170715 113.7376862 25.1975536
147.8595581 103.0784836 96.3044968
146.4357147 102.8580017 97.9583206
145.0274811 102.6781311 99.4533386
93.9568405 103.5946121 96.6202393
92.9710922 103.7623749 95.3190155
-70.3375168 114.8126221 19.8080235
-89.8448181 113.1070175 35.4645691
-91.0021973 113.0552826 35.9680595
-92.1851959 113.0076675 36.4515457
-93.3384094 112.9691696 36.8937836
-94.5238495 112.9283981 37.3006439
-95.7044220 112.8934784 37.6761208
-99.2398148 112.8166504 38.6299744
-100.4458084 112.8017578 38.8918686
-101.6208191 112.7806396 39.1023560
-106.4186707 112.7631989 39.7338409
-107.6282654 112.7645798 39.8125229
-113.7266998 112.8343353 39.7744637
-114.9418335 112.8599854 39.6871071
-118.6570969 112.9561539 39.2053909
-119.9222946 112.9964066 38.9772301
-145.1456299 114.8911209 25.8057079
145.3363953 103.9976196 97.5347900
143.9654846 103.8312454 98.9556274
142.6123047 103.6819992 100.2296143
96.1650543 104.5558243 97.4547424
95.1594467 104.7101593 96.2752457
94.1356277 104.8889771 94.9316406
93.1469345 105.0795593 93.5058441
-70.2781296 115.9791718 20.2601109
-89.8070526 114.2589188 35.8693848
-90.9583054 114.2065887 36.3712578
-94.4870758 114.0856934 37.6876717
-99.2050095 113.9718323 39.0117264
-100.4160614 113.9539795 39.2787361
-101.5928345 113.9370117 39.4981918
-102.8041916 113.9274597 39.7053528
-103.9839478 113.9153976 39.8739967
-105.1782913 113.9123383 40.0150070
-106.3853073 113.9143066 40.1233711
-107.5912399 113.9177628 40.1986542
-108.8088531 113.9241180 40.2552834
-109.9968262 113.9329681 40.2829666
-111.2253723 113.9493561 40.2795715
-112.4486389 113.9663849 40.2375031
-113.6967773 113.9881287 40.1640663
-114.9018707 114.0143738 40.0704193
-116.1455612 114.0426025 39.9466934
-117.3839111 114.0749664 39.7904854
-118.6086121 114.1150894 39.6046371
-119.8760834 114.1546936 39.3808289
-145.0628510 116.0508270 26.3633690
-146.5317841 116.2490692 24.8824482
142.9187317 104.9967880 98.3280334
96.3362427 105.8497467 95.7621536
95.3416214 106.0145187 94.4815826
-69.1792755 117.3091736 19.3722038
-70.2553024 117.1493225 20.7251320
-89.7702179 115.4178009 36.2425117
-90.9099045 115.3646851 36.7587814
-95.6426926 115.2252274 38.4072914
-99.1758957 115.1290207 39.3699722
-100.3708344 115.1110458 39.6429291
-101.5558624 115.0929565 39.8653030
-102.7609634 115.0849075 40.0633583
-103.9416809 115.0718765 40.2337265
-105.1480179 115.0718689 40.3746300
-106.3537521 115.0693054 40.4697418
-107.5622559 115.0732880 40.5610123
-108.7646790 115.0777817 40.6376266
-109.9651489 115.0871582 40.6591797
-111.2041779 115.1007080 40.6444855
-112.4057312 115.1238251 40.6085129
-113.6544952 115.1436157 40.5348663
-117.3396530 115.2312317 40.1668663
-118.5708237 115.2714233 39.9719009
-119.8371964 115.3125153 39.7473984
-144.9842834 117.2132416 26.8853550
-146.4779358 117.4173431 25.3922215
-147.9553223 117.6363449 23.7854652
143.2895508 106.3853455 96.1216583
141.9052124 106.1789627 97.5438995
140.5614319 106.0364609 98.7473755
139.2424469 105.9203110 99.8240280
137.9762268 105.8247833 100.7503052
100.6326599 106.5557098 98.3712921
99.6003723 106.6861572 97.4105072
98.5602493 106.8387680 96.3257904
97.5621948 106.9878616 95.1881409
96.5385590 107.1774445 93.8586273
-69.1158371 118.4871063 19.7079086
-70.2254944 118.3175964 21.1472054
-89.7495804 116.5771713 36.5940781
-90.8849792 116.5291367 37.0882950
-95.6048584 116.3700638 38.7449837
-96.7955627 116.3415756 39.0857239
-99.1447601 116.2907410 39.6939964
-102.7293701 116.2409744 40.4010735
-106.3119812 116.2255020 40.8115120
-109.9592285 116.2346039 40.9938164
-118.5400696 116.4334106 40.3010750
-119.7922592 116.4760361 40.0829964
-147.8760223 118.8050690 24.2868862
140.9026489 107.3868713 96.5486603
139.5647583 107.2475586 97.7734528
138.2605743 107.1243439 98.8580627
100.8228836 107.8543930 96.6198349
99.8041000 107.9971008 95.5846252
98.7665634 108.1678925 94.3818741
-69.0810394 119.6666031 20.0568295
-70.1877289 119.4904556 21.5255775
-89.7232742 117.7411499 36.9034462
-90.8838501 117.6918182 37.3905907
-92.0638123 117.6458130 37.8537979
-93.2220383 117.6044540 38.2863998
-113.5792007 117.4679565 41.1765022
-114.7981033 117.4945984 41.0752563
-116.0269394 117.5249023 40.9561996
-117.2816620 117.5594940 40.7869110
-118.5232697 117.5974274 40.5965118
-119.7662430 117.6391907 40.3905716
-147.8244171 119.9790344 24.7292271
139.9436340 108.6592407 95.4189377
138.5907593 108.4775696 96.6430893
137.2783661 108.3570251 97.7088394
136.0185852 108.2555618 98.6300201
134.7360077 108.1701508 99.4381638
133.4896088 108.1049957 100.1161270
105.2082214 108.6718140 98.2780380
104.1449432 108.7960663 97.4665146
103.1060181 108.9172974 96.6033936
102.0648499 109.0562820 95.6302338
101.0458832 109.2013092 94.5882111
-69.0722504 120.8459930 20.4132671
-70.1808548 120.6666183 21.8984566
-87.3732147 119.0244598 36.0757446
-88.5223236 118.9638596 36.6398926
-89.6957855 118.9069443 37.1856346
-90.8560486 118.8569107 37.6833153
-92.0376282 118.8097458 38.1482239
-93.1997070 118.7670593 38.5777054
-113.5467987 118.6329880 41.4520073
-114.7742615 118.6599731 41.3471222
-115.9944305 118.6916656 41.2211037
-117.2468567 118.7260818 41.0594177
-118.4645996 118.7657776 40.8872604
-119.7317505 118.8061447 40.6707458
-147.7659454 121.1599579 25.1123962
-149.3357697 121.3998718 23.3767624
139.0386810 109.9486771 93.9343262
137.6566315 109.7588272 95.2327576
136.3657990 109.6233673 96.3133545
135.0627136 109.5152435 97.2497177
133.7985535 109.4312668 98.0463562
105.4290695 110.0090408 96.3298264
104.3839264 110.1325378 95.4691696
103.3551941 110.2655640 94.5114517
102.3218842 110.4261398 93.4159088
-69.0526047 122.0295639 20.7209091
-70.1564789 121.8481750 22.1958466
-87.3473587 120.1956253 36.3228073
-88.4950867 120.1353912 36.8860054
-92.0171890 119.9775085 38.4061203
-93.1754379 119.9388046 38.8095512
-94.3621750 119.8990860 39.2202225
-95.5340500 119.8613434 39.6103210
-99.0792542 119.7909698 40.4785385
-117.2070465 119.8960037 41.3224030
-118.4529266 119.9345474 41.1334763
-119.7108536 119.9789200 40.9119644
-147.7159729 122.3472061 25.4422169
132.8922119 110.7465363 96.4589386
131.6420746 110.6493912 97.1740341
107.7874603 111.1470947 95.7045441
106.7233810 111.2571793 94.9450378
105.6822205 111.3931046 94.0726700
-69.0462036 123.2161713 20.9976807
-70.1415863 123.0357132 22.4510059
-87.3299255 121.3706360 36.5414085
-88.4768143 121.3097000 37.1047325
-93.1544952 121.1123199 39.0123520
-94.3481598 121.0731049 39.4215355
-95.5117416 121.0363770 39.8006744
-96.6889343 121.0067749 40.1371841
-97.9026337 120.9875946 40.4218750
-119.6911926 121.1527176 41.1281624
-147.6831970 123.5408096 25.7132492
133.2978668 112.1954651 93.6548462
132.0200195 112.0622559 94.5171814
108.0884781 112.5462418 93.2578888
107.0243912 112.6743088 92.3856964
-67.8781357 124.6166687 19.5631886
-69.0223694 124.4122467 21.1914101
-70.1360626 124.2273331 22.6694279
-87.3206482 122.5483093 36.7342949
-88.4681320 122.4864120 37.3018265
-119.6775284 122.3293762 41.3195686
-147.6639709 124.7411041 25.9312859
132.5252533 113.6452789 91.1653290
131.2372894 113.5304947 92.1509018
129.9509888 113.4233551 92.9492111
128.7128601 113.3292389 93.5549469
127.4811630 113.2593613 94.1017456
126.3010101 113.2286530 94.4990692
125.0926056 113.1949844 94.8434448
123.9183197 113.1981812 95.0361176
122.7382813 113.1923981 95.1959610
121.5901566 113.1896057 95.2974548
120.4537964 113.2047501 95.3019104
119.3035736 113.2237396 95.2345123
118.1837311 113.2735443 95.0587692
117.0529404 113.3040161 94.8832169
115.9605331 113.3512344 94.6340790
114.8417740 113.4181824 94.2661667
113.7538605 113.5013428 93.8041077
112.6630859 113.5892792 93.2839813
111.5983047 113.6586380 92.7409592
110.5432434 113.7758942 92.0133057
109.4816742 113.9190826 91.1705933
108.4477234 114.0637054 90.2254181
-67.8743591 125.8180161 19.7379570
-87.3231964 123.7282104 36.9097519
-88.4590149 123.6655579 37.4750786
-117.1680679 123.4240265 41.8846016
-118.3977127 123.4641342 41.7009354
-119.6585083 123.5088959 41.4886627
-120.8848572 123.5565338 41.2481537
-122.1541901 123.6117325 40.9608917
-147.6490021 125.9466171 26.1077824
126.7706604 114.7935486 91.2042999
125.5412445 114.7083130 91.6371841
124.3531265 114.6838150 91.9201508
123.1597290 114.6646576 92.1461029
121.9943161 114.6494980 92.3068848
120.8491135 114.6721649 92.3437653
119.6944885 114.7007751 92.2677765
118.5625839 114.7187500 92.1271820
117.4345322 114.7586594 91.9103546
116.3475571 114.8314438 91.5873260
-66.7792664 127.2441025 18.1673908
-67.8818817 127.0229034 19.8815308
-87.3143082 124.9118729 37.0425186
-115.9142380 124.5688095 42.1833801
-120.8732529 124.7405930 41.3852806
-122.1435318 124.7964172 41.0947533
-147.6330261 127.1593781 26.2242966
-65.6810379 128.7110291 16.3304062
-66.7844009 128.4599609 18.2447491
-67.8776474 128.2361755 19.9609642
-87.2962494 126.1032944 37.1362076
-94.3117523 125.7902527 40.0348053
-100.2201538 125.6527100 41.5707321
-115.9083481 125.7558975 42.2767601
-119.6211090 125.8775711 41.7349205
-120.8657455 125.9287567 41.4873199
-122.1386414 125.9854431 41.1953125
-147.6325073 128.3811340 26.2757339
-149.1650848 128.6436768 24.5317459
-64.5955048 130.2221527 14.2221289
-65.6832047 129.9407654 16.3308125
-66.7992096 129.6791992 18.2865257
-67.8873444 129.4537048 20.0052929
-87.3045044 127.2924957 37.2220497
-88.4535141 127.2288437 37.7853127
-89.6288223 127.1711960 38.3085938
-113.4487762 126.8799744 42.5848656
-118.3856964 127.0264282 42.0038414
-119.6377182 127.0722046 41.7971039
-120.8681488 127.1218414 41.5522575
-122.1365356 127.1792450 41.2633476
-147.6475830 129.6090851 26.2885742
-63.5337677 131.7856598 11.7700787
-64.5993958 131.4641571 14.1482296
-65.6889496 131.1767883 16.2839394
-89.6373520 128.3657837 38.3514786
-90.7864990 128.3123932 38.8343315
-91.9778137 128.2579193 39.3244324
-106.1836777 127.9895935 42.5410080
-113.4559174 128.0741882 42.6262970
-118.3767776 128.2198029 42.0534897
-119.6324005 128.2664490 41.8427315
-147.6735840 130.8456116 26.2462521
-62.4290009 133.4248962 8.8609428
-63.5454559 133.0423431 11.6230087
-64.6145935 132.7111511 14.0407667
-65.7033081 132.4172668 16.2031040
-89.6366653 129.5661011 38.3724594
-90.7936935 129.5092773 38.8718414
-91.9602890 129.4581299 39.3560791
-100.2185745 129.2245636 41.7420540
-113.4635239 129.2712708 42.6361084
-114.6722870 129.3005066 42.5419807
-118.3845901 129.4173431 42.0784492
-119.6330872 129.4645081 41.8618050
-147.6930389 132.0880585 26.1537685
-63.5764961 134.3051300 11.4209814
-91.9850464 130.6550751 39.3528824
-97.8640518 130.4839783 41.1746292
-99.0255966 130.4444275 41.4764175
-104.9925003 130.3815002 42.4472122
-113.4829712 130.4760742 42.6219215
-114.6945114 130.5032196 42.5335007
-118.3982162 130.6210938 42.0690842
-119.6488800 130.6691589 41.8492012
-144.7563019 132.8588562 29.0385551
-146.2285461 133.0889740 27.5821972
-147.7365265 133.3434143 25.9795799
-63.6106033 135.5845947 11.1203680
-91.9939804 131.8653107 39.2963409
-97.8703003 131.6712341 41.1690292
-99.0317993 131.6475677 41.4538536
-102.6217728 131.5957031 42.1189117
-103.8082123 131.5907288 42.2853203
-105.0035019 131.5864563 42.4122467
-106.2106552 131.5912170 42.5145874
-114.6975861 131.7063446 42.4958878
-115.9442749 131.7485962 42.3594360
-117.1807404 131.7869110 42.2042770
-118.4044724 131.8254089 42.0286179
-119.6536636 131.8732910 41.8112679
-144.7842102 134.1054382 28.8843689
-146.2654114 134.3428802 27.3886738
-63.6379013 136.8764191 10.7461472
-64.6945267 136.5149689 13.3024950
-65.7665558 136.1988831 15.5602283
-92.0063934 133.0746307 39.2146606
-96.6843109 132.9113617 40.7809639
-97.8848114 132.8803711 41.0950089
-99.0500717 132.8529053 41.3842812
-100.2439423 132.8295593 41.6603317
-101.4185562 132.8162079 41.8785324
-102.6242218 132.8018494 42.0720100
-106.2247162 132.7955933 42.4603691
-113.5042267 132.8871613 42.5229416
-114.7201843 132.9197388 42.4174461
-144.8302307 135.3630676 28.6629982
-146.3163910 135.6063538 27.1444569
-63.6438065 138.1871033 10.2993717
-64.7371674 137.8023376 12.9273624
-65.7987747 137.4803619 15.2153101
-92.0292206 134.2911530 39.1193924
-93.1853485 134.2431183 39.5486755
-94.3619080 134.2023010 39.9583435
-95.5402222 134.1542206 40.3415031
-96.7171707 134.1251221 40.6868515
-97.9057159 134.0977173 41.0004387
-99.0656204 134.0677948 41.2899475
-100.2587204 134.0427856 41.5568428
-101.4435883 134.0259094 41.7815475
-102.6565704 134.0174866 41.9772911
-106.2313538 133.9988251 42.3829994
-107.4392395 134.0084686 42.4661713
-108.6586533 134.0234070 42.5094528
-113.5207367 134.1001587 42.4223709
-114.7439804 134.1364441 42.3136330
-144.8736115 136.6277161 28.3937798
-146.3763123 136.8796387 26.8517952
-64.7715302 139.1119232 12.4333000
-65.8373337 138.7706299 14.8074684
-101.4643402 135.2443237 41.6552467
-102.6722260 135.2329865 41.8489456
-106.2659073 135.2297668 42.2498093
-107.4580078 135.2215118 42.3397980
-108.6705170 135.2360535 42.3840714
-109.8742828 135.2516022 42.4062386
-111.0934601 135.2665253 42.4130974
-112.3103790 135.2940063 42.3769760
-113.5513535 135.3218384 42.2938614
-114.7680511 135.3540497 42.1860466
-144.9485321 137.9080200 28.0445423
-64.8095932 140.4365997 11.8497314
-65.8815231 140.0752106 14.3252745
-101.4838409 136.4651489 41.4995804
-106.2865448 136.4472046 42.0968170
-107.4838791 136.4499817 42.1864853
-108.7068253 136.4595947 42.2312851
-109.9005280 136.4732361 42.2547226
-111.1270294 136.4933319 42.2585678
-112.3243408 136.5098267 42.2206993
-113.5784912 136.5472717 42.1366196
-114.7879715 136.5764465 42.0325165
-145.0061646 139.1885986 27.6754761
-146.5372620 139.4653931 26.0852413
-64.8562851 141.7691193 11.2247744
-65.9393234 141.3885803 13.7721653
-101.5184021 137.6953735 41.3130836
-102.7284546 137.6795349 41.5175629
-103.9104614 137.6743927 41.6861572
-105.1067734 137.6715393 41.8194809
-106.3072357 137.6675110 41.9321404
-107.5189133 137.6759644 42.0072861
-142.2106628 140.0257568 29.9722595
-143.6405640 140.2452240 28.6627159
-145.0630035 140.4795074 27.2545357
-64.8801651 143.1446075 10.4233551
-65.9955292 142.7261963 13.0929489
-101.5442963 138.9256592 41.1077385
-102.7614746 138.9118958 41.3201752
-106.3345261 138.8979797 41.7288742
-107.5488815 138.9045410 41.7961235
-142.2767487 141.3143311 29.5313473
-143.7278595 141.5487518 28.1670742
-145.1823883 141.8010864 26.6903419
-66.0457916 144.0910339 12.2826385
-101.5850983 140.1556091 40.8692436
-102.7997742 140.1518402 41.0773773
-106.3810425 140.1450195 41.4718933
-107.5909042 140.1500092 41.5454254
-142.3742981 142.6257019 29.0056915
-143.8172150 142.8571777 27.6149540
-66.1119385 145.4637604 11.4224205
-101.6215744 141.4144745 40.5704193
-102.8238525 141.3884125 40.7817230
-104.0099564 141.3894043 40.9475517
-105.2174301 141.3937683 41.0751114
-106.4240723 141.3833618 41.1880493
-107.6316223 141.3920288 41.2640343
-142.4538269 143.9336090 28.4481201
-143.9427490 144.1920776 26.9681625
-66.1649170 146.8848267 10.3488789
-67.2736206 146.4449921 13.0756397
-68.3258438 146.1048737 15.3615589
-142.5686646 145.2647247 27.7928982
-67.3492584 147.8441772 12.0620136
-68.4022293 147.4826050 14.4432240
-142.6815796 146.6070251 27.0610447
-144.1964417 146.8979034 25.4636650
-67.3961868 149.2956848 10.8781948
-68.4717484 148.8852997 13.4512062
-69.5809860 148.5096741 15.7779999
-70.6280441 148.2257385 17.7028923
-139.9347229 147.4803467 29.0186195
-141.3649139 147.7130890 27.7012482
-142.8264465 147.9770813 26.2146950
-69.6486893 149.9239349 14.6822748
-70.7120132 149.6035767 16.7682629
-140.0326843 148.8242493 28.2524567
-141.4903412 149.0745544 26.8471565
-142.9773712 149.3601074 25.3045769
-68.6506195 151.7921143 10.8729076
-69.7542801 151.3488617 13.5041399
-70.8039780 151.0069122 15.7031975
-137.3708801 149.7579956 29.7973328
-138.7536926 149.9629974 28.6547298
-140.1914978 150.2041168 27.3270760
-69.8419266 152.8175507 12.1690054
-70.9094772 152.4342804 14.5002499
-137.4905853 151.1183624 28.9485970
-138.9118347 151.3475342 27.7117348
-140.3438110 151.5932007 26.3187656
-71.0247269 153.8980408 13.1129971
-72.1045380 153.5291138 15.4031334
-73.1631012 153.2426910 17.3293362
-137.6442871 152.5034485 27.9857082
-139.0684814 152.7458801 26.6792831
-71.1108170 155.4438629 11.4580202
-72.2312851 155.0040741 13.9795876
-73.2848282 154.6743469 16.0711784
-137.8158722 153.9139404 26.9026337
-72.3575134 156.5138550 12.3693275
-73.4138641 156.1527100 14.6195984
-74.5074768 155.8131104 16.7067261
-75.5783310 155.5392761 18.4911728
-135.1589661 154.8764038 28.2003555
-136.5629730 155.0997009 27.0284996
-138.0057373 155.3522186 25.6883717
-73.5353851 157.6798096 12.9724989
-74.6345215 157.2974091 15.2011509
-75.7066422 156.9915466 17.1394596
-135.3381042 156.3040314 27.0261421
-136.7279053 156.5294952 25.7930641
-138.2162018 156.8185425 24.3332386
-74.7730255 158.8395844 13.4821806
-75.8445740 158.4828491 15.5846348
-76.9275360 158.1912231 17.4396343
-78.0379868 157.9228210 19.1253433
-132.7545624 157.3255157 27.9753380
-134.1062317 157.5198975 26.9361687
-135.5489960 157.7699432 25.6719456
-75.9894257 160.0367279 13.8039799
-77.0752640 159.6916199 15.8260937
-78.1691208 159.4035492 17.6361542
-132.9402924 158.7731018 26.6912918
-134.3120728 158.9867706 25.5618114
-77.2332611 161.2568054 13.9481897
-78.3309326 160.9236145 15.9370861
-79.4067459 160.6495667 17.6571808
-80.5131760 160.3965912 19.2408352
-130.3693237 159.8310699 27.3652763
-131.7350922 160.0241089 26.3776379
-133.1534576 160.2562256 25.2277565
-78.4888916 162.5285187 13.9324493
-79.5727768 162.1900177 15.8631001
-80.6750565 161.9060822 17.6097794
-130.5816956 161.3221130 25.8955402
-131.9780426 161.5408478 24.7865067
-133.3956451 161.7863159 23.5376911
-79.7429504 163.8237457 13.7348108
-80.8536530 163.4752045 15.6756859
-81.9260254 163.2078247 17.3418541
-83.0510025 162.9527435 18.8863239
-128.0654297 162.4442596 26.2482929
-129.4184875 162.6249084 25.3270607
-130.8092804 162.8400726 24.2519569
-132.2278290 163.0914307 23.0182343
-81.0501480 165.1193848 13.3978691
-82.1200562 164.8056641 15.2777004
-83.2232285 164.5222778 16.9797859
-128.2962952 163.9657440 24.5928383
-129.6744995 164.1721039 23.5522194
-131.1004639 164.4253235 22.3450890
-83.4383774 166.1543274 14.7192707
-84.5300980 165.8635101 16.3668499
-85.6435623 165.6373901 17.8369255
-86.7564850 165.4109802 19.1921844
-87.8769836 165.2321472 20.3544903
-123.1351471 164.8230743 26.1001835
-124.4844055 164.9811249 25.3888206
-125.8118439 165.1406708 24.6193466
-127.1958313 165.3332214 23.7027626
-128.5532837 165.5417633 22.6889267
-86.9557800 167.0461884 17.0461388
-88.0691605 166.8173828 18.3798904
-123.3876114 166.3867645 24.2999611
-124.7512054 166.5608826 23.4985542
-88.2960281 168.4635925 16.0625038
-89.4244995 168.2522125 17.3866463
-90.5452423 168.0640411 18.5362988
-91.6990356 167.8837280 19.6194572
-92.8296814 167.7469788 20.5376377
-118.3921738 167.4404907 24.7257099
-119.7044907 167.5576935 24.2308159
-121.0120239 167.6878967 23.6609383
-122.3328781 167.8219910 23.0135975
-123.6624374 167.9873657 22.2423382
-125.0411835 168.1887512 21.3145676
-90.7920914 169.7510223 16.0844955
-91.9234543 169.5446320 17.3265038
-93.0445786 169.3669128 18.3703613
-118.6617432 169.0524292 22.6926498
-119.9716034 169.1734619 22.1331043
-121.2882080 169.3195801 21.4693222
-122.6441422 169.5012054 20.6881771
-123.9899597 169.7033691 19.7982178
-92.2178802 171.3046265 14.5147839
-93.3266144 171.1034241 15.7051945
-94.4840851 170.9187622 16.8085518
-95.6127472 170.7693176 17.7459831
-96.7695999 170.6389465 18.5729847
-97.9393082 170.5271301 19.3075199
-99.1123657 170.4196014 19.9690819
-100.3016129 170.3342285 20.5322914
-116.3564072 170.4821930 21.3421783
-117.6431351 170.5901794 20.8847923
-118.9667358 170.7249146 20.2966118
-120.2997437 170.8777466 19.6100044
-95.9196625 172.5509186 14.8125315
-97.0716248 172.4040680 15.7664919
-98.2189636 172.2541046 16.6437035
-99.3912811 172.1333313 17.3816204
-100.5854187 172.0478363 18.0042038
-116.7045288 172.2267761 18.6057835
-117.9963684 172.3503723 18.0462112
-119.3366241 172.5262756 17.3446331
-99.7542114 173.9773560 14.0769234
-100.9280701 173.8811340 14.8425741
-102.0920715 173.7937622 15.4593925
-103.2966003 173.7059326 15.9655991
-104.4833221 173.6295624 16.4087925
-105.7108688 173.5907898 16.7451286
-106.9276886 173.5878601 16.9388142
-108.1644287 173.5825653 17.0758934
-109.4042664 173.5949860 17.1195564
-110.6585312 173.6270599 17.0645676
-111.9302597 173.6868591 16.9027691
-113.1889725 173.7718506 16.6537380
-114.4943848 173.8898010 16.2888317
-115.7902679 174.0123138 15.8009930
-117.1346283 174.1728516 15.1198511
-103.7332077 175.7596283 11.9467669
-104.9024963 175.6792603 12.4880781
-106.1399918 175.6252136 12.8598156
-107.3516998 175.5905151 13.1425190
-108.6010818 175.6000824 13.2672138
-109.8536377 175.6263123 13.2609596
-111.1213684 175.6707458 13.1425238
122.8325577 18.7663422 80.5735626
118.7341919 18.7762661 80.7462387
117.0392838 18.7440815 80.3170319
122.5081100 19.3885822 83.0899887
119.0132904 19.3786964 83.1402512
118.4481049 19.3715115 83.0671768
116.7495651 19.3481617 82.7143402
116.1919937 19.3009434 82.4922562
115.6411743 19.2841759 82.3002319
115.0838470 19.2747498 82.0663834
114.5338058 19.2741261 81.8078384
113.9873810 19.2743359 81.4956207
124.6050720 19.8942642 84.6427231
124.0290680 19.9163074 84.7764587
129.9556427 20.4514198 83.8586960
126.8098984 20.4824886 85.6466904
126.2020111 20.4752102 85.8638458
125.5940704 20.4609070 86.0606308
124.9983597 20.4520741 86.2696228
124.3934021 20.4384937 86.4412308
123.7866287 20.4374580 86.5843887
108.6926498 20.3672600 81.9914780
132.6470947 21.4825993 85.5283585
131.9857483 21.5019493 86.0271683
131.3274841 21.5165329 86.4909973
130.6893005 21.5243301 86.8869476
106.3632889 21.4563770 83.1237640
105.7611237 21.4536152 82.8299179
106.5545883 22.1064548 85.7543182
104.9516602 21.9926071 84.2088547
136.0785522 22.5877514 85.7453766
135.4179230 22.5963249 86.3717880
134.7178192 22.6166210 87.0290756
134.0636139 22.6118965 87.5336990
106.9140701 22.5765972 87.6310577
106.3832245 22.5942211 87.1875076
104.7838364 22.5685654 85.7649918
104.2789993 22.5562916 85.2641602
103.7546768 22.5422115 84.6576767
103.2318802 22.5354214 84.0106659
136.4850769 23.1540718 86.8854294
137.5976257 23.6866322 87.2810364
136.9157562 23.7069302 87.9194336
136.2406311 23.7123661 88.5135651
139.8525391 24.7604637 87.7077179
139.1337891 24.7836533 88.4659500
138.4450836 24.7888470 89.1318283
97.7763748 25.8242416 86.4709091
97.2730942 25.8129311 85.6612625
141.9427185 26.3686352 89.2190475
96.6972733 26.3551464 86.0716782
141.6951294 26.9415493 90.6270599
96.6013336 26.9020386 87.3150406
142.8907623 27.4750118 90.4552841
96.4403992 27.5004272 88.6576080
144.0663452 28.0069027 90.2074890
143.3537903 28.0133801 90.9946747
142.6833038 28.0084324 91.6978149
96.3098831 27.9962196 89.6905746
95.7960739 28.0058537 89.0382690
95.2780762 28.0125351 88.3458252
94.7526627 28.0039444 87.6339035
94.2456512 27.9879646 86.9202728
91.8996964 29.6396561 87.0113144
146.1116333 30.1648960 91.8899155
91.8253250 30.1903172 88.0515060
91.3140106 30.1821594 87.3015213
147.3523102 30.7244377 91.3724594
148.5998993 31.2699890 90.7335358
147.8865662 31.2637863 91.6224899
147.1524200 31.2561779 92.5115204
90.6275558 31.2670345 88.4790192
89.4261703 32.3497620 88.6913071
149.4875183 32.8692741 92.3003845
89.3652878 32.8972816 89.5734482
150.1101990 33.3848495 92.3658142
149.3102264 33.3923302 93.3525620
89.2941437 33.4370422 90.4073868
88.7775803 33.4369164 89.6414261
88.2046661 33.9814987 89.6921310
150.4531403 34.5120049 93.6987076
88.1452484 34.5298576 90.4997482
87.6182404 34.5304985 89.7029495
151.7567596 35.0085907 92.6042252
87.0359039 35.0784454 89.6805267
152.3593445 35.5569649 92.5318680
151.5897675 35.5468063 93.5561752
86.9939575 35.6248932 90.4722977
86.4494781 35.6217880 89.6110992
152.9536133 36.0900154 92.4598236
85.8963623 36.1728401 89.5967789
152.5932922 37.1401634 94.3989792
85.7845154 37.2431946 91.0645523
153.1466675 37.6816254 94.3697281
152.4274750 37.6637497 95.2832565
85.7295380 37.7835236 91.7339554
85.2209625 37.7958603 90.9546051
153.7474976 38.2224388 94.2425308
84.6478577 38.3473740 90.7794266
84.1145020 38.3603745 89.9147186
154.3943481 38.7528687 94.0183640
153.5917664 38.7411156 95.0829773
84.5800247 38.8850975 91.4035645
155.0463715 39.2875252 93.7748718
83.4478531 39.9857025 91.0021362
82.4105606 40.5734329 89.8981323
154.6070251 40.8290405 96.1999588
82.3939743 41.1147194 90.5458298
81.8516541 41.1355896 89.5660782
154.4114075 41.3995132 97.0344696
81.3063126 41.6935806 89.1768723
156.5997162 41.9679909 94.6182251
155.8094940 41.9458160 95.6965942
155.0560455 41.9120293 96.6962509
154.3486481 41.8718414 97.5744171
82.2588959 42.7117119 92.2875137
157.1115570 43.0325623 94.9806213
82.2052078 43.2369270 92.8218155
82.1464081 43.7585373 93.3346405
81.6418304 43.7931252 92.4980087
156.8464355 44.0681381 96.3618927
82.0798187 44.2758217 93.8125000
82.0300369 44.7975426 94.2910309
158.1338806 45.1668587 95.5654831
157.9815369 45.6915016 96.2415619
82.9607925 45.7823524 96.6661453
158.6550598 46.2380257 95.7682266
157.8587341 46.2094345 96.8582611
82.9336929 46.3101692 97.0908356
82.4132004 46.3317299 96.4019852
81.8703232 46.3481598 95.6733246
159.2783508 47.2998886 95.7852783
159.0216980 48.3355789 96.9609985
78.7435226 48.7206001 92.2667389
158.9093781 48.8532257 97.4904556
159.6622467 49.4040413 96.8401718
158.8213806 49.3691444 97.9737625
93.0832901 49.4579887 109.3056335
92.5827942 49.4842224 108.9603729
92.0594940 49.5072708 108.5809708
91.5159302 49.5269279 108.1679535
90.9793243 49.5503349 107.7510071
90.4304047 49.5710602 107.3132248
79.6912918 50.2241631 95.2170639
93.0705566 49.9870911 109.5626450
90.3986053 50.0914726 107.5689545
79.6548691 50.7496109 95.5482712
79.1018295 50.7815895 94.6923370
78.5796661 50.8161163 93.8806763
93.0541306 50.5102119 109.8020554
90.3885117 50.6179161 107.8316116
93.0104599 51.0275192 110.0051422
90.3556137 51.1389656 108.0550919
161.4187927 52.6792564 96.3802719
160.6151276 52.6249733 97.5145645
159.8668823 52.5615501 98.5509644
77.5025482 53.0446129 93.4119263
76.9629745 53.0875511 92.4685974
161.3901062 53.1811447 96.6726837
111.1392899 52.1250114 118.1110840
110.5951462 52.1373940 118.0011673
