-102.4490356 155.2882080 50.3580017
-113.2812958 155.4738159 50.4170570
-114.4972839 155.5232544 50.2702484
-119.4398499 155.7636414 49.3668785
-141.8753815 158.3076782 37.1561813
-143.3095703 158.5857086 35.7040024
-63.6642914 161.0179901 20.9806557
-96.5730515 156.5951843 49.1011314
-97.7401505 156.5755310 49.3727722
-98.9218597 156.5526428 49.6141167
-100.1021881 156.5298462 49.8265724
-101.2845840 156.5197449 50.0087662
-102.4794846 156.5129089 50.1731567
-113.3165054 156.6907043 50.2309265
-114.5119629 156.7318268 50.0878601
-119.4688187 156.9856262 49.1735001
-141.9490051 159.5963440 36.7115707
-143.3826599 159.8833923 35.2303238
-63.7041206 162.3776855 20.2551727
-64.7800980 161.9502716 22.6853218
-65.8644562 161.5710602 24.9214554
-96.6151428 157.8182068 48.8905563
-97.7757416 157.7928314 49.1654434
-98.9584503 157.7664185 49.4111786
-100.1400375 157.7573700 49.6128311
-113.3563004 157.9226227 50.0037918
-114.5548706 157.9669037 49.8546371
-115.8082809 158.0293274 49.6685600
-117.0186996 158.0790405 49.4695435
-118.2737579 158.1448975 49.2196350
-119.5102005 158.2198639 48.9344559
-139.1700134 160.3725128 38.8798370
-140.5731812 160.6201324 37.6296616
-142.0275726 160.9009399 36.2088776
-143.4742279 161.2013855 34.6936874
-64.8438263 163.3065033 21.9129028
-65.9263153 162.9029846 24.2554493
-96.6358643 159.0578918 48.6372070
-97.8035736 159.0254517 48.9186172
-98.9846649 159.0003967 49.1597214
-100.1641235 158.9865417 49.3652115
-113.3949203 159.1569824 49.7383804
-114.5905151 159.2016907 49.5868111
-115.8455505 159.2660217 49.3953476
-117.0618896 159.3223724 49.1864052
-118.3205109 159.3943787 48.9351311
-119.5551758 159.4629211 48.6553993
-139.2603302 161.6731873 38.3796997
-140.6660767 161.9280090 37.0901833
-64.9058609 164.6928711 21.0246410
-65.9899139 164.2598267 23.4843559
-96.6829224 160.2975311 48.3534546
-100.2044525 160.2215118 49.0965424
-139.3445740 162.9847107 37.8184814
-140.7606659 163.2507019 36.4795952
-142.2476349 163.5643616 34.9826584
-64.9525146 166.1118469 20.0362091
-66.0656586 165.6397400 22.6136913
-96.7255936 161.5430908 48.0340347
-100.2449951 161.4732361 48.7853851
-139.4541321 164.3171692 37.1666451
-140.8890991 164.5988922 35.7802696
-66.1208038 167.0566101 21.6135902
-67.1903381 166.6508636 23.8752251
-68.2846527 166.2725067 26.0015659
-136.7531586 165.1479797 38.9544182
-138.1174469 165.3820801 37.8000412
-139.5677490 165.6604309 36.4538460
-67.2792206 168.0502777 22.8941746
-68.3570709 167.6537476 25.0898113
-136.8538055 166.4810791 38.2710304
-138.2539215 166.7375183 37.0354576
-139.6962433 167.0215454 35.6346397
-67.3330994 169.5080719 21.7283707
-68.4391022 169.0710754 24.0399570
-137.0088501 167.8524475 37.4579811
-138.3741150 168.1013641 36.2063828
-68.5359039 170.5152435 22.8464794
-137.1289368 169.2176056 36.6067810
-68.6302872 172.0044708 21.4893780
-69.6953964 171.5807648 23.7731171
-70.7750397 171.2037506 25.8611259
-134.4740906 170.1026459 38.0810585
-135.8629913 170.3446350 36.9261703
-137.2804260 170.6194916 35.6390305
-69.8201218 173.0458374 22.4372196
-70.8720627 172.6629028 24.5957146
-134.6046448 171.4850464 37.1614876
-136.0105743 171.7495728 35.9296722
-137.4579468 172.0523682 34.5537109
-69.9087906 174.6107330 20.8175354
-70.9971695 174.1509857 23.1767387
-131.9967499 172.4198761 38.3179970
-133.3660278 172.6459045 37.2839012
-134.7590179 172.8995667 36.1228333
-136.1792145 173.1821594 34.8160515
-71.1363754 175.6888123 21.5315952
-132.1672821 173.8443298 37.2676697
-133.5333557 174.0746307 36.1813164
-134.9570007 174.3528137 34.9212494
-71.2628555 177.3170013 19.6102524
-72.3175430 176.8315430 22.1666451
-73.3863754 176.4223022 24.2921734
-74.4775314 176.0686340 26.1985149
-75.5477982 175.7707214 27.8655319
-132.3382416 175.2786102 36.1137352
-133.7315979 175.5385132 34.9223328
-73.5061646 178.0029602 22.5840683
-74.6122360 177.5899353 24.6371155
-75.6794968 177.2554016 26.4581604
-132.5118866 176.7393799 34.8359337
-74.7617722 179.1696014 22.8481255
-75.8212280 178.7960510 24.8083725
-76.9218903 178.4643860 26.6122932
-78.0078964 178.1839447 28.1634216
-129.9546814 177.7362823 35.6950836
-131.3575287 177.9825897 34.5749359
-132.7500000 178.2582092 33.3577347
-75.9720612 180.4121399 22.8939152
-77.0775299 180.0261383 24.8593903
-78.1525345 179.7227173 26.5502625
-130.1623535 179.2354736 34.2509499
-131.5759583 179.5091400 33.0419922
-77.2609711 181.6375275 22.8651848
-78.3318787 181.2769470 24.7501793
-79.4194870 180.9620819 26.4559059
-80.4939117 180.7023315 27.9435711
-127.6278534 180.2786865 34.8311005
-129.0297546 180.5291290 33.7537956
-130.4022369 180.7790680 32.5976944
-80.6597061 182.2798462 26.1688004
-127.8737488 181.8347473 33.1552505
-129.2725220 182.1022034 31.9680061
-80.8574524 183.9194946 24.0517311
-81.9423218 183.6133423 25.7124767
-83.0558701 183.3398438 27.1953392
-84.1506195 183.1062012 28.4760780
-85.2826767 182.8691406 29.7003002
-122.7239685 182.5664520 35.0347137
-124.0461044 182.7460785 34.2726707
-125.4002533 182.9553223 33.3794556
-126.7824249 183.1924286 32.3596764
-128.1401978 183.4524841 31.2530479
-82.1570892 185.2980347 23.4089508
-83.2536926 184.9786224 25.0921783
-84.3498077 184.7099152 26.5202217
-85.4593353 184.4682007 27.8340778
-122.9510727 184.1241608 33.3259506
-124.3057404 184.3340607 32.4408913
-125.6667557 184.5751495 31.4407883
-85.6620178 186.1420135 25.6761036
-86.7649918 185.8938293 26.9587765
-87.8952560 185.6718445 28.1479683
-89.0184555 185.4898834 29.1785278
-90.1550140 185.3201752 30.1217022
-117.9656754 185.0740356 34.1146622
-119.2508698 185.2132568 33.5635452
-120.5834274 185.3800659 32.9018288
-121.8901291 185.5634766 32.1621780
-123.2265320 185.7610779 31.3032646
-87.0042725 187.5990143 24.5572739
-88.1220779 187.3489990 25.9047585
-89.2347641 187.1471100 27.0565128
-90.3671112 186.9382935 28.1339092
-118.2284927 186.7041321 32.1564522
-119.5230408 186.8549042 31.5315075
-120.8626251 187.0414124 30.7795658
-122.1863708 187.2339325 29.9248390
-123.5534515 187.4870148 28.9014168
-89.4932861 188.8923035 24.5064945
-90.6131134 188.6605530 25.7111778
-91.7358170 188.4719849 26.7645893
-92.8745346 188.3028870 27.7056885
-94.0282135 188.1409302 28.5656986
-95.1667023 188.0297089 29.2630005
-113.3320389 187.8548126 31.9129486
-114.6136932 187.9681702 31.5322418
-115.9003601 188.0876160 31.0769844
-117.1774292 188.2189484 30.5487137
-118.5118942 188.3854523 29.8802547
-92.0196381 190.2784882 23.9520454
-93.1503372 190.0762939 25.0495033
-94.2956619 189.8974304 26.0067329
-95.4294128 189.7484283 26.8429794
-113.6244125 189.5652313 29.5771599
-114.9126358 189.6875305 29.1185169
-116.2325058 189.8470764 28.5375996
-117.5210342 190.0130768 27.9006691
-118.8629074 190.2086792 27.0872498
-94.6202698 191.7991638 22.8166943
-95.7325439 191.6183319 23.8219967
-96.9103317 191.4267883 24.6979389
-98.0564957 191.3127747 25.4235668
-99.2307053 191.2091980 26.0815315
-100.4000854 191.1348572 26.6084194
-101.5913620 191.0651398 27.0451679
-102.7887115 191.0263214 27.3838272
-103.9964981 190.9982147 27.6419983
-105.2125244 190.9670410 27.8528461
-106.4120483 190.9765167 27.9384937
-107.6640320 190.9986115 27.9445915
-111.4070358 191.1593170 27.5045090
-112.6935730 191.2739563 27.1365891
-113.9860229 191.4049988 26.7033844
-97.3084564 193.5526428 20.7820988
-101.9550171 192.9888458 23.7366085
-103.1492081 192.9489746 24.1417770
-104.3515625 192.8994446 24.4293861
-105.5776367 192.8647766 24.6250534
-106.7865448 192.8686371 24.7256222
-108.0515137 192.9327698 24.6895866
-111.8367310 193.2054291 23.9749680
117.9230270 37.3662186 86.4348297
126.8357925 37.8127861 89.0412521
126.2289200 37.8000031 89.2791748
125.6198883 37.7931900 89.4818192
125.0183640 37.7868767 89.6341553
124.4303589 37.7937851 89.7831879
123.8416443 37.8027496 89.8836823
123.2354126 37.8172531 89.9339600
122.6739197 37.8470421 89.9437790
117.5915756 37.9257202 89.0504608
114.8949509 37.8915329 87.5125961
114.3607788 37.8762016 87.0922318
117.3406754 38.3683319 91.0624924
115.7043381 38.4434814 90.3725433
131.1776428 38.8254929 91.0197144
130.5325317 38.8335342 91.4475174
129.9186554 38.8404884 91.7970428
129.3237000 38.8469658 92.0642471
117.1237640 38.8368759 92.8727036
116.5869446 38.8425369 92.6798477
116.0395737 38.8711853 92.4780731
115.4829330 38.8952980 92.2105408
110.6886444 38.9976616 88.8426743
110.1675568 38.9411812 88.3322983
111.0108337 39.4959259 91.2378616
134.4761200 39.8690491 92.2794876
133.8045502 39.8788528 92.8215103
133.1506195 39.8782806 93.2878952
132.5320587 39.8710709 93.6651077
111.3423691 39.9241867 93.2515259
110.8178329 39.9584274 92.8891983
108.1899567 39.9516487 90.5876007
106.9510803 40.4700203 91.1718292
137.2166443 40.9237709 93.1872864
136.5523834 40.9280930 93.7788315
135.8689423 40.9249802 94.3313370
106.7878342 40.9989738 92.6628342
106.2920074 41.0150490 92.2021942
105.7861023 41.0265388 91.6605225
105.2640305 41.0286369 91.0193863
104.5742798 41.5375175 91.9316711
104.4246368 42.0647507 93.3390656
103.9129257 42.0677071 92.7718201
103.4168854 42.0731506 92.1932907
102.2372055 42.6158524 92.2956619
102.1035461 43.1489487 93.6508484
101.5971069 43.1537933 93.0309830
101.0903397 43.1606750 92.3771820
142.7143860 43.5611839 94.7085190
99.9295273 43.7161751 92.2698898
143.1380157 44.1042557 95.5433502
142.4374084 44.0896759 96.3007965
99.8137817 44.2606430 93.6302414
99.2984314 44.2560959 92.8789978
98.8086014 44.2663460 92.1593018
143.6259918 44.6126709 96.2040939
97.6865005 44.8249588 91.9076691
144.1076202 45.1277771 96.8515549
143.3778992 45.1193924 97.6493607
97.5699997 45.3489075 93.2367859
97.4342651 45.8432999 94.3964920
145.7784729 46.1729813 97.2086182
97.3169785 46.3442116 95.5067444
96.8060150 46.3520393 94.8317719
146.9474945 46.7241554 96.9697647
147.4268799 47.2426453 97.4494171
146.7101135 47.2355347 98.3042297
95.0817032 47.4286842 94.7905273
94.9940872 47.9521561 95.8310013
148.4558716 48.2702332 98.2320786
147.7200165 48.2567863 99.1077194
94.9110794 48.4693451 96.8271255
94.3821182 48.4768105 96.0953445
148.9887238 48.7844849 98.5514908
92.7985077 49.0692368 94.8149796
92.7084122 49.5907745 95.7626114
148.6078949 49.7704353 100.8279037
149.8426208 50.3175659 100.2757797
149.1227417 50.2970924 101.0966721
148.4383240 50.2621880 101.8395920
91.5255508 50.6641617 96.0259399
149.6532593 50.8171234 101.3080139
91.4657974 51.1901283 96.8884583
91.0142670 51.2564735 96.1122360
151.6657562 51.3975487 99.7410812
150.9349060 51.3761940 100.6270218
150.2208252 51.3430405 101.4586868
149.4962463 51.3108711 102.2756729
91.4016800 51.7168007 97.7443314
91.3186874 52.2082787 98.5575027
152.0010986 52.4271507 100.9268875
91.2183456 52.7002296 99.3252029
90.7265701 52.7366562 98.6177902
90.2310028 52.7723045 97.8876724
89.7176361 52.7857933 97.1088028
89.1209183 53.3168831 97.0815201
153.1208649 53.4810143 101.0811386
89.0871124 53.8463211 97.9144211
88.5526047 53.8629303 97.0713196
152.9538116 53.9784088 102.0164642
89.0134583 54.3573952 98.6451645
153.5558929 54.5039864 101.9744186
152.7908173 54.4763107 102.9184418
88.9468307 54.8575325 99.3527222
88.4285812 54.8801079 98.5912781
154.1083679 55.0609818 101.9976044
87.8441238 55.4248161 98.4917068
155.4807739 55.6201134 100.8493805
154.6759491 55.5887527 101.9286041
153.9756927 55.5346565 102.8029404
87.8132477 55.9518852 99.2127686
87.3025284 55.9810486 98.4240189
85.6655960 57.1271210 97.2430954
156.2975464 57.6787491 102.4252930
85.5693436 58.1550636 98.5872192
84.4794312 59.2722015 98.1314774
83.9487305 59.3152390 97.1830673
157.3691254 59.2490425 102.8021088
83.4023438 59.8807526 96.8756104
158.0284271 59.7841835 102.4745178
157.1937103 59.7455063 103.6078720
158.6703644 60.3231773 102.1617279
83.3209305 60.9016685 98.1267548
82.8097000 60.9495430 97.2094193
83.2674637 61.4188194 98.7031097
159.0079498 61.8727226 103.3090897
158.2457733 61.8140221 104.3339005
83.1471024 62.4105759 99.8317795
159.6550751 62.4200859 102.9184723
159.5149689 62.9151230 103.6013489
83.0822296 63.4358101 100.8592911
82.5480576 63.4811592 99.9914780
160.1987457 63.4610138 103.1501846
159.3869171 63.4078026 104.2597885
83.0463486 63.9533119 101.3235703
159.2574310 63.9000549 104.9025803
83.0191574 64.4681702 101.7938995
82.4885483 64.5125198 100.9478989
81.9768524 64.5607147 100.1265488
82.9700394 64.9768677 102.2052612
82.4596024 65.0300827 101.4024124
160.6284027 65.0045776 103.9166565
82.9193649 65.4841461 102.6087112
160.4958344 65.5073776 104.5276260
80.8597260 66.2238693 99.6846085
161.1676331 66.0640869 104.0178909
160.3823395 66.0029373 105.0969772
80.8257828 66.7463379 100.1014709
81.8440323 67.1415329 102.2664948
81.3465195 67.2022781 101.4526825
161.6856232 67.1259460 104.1073303
81.8087616 67.6487274 102.6588364
161.6010590 67.6209259 104.6098404
81.7697754 68.1603851 103.0358200
162.2688446 68.1852341 104.0674210
161.5010986 68.1166458 105.1300964
162.1755829 68.6778641 104.5753937
161.4000702 68.6103058 105.6466370
81.6819229 69.1786880 103.7210693
81.1553345 69.2300262 102.9478455
161.3254700 69.1015396 106.1067200
81.6418762 69.6940689 104.0186005
118.3434753 68.2853317 126.1697311
117.7982635 68.2921143 126.1291428
117.2739410 68.3018799 126.0752640
116.7409668 68.3134766 126.0091629
81.6373672 70.2124100 104.3677368
81.6237259 70.7287064 104.6828232
81.0955124 70.7832947 103.9199448
115.0473557 69.3431244 126.1636276
114.5083694 69.3539276 126.0789642
113.9455566 69.3614883 125.9841766
113.3833160 69.3745499 125.8883133
162.5671082 71.2327423 105.7357483
115.0349121 69.8535995 126.3572769
162.4826050 71.7357941 106.1435013
115.0035248 70.3536606 126.5399475
109.6199188 70.4806747 125.4402924
109.0662689 70.4942017 125.2859802
108.5219574 70.5138931 125.1302338
107.9666443 70.5183563 124.9623795
81.5405655 72.2765350 105.4991989
114.9816666 70.8586807 126.7227859
109.5898972 70.9852982 125.6132050
81.5271378 72.7937088 105.7695541
81.0049362 72.8553162 105.0054245
80.4852982 72.9211884 104.2155838
120.3998566 71.2958527 127.3809128
119.8630981 71.2983856 127.3582306
119.3241272 71.3013153 127.3325806
118.7627869 71.3036118 127.2988129
118.1867905 71.3161774 127.2609406
117.6462555 71.3162460 127.2154236
117.1359024 71.3305359 127.1721268
116.5932312 71.3366776 127.1181870
116.0404816 71.3467102 127.0525055
115.5020981 71.3585434 126.9803314
109.5750656 71.4923477 125.7818909
106.9122696 71.5747681 125.0189133
105.3058090 71.6278610 124.4559555
104.7900238 71.6524811 124.2658615
104.2350998 71.6694946 124.0471039
103.6840897 71.6891861 123.8213577
120.3778687 71.7977982 127.5448685
117.6188660 71.8281326 127.3850479
117.0961990 71.8438263 127.3426743
109.5341110 71.9951096 125.9339981
103.6583710 72.1976547 123.9912949
162.2050018 73.7455673 107.5470810
128.1196899 72.2775040 127.4106827
127.5615234 72.2757492 127.4762268
127.0195084 72.2735138 127.5296402
126.4774551 72.2689896 127.5725403
125.9105606 72.2758636 127.6168823
125.3452759 72.2793732 127.6595535
124.7897720 72.2750397 127.6982651
124.2397385 72.2717667 127.7332611
123.6602097 72.2767105 127.7645645
123.0889053 72.2800217 127.7826996
122.5443954 72.2821884 127.7843628
122.0119171 72.2871552 127.7720566
120.3639069 72.2968521 127.7048874
117.6051331 72.3252792 127.5394211
117.0812302 72.3369370 127.4998016
112.7245636 72.4213791 126.8486557
112.2052078 72.4373703 126.7524643
111.6764984 72.4481812 126.6412888
111.1463318 72.4645386 126.5190964
110.5939178 72.4736557 126.3783417
110.0456924 72.4868622 126.2327194
108.4357071 72.5351257 125.8061218
101.0268555 72.8153687 123.0335236
100.5059052 72.8401108 122.7852783
77.4573746 74.9367752 99.6516724
162.1269836 74.2491913 107.8840179
128.0968781 72.7843170 127.5738297
121.9887543 72.7852478 127.9324570
120.3402481 72.8024979 127.8665771
118.1250305 72.8324738 127.7318420
117.5821991 72.8374176 127.6928024
112.7091827 72.9264145 127.0157166
108.4069519 73.0445023 125.9656830
100.9795303 73.3038101 123.2096939
100.4851532 73.2935257 122.9468460
77.4507599 75.4610291 99.9134598
132.6099396 73.3256378 126.9752731
132.0682526 73.3129730 127.0860748
131.5048065 73.3086319 127.1971893
130.9392090 73.3030777 127.3012619
130.3605347 73.2971802 127.4006577
118.1074677 73.3362579 127.8806458
114.3280182 73.3949127 127.4400330
132.5957947 73.8268967 127.1274872
163.5114594 75.9317245 106.6508255
132.5755157 74.3299255 127.2692261
98.8284378 74.9641190 122.5652771
98.3063812 74.9924469 122.2864075
83.3728409 76.1768951 109.8948593
82.8726883 76.2336578 109.2800446
82.3656311 76.2938843 108.6288910
81.8730240 76.3569946 107.9630661
163.4456177 76.4362106 106.9549942
132.5583344 74.8343582 127.3967133
102.0147934 75.3193970 124.2473831
100.4098053 75.3919983 123.5171509
83.3552170 76.6960373 110.0673218
81.8440552 76.8742599 108.1397934
131.1518402 75.3948746 127.0503311
130.8224792 75.4479218 126.4793549
99.8765869 75.9327621 123.3843231
77.3946075 78.0781784 101.0294418
131.4920807 75.8493271 127.6838608
131.1534424 75.9064789 127.1185760
130.8231049 75.9603653 126.5411682
99.8605576 76.4465637 123.5026245
77.3607788 78.6029816 101.2021484
132.4912415 76.3571854 127.7785416
131.9296265 76.3552246 127.8722076
131.4905701 76.3598785 127.7596207
131.1544952 76.4181213 127.1847305
130.8219299 76.4733276 126.5980072
103.5195847 76.7875977 125.2452698
102.9937744 76.8100739 125.0341415
99.8459702 76.9585495 123.6135788
98.2452774 77.0425873 122.7974396
77.3406601 79.1277390 101.3833694
132.4622192 76.8623047 127.9150696
131.1618805 76.9287643 127.2605820
130.8312225 76.9843674 126.6740875
103.4951477 77.2951050 125.3640289
102.9852295 77.3200989 125.1604156
99.8313522 77.4712906 123.7204895
98.7471542 77.5235825 123.2016220
98.2407837 77.5554657 122.9233093
164.0316162 79.0642548 107.0790024
163.1838531 78.9723358 108.2136765
134.7691193 77.3978653 127.4943314
134.1949005 77.3895187 127.6417542
98.2324219 78.0685654 123.0385971
76.3199997 80.3704147 99.6886978
163.1846161 79.4862747 108.3505630
134.7383270 77.9063187 127.6085358
98.2145615 78.5834503 123.1308746
76.3086700 80.9012451 99.8163681
164.7196350 80.1857758 106.3569336
134.7292175 78.4124298 127.7103119
76.3202133 81.4290009 99.9960861
164.6736908 80.6989822 106.5468597
134.7207336 78.9200058 127.8035812
99.7865524 79.5264206 124.1167603
99.2537079 79.5565109 123.8681259
164.6385651 81.2123184 106.7232208
101.3338470 79.9520187 124.9783936
100.8202133 79.9825592 124.7271042
100.3006363 80.0120850 124.4728928
99.2021484 80.0122147 123.9477768
164.6104889 81.7258911 106.8927383
99.1688461 80.5784531 124.0255508
135.8164215 80.4668198 127.7658386
135.2325745 80.4570389 127.9238815
134.6602020 80.4465485 128.0633240
134.0874023 80.4378967 128.1979065
99.2028122 81.0964890 124.1131973
77.2478180 83.3667831 102.3177948
76.7526474 83.4596634 101.3893738
135.8087463 80.9756393 127.8395004
99.1976547 81.6134491 124.1762848
77.2332840 83.9001389 102.3929749
135.7971191 81.4854965 127.9071579
77.2248917 84.4331436 102.4677048
135.7922516 81.9959335 127.9660187
135.2040253 81.9842834 128.1359863
77.2281494 84.9660339 102.5380478
166.9313507 85.2235184 103.5078506
166.1007538 85.0936966 104.8704605
-111.9673615 97.8578796 5.2728682
-100.0633316 98.4138107 5.0128570
-100.6425171 98.3648987 5.5322390
-101.2414246 98.3264313 5.9840412
-101.8176270 98.2913895 6.3795238
-102.3877945 98.2712555 6.7269840
-102.9860458 98.2584000 7.0108509
-103.5969467 98.2754517 7.3044262
-111.6975403 98.2785797 8.0276051
-112.3610458 98.2532425 7.8704710
-113.0137558 98.2530899 7.6555395
-113.6542969 98.2792511 7.4418712
-114.3004608 98.3115768 7.1771564
166.8979950 86.7988052 103.7080841
166.0459137 86.6637039 105.0938873
98.6271591 85.2751694 124.1900482
98.1050339 85.3087311 123.9020920
-115.3220520 98.7827835 8.9266958
166.0497437 87.1917572 105.1143112
98.1059799 85.8288269 123.9300308
-95.5333023 99.5031204 6.2341437
-96.0873871 99.4559479 6.8806300
-96.6476822 99.4247437 7.4937763
-97.2270889 99.4089661 8.0513754
-115.0362244 99.2633133 11.2947330
166.0662231 87.7254791 105.0884323
98.1036301 86.3494797 123.9488831
77.2099380 88.7408142 102.5997314
-93.6068497 100.0912094 6.4707112
-119.4957199 99.9083099 10.7990074
-120.2275085 99.9413834 10.2302198
166.9153290 88.3964844 103.7033005
166.0803528 88.2589417 105.0741043
134.5881958 86.0763474 128.5818634
98.6250687 86.8376160 124.2422943
98.1037674 86.8705521 123.9603882
77.2097015 89.2843246 102.5687714
-91.7246704 100.7006302 6.4478474
-92.2879028 100.6478653 7.2555065
-92.8413773 100.6074753 7.9861817
-93.3854523 100.5689545 8.6642637
-115.9087448 100.1442490 14.4097157
-116.5692520 100.1832504 14.1458788
-117.2317505 100.2351837 13.8736858
-117.8893433 100.2834854 13.5333099
-118.5394592 100.3363571 13.1935978
-119.2248840 100.3795547 12.7927675
-119.9400177 100.3939209 12.3600054
-120.6370392 100.3785782 11.9138203
166.0971222 88.7899094 105.0723495
165.2476044 88.6533661 106.4166870
164.4527740 88.5328293 107.6350555
134.5763245 86.5889664 128.5921783
77.2116165 89.8293915 102.5196609
-89.8865509 101.3446808 6.1559148
-121.0680923 100.8550873 13.3494987
164.4590607 89.0615311 107.6442871
134.5773773 87.1061783 128.5959625
77.2153625 90.3763123 102.4563980
-89.1369629 101.8585358 7.4103479
-89.6986923 101.8045731 8.2596922
-120.8271179 101.3505936 15.0369215
-121.5197525 101.3751221 14.6128359
-122.2315140 101.4063568 14.1377964
99.1636200 88.3687897 124.5297318
-88.3949127 102.3772278 8.5604382
-86.0400467 103.1244049 6.6928511
-86.5973892 103.0397186 7.7926469
-87.1328659 102.9611969 8.6961260
-87.6778336 102.8936462 9.5330267
-88.2383041 102.8277588 10.3259602
-124.5598831 102.5718994 15.3286381
-125.2815018 102.6198425 14.7391529
139.2274780 88.7654953 127.1831055
136.3163605 88.6874619 128.1231842
-85.8908310 103.5862198 8.7150421
-125.7800903 103.1307373 15.7439966
139.2217865 89.2830582 127.1682739
136.3335724 89.2062683 128.1069641
131.2585449 89.1493073 129.0856323
130.9562531 89.2232056 128.3991089
-84.6110382 104.2048416 8.6599665
-85.1736984 104.1146622 9.5129251
-85.7320099 104.0354843 10.3961897
-125.5453644 103.6381531 17.2475128
-126.2415848 103.6812515 16.7265110
-126.9539032 103.7220459 16.1372662
139.2211304 89.8006744 127.1455765
136.3212433 89.7231293 128.0879974
131.2659302 89.6636581 129.0805359
130.6852875 89.8153992 127.7271194
130.4048615 89.8916016 127.0547943
78.2295990 92.9076385 103.9044113
-83.4099197 104.8018494 8.3770504
-128.2067566 104.3428879 16.2753105
165.3656158 92.4273071 105.8451385
164.5192871 92.2865829 107.1326218
139.2380371 90.3220062 127.1085815
138.6474152 90.3059692 127.3164825
138.0485992 90.2887421 127.5179443
137.4646301 90.2712402 127.7088470
136.8917084 90.2547455 127.8885727
136.3255005 90.2425156 128.0543213
78.2373657 93.4589615 103.7938690
77.7423935 93.5649719 102.8812866
-82.7142639 105.3649979 9.0278053
-83.2710037 105.2946014 10.0561886
-127.9875336 104.8391800 17.7231903
131.2224121 90.6880493 129.1616516
102.3318558 91.3238907 125.8453979
131.1697693 91.2011032 129.1495514
130.0151825 91.2116165 129.3258057
129.4622955 91.1810150 129.4312286
102.3401184 91.8482742 125.8002472
100.7554779 91.9481430 125.0672989
100.2337799 91.9782028 124.8200760
99.7089462 92.0153503 124.5653305
99.1827469 92.0498505 124.3035278
-80.8367844 106.5791855 9.2255545
163.8158722 93.7939224 107.9512329
163.0635834 93.6808014 108.9949799
131.1798248 91.7180328 129.1024780
130.5856628 91.7179108 129.1833038
130.0352020 91.6601181 129.2724609
129.4562988 91.6557007 129.3636627
103.3556137 92.3247223 126.1930695
77.2847595 95.3495789 101.4576035
163.1266479 94.2315369 108.8154602
129.4187622 92.2194519 129.3221893
115.6683502 92.3601685 129.4590454
112.9713898 92.4286957 129.0121613
112.4443436 92.4435501 128.9025421
103.3659134 92.8485413 126.1456833
77.2847137 95.9163742 101.2590027
-131.5721741 107.1608047 19.0697289
163.1247711 94.7721024 108.7033157
132.3134155 92.7774048 128.8148499
129.4795685 92.7464447 129.2730865
122.7779236 92.7565536 129.8146210
115.6830750 92.8793488 129.3957520
112.9911575 92.9438553 128.9502106
112.4516602 92.9645767 128.8370361
-79.3677673 108.1699982 11.4801970
-131.3873444 107.6736450 20.2728481
163.1723328 95.3254547 108.5127258
132.3272095 93.3022385 128.7513733
131.7611847 93.2863083 128.8651581
126.7253876 93.2619629 129.5458527
126.3460464 93.3252106 129.0489960
123.9078751 93.2669067 129.7450256
123.3567429 93.2772064 129.7574921
122.7965546 93.2828979 129.7602692
121.1783066 93.3046875 129.7098236
120.6289368 93.3437500 129.6994781
120.0441818 93.3776627 129.6887054
115.6863480 93.4029999 129.3303070
112.9800339 93.4824448 128.8818817
112.4459229 93.4967117 128.7702026
111.9296036 93.5125275 128.6568909
111.3953476 93.5340424 128.5385132
110.8450470 93.6062469 128.4161072
106.0898361 93.8097000 127.0792618
105.5067825 93.8401108 126.8607025
104.9819336 93.8807068 126.6496887
104.4604492 93.8427124 126.4433441
101.3120346 94.0227966 125.0986023
98.6742935 94.2039108 123.7616959
98.1526260 94.2438736 123.4741058
97.6455841 94.2807159 123.1862717
97.1152344 94.3242264 122.8744278
78.3077469 96.7954559 102.9150391
-77.1154633 109.0854721 8.4194078
-77.6707993 108.9811478 9.7112417
-78.2197266 108.8652039 10.8840981
-78.7401352 108.7545395 11.8775043
-79.2647171 108.6553192 12.8104935
-131.2063599 108.1841202 21.4181137
-131.9313354 108.2473450 20.7809830
-132.7089691 108.3110046 20.0307827
-133.4409332 108.3907547 19.3174496
163.2075500 95.8740387 108.3353806
128.3668060 93.7868881 129.3449402
126.7116776 93.7836380 129.4937897
126.3636246 93.7962723 129.1259003
113.5442429 93.9902039 128.9341431
112.9881592 94.0057144 128.8226471
112.4564362 94.0152054 128.7202911
111.9350510 94.0306168 128.6267090
111.4585648 93.9900665 128.5459747
106.6060333 94.2553940 127.1440353
101.3144684 94.5547638 125.0188522
78.3230743 97.3599243 102.7124023
131.2458344 94.3530502 128.8192291
130.6454620 94.3903122 128.9294586
126.6788864 94.2956085 129.4453888
126.1838913 94.3556671 129.4704285
125.5866699 94.3771286 129.5131378
125.0179901 94.3112259 129.5695190
107.1249313 94.7678452 127.2214737
106.6090240 94.7884064 127.0457001
102.8845062 94.9900055 125.6501999
102.3748474 95.0207520 125.4252167
101.8384094 95.0575485 125.1773987
101.3356018 95.0805054 124.9392548
78.3155289 97.9332733 102.4609756
-75.8561630 110.2760696 8.9830704
-133.8271637 109.4473648 20.9406242
127.2735596 94.8381348 129.3373566
79.3555298 98.2527542 104.1440201
-133.6475983 109.9610672 22.0138950
130.0805054 95.3667221 128.8810272
127.2720337 95.3530197 129.2529755
79.3829498 98.8161545 103.9200058
78.8924255 98.9284744 103.0183640
-133.4994049 110.4763031 23.0228291
-134.2093048 110.5298920 22.3991089
79.3918228 99.3867035 103.6310959
78.9084625 99.5021744 102.7338867
-74.4584274 111.9393616 10.6204720
-134.8036652 111.1126480 22.7050400
112.4924545 96.6544342 128.3223877
111.9629822 96.6851883 128.2029114
111.4422302 96.7008286 128.0801697
110.8999863 96.7142639 127.9444427
-73.8222733 112.5374451 10.6743422
-74.3783112 112.4273911 11.8783226
-134.6729431 111.6355591 23.6227303
-135.4186249 111.6967468 22.9517994
161.9169312 98.9683838 109.0066681
79.4400101 100.5614166 102.9910202
-73.2066193 113.1721420 10.8281889
161.9779358 99.5358887 108.7017822
79.4413071 101.1336670 102.6988754
78.9766464 101.2538376 101.7462311
-73.1373672 113.6731339 12.0488777
-135.8400879 112.8104706 24.1366749
162.0238342 100.0960083 108.3967667
80.4619522 101.4289856 104.4295349
79.9686279 101.5546417 103.4850464
79.4965744 101.6726074 102.5415421
-71.9684296 114.3854904 10.5554733
162.9203949 100.8135071 106.9006271
162.0899811 100.6674042 108.0757599
80.4550552 102.0160980 104.1200638
-71.3577728 115.0239792 10.4069204
-71.9109268 114.8883438 11.7618408
-137.0518188 114.0059280 24.4682865
113.6655655 99.2720718 127.9583054
113.1047134 99.2962112 127.8525314
112.5697479 99.3160782 127.7443695
112.0512924 99.3327408 127.6296310
111.5235596 99.3512344 127.5050507
110.9714737 99.3804626 127.3693161
80.4610214 102.6056366 103.8105469
-70.7640076 115.6614609 10.2717733
162.2338715 101.8210526 107.3837128
113.6721573 99.8127365 127.8250580
-70.1714783 116.2961807 10.1034222
-70.7053223 116.1582184 11.4608707
-138.2865601 115.2154617 24.6899529
162.3008728 102.3973770 107.0174713
124.6268463 100.1322632 128.4598999
124.0839386 100.1346512 128.4859772
123.5207520 100.1355438 128.5042572
122.9556732 100.1425247 128.5116882
113.6846085 100.3457947 127.6890030
81.5312119 103.5094910 104.9883804
81.0497131 103.6193314 104.1636124
-69.5367355 116.9286270 9.7678165
113.7014465 100.8851852 127.5457840
113.1527863 100.9078293 127.4469528
-69.4645386 117.4294510 10.9005404
-138.0369263 116.2618256 26.2842197
81.5546799 104.6851044 104.2688370
81.5945129 105.2672577 103.9291229
-68.2434540 118.7546768 10.2998142
-140.7400970 117.6962357 24.7791862
161.0591736 104.4527817 107.5127716
96.8375626 103.5578918 120.2134933
96.3144531 103.6081543 119.8573837
95.7960815 103.6592865 119.4882431
95.2838898 103.7099915 119.1234436
94.7637711 103.7649918 118.7467728
94.2337494 103.8241577 118.3435822
-68.1733627 119.2257919 11.2240353
161.1789093 105.0606308 107.0105820
96.8546295 104.0824051 120.0334473
94.2547302 104.3774719 118.1225586
-67.5726242 119.8711090 10.8302221
-68.1103821 119.7213745 12.1993599
-140.5309601 118.7400055 26.2825947
97.9095001 104.5675354 120.4744949
97.4845352 104.5397644 120.2479324
94.2926178 104.9259262 117.9074631
82.6748962 106.7839661 104.5195084
-68.0400085 120.2281418 13.1383047
94.8345108 105.4262466 118.0755234
94.3081207 105.4882660 117.6622009
82.6903152 107.3898926 104.0923691
-67.9928131 120.7323761 14.0486336
158.3319550 106.2837372 109.7965240
-97.0502625 118.3573532 39.7672577
-97.6434784 118.3513565 39.9328041
-100.0077133 118.2872391 40.4609604
-140.1423187 120.3653259 28.2958927
159.9509583 107.1382065 107.1800003
159.1901245 107.0052261 108.2947617
158.4344635 106.8805695 109.3089523
96.5216217 106.3264008 118.9075470
-97.0107117 118.8980484 40.1645203
-99.9728546 118.8512573 40.8681412
-140.0607605 120.8872986 28.9199677
160.9159088 107.9267960 105.3535461
160.0899811 107.7573242 106.6388931
159.2748108 107.6024246 107.8373642
158.5360718 107.4778900 108.8319321
83.8297806 108.9088516 104.5914078
-67.2950745 122.4130325 15.2490168
-67.8218765 122.2721786 16.3531532
-96.9720917 119.4517288 40.5561905
-99.9342728 119.3957214 41.2423668
-140.0056152 121.4158707 29.5127068
158.6035919 108.0379715 108.4220047
83.8546448 109.5198669 104.1050644
-67.7591629 122.7931137 17.0537319
-96.9164124 120.0039673 40.9274368
-97.5234833 119.9859390 41.0862808
-98.1143188 119.9739990 41.2330475
-98.6982269 119.9601364 41.3645782
-99.2872009 119.9534607 41.4901352
-99.8924713 119.9454117 41.6086617
-139.9025879 121.9560623 30.1131229
84.8705902 109.8800354 105.2915344
-68.8308487 123.0635376 19.8399448
-142.7765656 122.9046097 27.6804657
-143.5981293 123.0074387 26.7920113
-68.7748718 123.5985336 20.4045429
-142.6694183 123.4397049 28.2961216
157.4661713 109.6323471 108.6293716
-68.7340546 124.1248016 20.9480915
157.5905304 110.2632980 108.0364609
84.9924622 111.6981049 103.7767334
84.5295334 111.8150711 102.9666519
-68.7252197 124.6587067 21.5304050
85.0497131 112.3023758 103.2628174
-68.6995392 125.1869583 22.0620670
-143.9498444 125.2748566 28.3270206
-144.6926727 125.3795776 27.5385380
157.8238525 111.5013733 106.7116776
85.0906601 112.9315338 102.6848984
-143.8656616 125.8249130 28.8463879
157.1727142 111.9700623 107.1345596
156.3638306 111.8075790 108.1576462
86.1341934 113.2789459 103.8768845
85.6227036 113.4224854 102.9735260
156.5135956 112.4533005 107.4626617
86.1905594 113.8938599 103.3184586
-68.6578217 126.8084488 23.6885281
156.6677246 113.1065903 106.7226410
87.2159576 114.2707825 104.3975983
86.7281342 114.3922577 103.5761642
86.2204285 114.5432968 102.6784668
-68.6497498 127.3583298 24.2050781
-143.6317444 127.4614487 30.3366852
-68.6129761 127.8757019 24.6684284
-143.5477142 128.0069580 30.8114471
-144.2915497 128.1059875 30.0646496
156.9423676 114.3835449 105.1255951
156.1725464 114.2231445 106.2401505
155.4360962 114.0844650 107.2309647
87.3062592 115.5364914 103.1663971
-144.9288177 129.3251038 30.1200886
154.2291870 115.1061325 107.6996307
89.4038162 116.2826462 105.1304550
88.9143982 116.4010849 104.3674698
88.4113846 116.5258560 103.5601196
-68.0128784 129.6359558 25.4193153
-68.5389175 129.5462036 25.8829212
-144.8574066 129.8828430 30.5306759
89.4551544 116.9197617 104.4801559
-68.5450439 130.1086273 26.2716980
154.5362549 116.4086990 106.0399933
-68.4887848 130.6737213 26.5790901
-83.6969223 128.9106598 40.3171387
-86.5746155 128.7238464 41.8618240
-144.7424622 130.9993134 31.2959232
-145.5485229 131.1168060 30.4654999
89.5844269 118.2475510 103.0135727
-67.9818573 131.3089447 26.3939114
-68.4534988 131.2280579 26.8881550
-83.6661377 129.4710693 40.5664101
-86.5649796 129.2896423 42.1271019
-144.6841583 131.5605469 31.6508160
90.6303329 118.5910492 103.9368286
90.1579208 118.7095184 103.1827621
-144.6301422 132.1213684 31.9982452
90.7025146 119.2424240 103.2081299
-144.5451965 132.6835938 32.3586998
-145.3564758 132.8040619 31.5226192
-146.1214752 132.9237213 30.7231827
152.1783447 118.5149689 106.4089584
151.4412994 118.3749084 107.2952118
150.7212372 118.2440262 108.1246338
91.7771454 119.6220779 104.0637131
91.2802277 119.7540588 103.2806244
-67.8601074 133.0026550 27.2813702
-68.3296585 132.9155121 27.7263889
-95.2170944 130.6093597 46.1066437
-95.8005981 130.5985107 46.2703590
-96.3909531 130.5904541 46.4321861
-96.9929276 130.5652466 46.5740509
-97.5731659 130.5541840 46.7050095
-98.1487427 130.5506439 46.8283806
-101.1134567 130.5141602 47.3756638
-101.7204895 130.5074158 47.4678764
-102.3146439 130.5054626 47.5468750
-102.9046478 130.4987030 47.6104126
-103.4888229 130.5032654 47.6692924
-104.0866852 130.5090027 47.7232819
150.8744202 118.9107056 107.3138809
91.8405457 120.2878876 103.2761536
-95.2130356 131.1823730 46.3111610
-98.1189957 131.1208649 47.0373459
-101.0918961 131.0788116 47.5894852
-104.0751724 131.0658875 47.9381447
-146.0064697 134.0652771 31.3297005
-146.7606354 134.1913300 30.5052395
97.9170380 119.7340012 110.0652695
97.3881989 119.8279648 109.5517960
-95.1864700 131.7509155 46.4961510
-98.1113586 131.6841888 47.2255173
-104.0489197 131.6283569 48.1443367
-104.6602936 131.6297607 48.1832771
-105.2756119 131.6255646 48.2218475
-105.8365021 131.6386414 48.2637939
-106.4378586 131.6440887 48.2970276
-107.0449753 131.6531982 48.3206558
-107.6711807 131.6540070 48.3301125
-145.9556732 134.6339417 31.6236153
-146.7221985 134.7631073 30.7881298
151.2036438 120.2714996 105.3876572
97.9813232 120.3575211 109.4679337
-95.1693039 132.3144073 46.6824722
-98.1041336 132.2571259 47.4002190
-104.6569824 132.1910553 48.3774910
-107.6349869 132.2185059 48.5357895
-145.8991089 135.2028198 31.9227390
150.6945801 120.8322144 105.2488632
149.9136200 120.6475143 106.1805801
94.0663452 121.7550507 103.9249802
93.5425644 121.9013977 103.0995255
93.0535507 122.0220566 102.3474045
-107.6185837 132.7767944 48.7329216
-108.2138443 132.7874603 48.7276535
-108.8087387 132.7985229 48.7199326
-109.4197311 132.8080444 48.7082176
-110.0311050 132.8210602 48.6932755
-110.6419754 132.8379211 48.6730843
-111.2353973 132.8514709 48.6440735
-145.8454132 135.7730255 32.2001991
150.1274719 121.3690948 105.0758286
98.2113113 121.6278915 108.2549896
94.1482239 122.4124985 103.0425034
-67.1719131 135.9808502 27.5345573
-96.3088226 133.4637756 47.3627357
-96.9262772 133.4669495 47.4921989
-111.2060394 133.4114380 48.8284645
150.3579407 122.1024780 103.8851089
96.7025299 122.5309601 105.6477890
-67.0830078 136.5598602 27.6499729
-91.0240555 134.1484375 45.9568787
-102.2238770 133.9006805 48.6842804
-102.8040161 133.9017639 48.7469330
-104.5926437 133.9081421 48.8855247
-111.2147675 133.9772644 49.0036240
97.2761536 123.0938339 105.4468079
96.7819748 123.1971664 104.8193588
94.3988571 123.8161926 100.9819565
-67.0179749 137.1392670 27.7797127
-91.0140228 134.7190704 46.1267624
-104.5862579 134.4759064 49.0463219
-111.1844177 134.5451965 49.1769142
-145.7522583 137.4934998 32.9104614
-146.4853821 137.6220551 32.1227112
147.7962036 122.9776077 105.3937378
97.3546677 123.7655258 104.5817032
96.8770676 123.8645554 103.9596786
96.3837585 123.9744339 103.2814331
95.8804855 124.0870590 102.5421982
95.4207230 124.1988602 101.7832031
94.9465103 124.3208389 100.9342957
-91.0067902 135.2906189 46.2890167
-101.0084991 135.0406494 48.8436775
-116.6685867 135.2868195 48.7490349
-117.2568283 135.2737579 48.6639061
-119.1480484 135.3274231 48.2750053
-119.7566757 135.4231720 48.1461449
-120.3749084 135.4565582 47.9963417
-121.0105820 135.4891663 47.8384094
-145.7366333 138.0696564 33.1252670
-146.4737854 138.1985474 32.3390121
97.4505615 124.4471512 103.6771698
-89.2591553 135.9399261 45.7901802
-89.8299332 135.9121704 46.0176544
-90.3990860 135.8871307 46.2295227
-90.9949265 135.8625641 46.4420242
-116.6635056 135.8562317 48.9191895
-121.0027771 136.0607605 47.9897270
-145.7094116 138.6458588 33.3380852
146.7395020 124.1351547 104.7446899
98.5495834 124.8945923 104.0926819
-91.5719299 136.4124603 46.8011131
-92.1301727 136.3887177 46.9947319
-92.7211838 136.3718414 47.1911240
-93.3016891 136.3491669 47.3714561
-97.4150391 136.2408142 48.4681969
-114.1838455 136.3495636 49.3642044
-114.7791443 136.3673706 49.3040390
-120.9929276 136.6345215 48.1366158
-145.6546783 139.2230377 33.5477562
146.9664764 124.8782959 103.4999466
-91.5594864 136.9803772 46.9499817
-97.4006119 136.8143463 48.6044044
-114.1491776 136.9253387 49.5019569
-120.9507675 137.2098846 48.2874527
-145.6194000 139.8123016 33.7064934
146.4794922 125.4899368 103.0046463
145.7940826 125.3652267 103.8388596
145.0775452 125.2317810 104.6691895
144.3407593 125.0906143 105.4656219
-91.5419846 137.5567322 47.0928955
-112.9328079 137.4617920 49.7544937
-113.5433578 137.4793396 49.6985664
-114.1390762 137.5018158 49.6278496
-145.5907898 140.3888702 33.8943939
144.5848083 125.8698578 104.2118149
-65.8934631 140.8426361 27.2676792
-115.9838943 138.1337280 49.5251198
-116.5937805 138.1580811 49.4377785
-117.2676468 138.1521301 49.3436012
-117.8489151 138.2633514 49.2646179
-118.4398804 138.2783203 49.1366806
-119.0589676 138.2464294 48.9639130
-119.6819153 138.2980499 48.8289833
-145.5888672 140.9697876 34.0570145
-146.3588867 141.1082916 33.2284317
-147.0908356 141.2438507 32.4269638
144.0937347 126.4911957 103.6881790
143.3657837 126.3316040 104.4596634
101.9896240 127.0185928 103.8854675
101.4781189 127.1276779 103.2594223
-65.8703156 141.4295959 27.3853474
-90.2983398 138.7151642 46.8466187
-111.0907364 138.5610352 50.1361656
-111.6356049 138.5327454 50.1026268
-115.9704971 138.7138824 49.6381645
-116.5609894 138.7356262 49.5485535
-117.1967850 138.7577820 49.4554100
143.5992584 127.1184540 103.1311417
102.1125488 127.7365875 102.7864075
-65.3189621 142.1333466 26.7175140
-65.8753281 142.0133820 27.5359650
-90.2850189 139.3365326 46.9691772
-97.9417801 139.1068268 49.1951523
-110.4822922 139.1243134 50.2753677
-111.0857315 139.1376801 50.2434921
-111.6218872 139.1456604 50.2129173
-117.1952972 139.3350830 49.5647545
142.4588165 127.6651382 103.1585693
141.7612000 127.5363693 103.8916931
141.0846252 127.4143295 104.5563278
105.2526550 127.8724747 104.9653625
104.7605820 127.9470062 104.5088959
104.2519760 128.0364990 104.0024796
103.7370377 128.1334686 103.4589462
103.2250824 128.2405853 102.8620834
-86.8685532 140.0879517 45.6592941
-87.4335327 140.0551758 45.9199829
-88.0233841 140.0241241 46.1769028
-88.6151199 139.9937897 46.4239655
-96.7850113 139.7016602 49.0682640
-98.5281448 139.6692200 49.4437218
-99.1384048 139.6591187 49.5716934
-110.4621964 139.7010345 50.3816109
-111.0667191 139.7152557 50.3482933
-111.6755066 139.7289734 50.3175735
-114.7289505 139.8192902 50.0367317
-117.1587067 139.9125977 49.6804199
141.3121948 128.2089539 103.2047119
-86.8641510 140.6662598 45.7632332
-96.7839127 140.2734222 49.1927834
-98.5134277 140.2426605 49.5608482
-114.0914154 140.3797302 50.1909981
-114.7099991 140.3973999 50.1377144
-117.1791077 140.4918213 49.7747154
140.2142944 128.7797394 103.0874252
-86.8484039 141.2472839 45.8558388
-97.9089355 140.8276978 49.5546188
-114.0899429 140.9577332 50.2903709
-114.6873169 140.9753113 50.2390022
-117.1608582 141.0720215 49.8636818
-86.8485565 141.8272552 45.9414101
-89.1596832 141.7006073 46.9690285
-89.7506943 141.6691132 47.2087097
-112.2342682 141.4776764 50.5720863
-112.8557816 141.4969482 50.5190620
-117.1469574 141.6544342 49.9397430
138.7171021 129.9266510 102.1313324
138.0039520 129.9313965 102.4935455
107.8373108 130.3966675 102.3303833
107.3453217 130.4818726 101.8386307
-64.7236557 145.2246399 26.3007717
-88.0038528 142.3444061 46.5321770
-88.5877380 142.3141937 46.7901421
-89.1687622 142.2843475 47.0254173
-89.7247925 142.2609711 47.2502708
-111.6317825 142.0437164 50.6838760
-112.2637711 142.0642395 50.6300545
-112.8845978 142.0812683 50.5770645
-115.9368362 142.1890869 50.1992455
-145.5238800 145.1104126 34.7980766
138.2793427 130.7793121 100.7988129
108.0087738 131.1672058 100.9304199
-64.7410583 145.8201141 26.3699493
-87.9914627 142.9292908 46.5956116
-100.2729492 142.5444641 50.1733971
-100.7594147 142.5039978 50.4720459
-112.2557068 142.6464081 50.6910973
-112.8639908 142.6638336 50.6395493
-115.9420319 142.7736206 50.2656364
-145.5195160 145.7078094 34.8630867
136.5382080 131.3211212 100.8963394
135.8883209 131.2197723 101.4521790
110.2320633 131.5576477 101.4589691
-63.6364479 146.7131500 24.4983234
-82.2098083 143.9002533 43.7125626
-87.9848480 143.5131836 46.6670876
-100.2703323 143.1282196 50.2291412
-113.4785080 143.2681885 50.6383514
-145.5118561 146.3078766 34.9137421
-63.1325989 147.4611206 23.5788994
-63.6517181 147.3146820 24.5376568
-82.1971207 144.4894714 43.7592125
-87.9926147 144.0953522 46.7407799
-90.3281403 143.9768524 47.6592598
-90.8940811 143.9586792 47.8691177
-91.4858932 143.9287262 48.0995598
-92.0557480 143.9027710 48.3183746
-113.4480286 143.8500214 50.6994934
-145.5273132 146.9142303 34.9268456
134.4910889 132.6983185 99.2321777
133.8274231 132.6104279 99.8083954
133.2140503 132.5589142 100.2405548
132.5707550 132.4927063 100.7028503
131.9057312 132.4059296 101.1783905
131.2866211 132.3371277 101.5445557
115.8328171 132.4735718 101.9979858
115.3103333 132.5128784 101.7904892
114.7861328 132.5752563 101.5042343
114.2490387 132.6314697 101.1575241
112.6849136 132.8319092 100.0499878
112.1670761 132.9241791 99.6364441
111.6401749 133.0322266 99.1592941
-62.5648651 148.2431183 22.4661503
-82.2168045 145.0750275 43.8176880
-89.7327957 144.5919342 47.4953690
-91.4874725 144.5130768 48.1553879
-94.3963699 144.4157410 49.0349579
-94.9785690 144.4018860 49.1763153
-113.4541245 144.4346313 50.7527161
-145.5077057 147.5157013 34.9625130
116.0451584 133.2393951 100.4588318
114.4582291 133.3899384 99.4978561
112.9031372 133.7417908 98.2425385
-61.5076180 149.2259216 20.0788956
-62.0084801 149.0428925 21.2537136
-62.5757904 148.8523407 22.4603291
-82.2274551 145.6623230 43.8616295
-82.8088684 145.6131134 44.2053986
-83.3897018 145.5691986 44.5366707
-83.9437485 145.5327454 44.8419876
-89.7228775 145.1806641 47.5373497
-91.4734268 145.1003876 48.1962509
-93.8128815 145.0115509 48.9546623
-94.3914490 144.9995728 49.0953255
-94.9678574 144.9839478 49.2350731
-145.5298004 148.1276550 34.9418449
130.0289307 133.9533386 98.5855637
129.3905945 133.9042816 98.9390411
128.7731323 133.8596954 99.2344131
128.1782379 133.8279419 99.4584351
127.5866165 133.8045807 99.6202545
126.9636612 133.7184601 99.8626099
122.8978882 133.6788025 100.3882065
122.3208618 133.6856842 100.3724289
114.7089081 134.2832184 97.4412537
-61.5179443 149.8424530 20.0473061
-89.7403336 145.7628937 47.5759048
-91.4671249 145.6947479 48.2266846
127.2832184 134.6901855 97.6486511
123.1925888 134.6153412 98.4004517
-61.0102882 150.6687469 18.6829567
-61.5354271 150.4581604 20.0149899
-87.9699402 146.4498901 46.8746071
-88.5771103 146.4174194 47.1336555
-89.1618118 146.3884888 47.3708038
-89.7240524 146.3615875 47.5904312
-91.4766617 146.2798767 48.2538528
-92.0561523 146.2531586 48.4659157
-92.6188583 146.2317505 48.6651459
125.3178940 135.5794830 95.7183990
124.8333588 135.4672241 96.2366486
124.3996887 135.2877960 96.7979584
-92.6302643 146.8195953 48.6800346
-92.6237793 147.4188538 48.6824570
-94.9314194 147.3395996 49.4249763
-113.3618164 147.3583069 51.0257378
-60.4980087 152.7871704 16.9732208
-94.9505463 147.9352417 49.3991394
-102.6509399 147.8093567 50.8609962
-60.4729996 153.4358063 16.7685604
-94.9644623 148.5206604 49.3739700
-95.5593185 148.5007477 49.5192909
-96.1698151 148.4910126 49.6703262
-96.7584915 148.4709930 49.8191147
-97.3306656 148.4554138 49.9626045
-102.6603546 148.4009552 50.8556747
-104.4294968 148.3969574 51.0262108
-105.0417709 148.4053650 51.0732613
-109.8282089 148.4655457 51.1446648
-111.6131439 148.5550079 51.1229515
-112.2704926 148.5664978 51.0571442
-60.5019913 154.0664825 16.6611900
-87.9876633 149.4170837 46.9177055
-90.9051361 149.2688751 48.0753822
-99.6863861 149.0093994 50.4405861
-102.6606293 148.9894867 50.8474884
-108.6085739 149.0345154 51.1504669
-145.5945435 152.4378052 34.6016998
-146.3064423 152.5836334 33.7830162
-147.0926971 152.7614441 32.8492012
-147.9029083 152.9463654 31.8693218
-60.4588127 154.7484589 16.3213806
-87.9986801 150.0077515 46.9169617
-90.9099426 149.8584137 48.0690956
-99.6943054 149.6093903 50.4198799
-100.2824020 149.6072388 50.5184669
-100.8643570 149.5973816 50.6114235
-101.4646072 149.5885315 50.6972694
-102.0634384 149.5829773 50.7693253
-102.6588974 149.5879211 50.8338394
-108.6273575 149.6317139 51.1381950
-60.5037498 155.3784637 16.1902275
-88.0053253 150.6081696 46.9001503
-90.9295349 150.4492645 48.0556526
-92.6605988 150.3829651 48.6470413
-93.2457809 150.3632965 48.8394089
-95.5763092 150.2868805 49.5091972
-103.2372742 150.1766357 50.8793106
-103.8318710 150.1755981 50.9344139
-108.6193924 150.2239075 51.1264572
-144.1062012 153.3784027 36.0692787
-60.4934273 156.0535583 15.8685770
-88.0101776 151.2049408 46.8671570
-88.6029358 151.1676178 47.1283760
-89.1803131 151.1403961 47.3678398
-89.7524490 151.1176910 47.5907516
-90.3440628 151.0838470 47.8093681
-90.9257431 151.0574493 48.0176697
-92.6613846 150.9827423 48.6185303
-95.5830231 150.8806915 49.4886627
-105.6305084 150.7829895 51.0845985
-106.2184372 150.7829285 51.1145859
-144.1499481 154.0109406 35.9332314
-61.5992393 156.1811829 18.7511425
-92.6752853 151.5734711 48.5841637
-95.5796432 151.4892578 49.4536438
-144.1770782 154.6418152 35.8013725
-61.6330261 156.8288879 18.5473385
-92.6752701 152.1822815 48.5351791
-93.2507858 152.1680908 48.7241249
-93.8568192 152.1344147 48.9210815
-94.4356689 152.1115265 49.1004829
-94.9964218 152.1014404 49.2583885
-95.5898819 152.0877686 49.4145432
-103.2521133 151.9679108 50.7980881
-103.8538208 151.9692841 50.8585663
-104.4772186 151.9774017 50.9098701
-105.0641632 151.9708099 50.9483376
-144.2248993 155.2774963 35.6377754
-61.0851135 157.7500458 16.7910404
-61.6286087 157.4985046 18.2575321
-145.8257446 156.8907013 33.5149689
-97.3906021 153.8444061 49.6896057
-100.3355255 153.7931519 50.2371788
-145.8153687 157.5222778 33.3384781
-97.4009781 154.4495544 49.6225891
-100.3464050 154.3996735 50.1740112
-145.9080963 158.2242432 32.9845772
-61.6914139 160.1898804 16.9491577
-62.2178726 159.9372406 18.4101353
-62.8023834 159.6683807 19.8962936
-115.4124680 155.2501221 50.1887665
-116.0302200 155.2770386 50.0986595
-116.6324844 155.3039551 50.0021172
-117.2601166 155.3392334 49.8869514
-117.8961487 155.3743896 49.7585564
-118.5081558 155.4023895 49.6262398
-144.3706512 158.4842529 34.6490059
-62.8046303 160.3494568 19.5560951
-115.4574051 155.8735046 50.0992165
-118.5301971 156.0137329 49.5394897
-144.4297333 159.1417084 34.3979568
-145.2174683 159.3168335 33.5314484
-62.8086472 161.0387115 19.1728191
-115.4511414 156.4720306 50.0120583
-118.5398712 156.6248779 49.4464912
-144.4790802 159.8003693 34.1431808
-145.2678223 159.9817963 33.2699585
-62.8269119 161.7251587 18.7882462
