-93.0101013 148.5872192 54.0361023
-96.5289841 148.5050659 54.8848457
-97.6716232 148.4838104 55.1130981
-98.8610382 148.4700928 55.3146439
-100.0175018 148.4555511 55.4849892
-101.2173691 148.4464417 55.6519852
-102.3911972 148.4470215 55.7651253
-103.5873718 148.4574280 55.8370819
-109.5824661 148.5535889 55.8410225
-110.7653961 148.5888214 55.7656860
-111.9969330 148.6305542 55.6518860
-141.7424011 151.4748230 41.7187347
-143.1517944 151.7469025 40.2685852
153.6290894 135.1044159 116.0284042
152.1649780 134.8131256 117.6745377
150.8191833 134.6088715 119.0464783
149.4945068 134.4219971 120.2786789
97.3487625 135.7404175 117.6767960
96.3380127 135.9553528 116.5267639
95.3645630 136.1682892 115.3359680
94.3743439 136.4210815 113.9896088
93.4121017 136.6849823 112.5700760
-82.5969772 150.2408447 50.2415199
-83.7303848 150.1570435 50.8243790
-84.8879776 150.0796661 51.3976936
-88.3496399 149.8870544 52.8791847
-91.8082733 149.7401886 54.0737305
-92.9781570 149.6984253 54.4332237
-96.4927597 149.6124878 55.2825737
-97.6354523 149.5927277 55.5050735
-98.8271484 149.5763702 55.7100525
-99.9556885 149.5510101 55.9377975
-104.7292786 149.5754242 56.2972336
-111.9627609 149.7377930 56.0517845
-113.1514664 149.7838287 55.9130020
-114.3791504 149.8313904 55.7460442
-118.0755768 150.0133972 55.0405197
-119.2980499 150.0840912 54.7502785
-120.5472260 150.1619415 54.4141541
-121.7920532 150.2459869 54.0426865
-141.6760559 152.5848694 42.2626381
-143.0794983 152.8516693 40.8468056
152.4787445 136.1613922 116.0886002
151.0812225 135.9050140 117.6081238
149.7134399 135.6801910 118.9488068
97.4812317 136.9930725 116.4867477
96.4762878 137.2241669 115.2701035
95.5030212 137.4598999 113.9912643
-82.5577850 151.3555756 50.6285706
-83.7080994 151.2732086 51.2250481
-84.8479080 151.1908264 51.7977066
-88.3055725 150.9960175 53.2649765
-92.9466705 150.8120422 54.8105087
-96.4487915 150.7219086 55.6635399
-97.6032486 150.7074127 55.8826561
-98.7902145 150.6870117 56.0953522
-113.1157532 150.8950500 56.2967033
-114.3428726 150.9439087 56.1267624
-118.0281219 151.1267242 55.4271202
-119.2494507 151.1981659 55.1376572
-120.5148621 151.2771912 54.7965736
-121.7430573 151.3635101 54.4282379
-141.6046448 153.7020264 42.7637863
-143.0083923 153.9701233 41.3584175
149.9721222 136.9936066 117.4257965
148.6476135 136.7897186 118.6900253
147.3417816 136.6126709 119.8455963
99.6071091 137.8542786 117.4019165
98.6125031 138.0567627 116.3341827
97.6173706 138.2825928 115.1544876
96.6254654 138.5191956 113.8770523
-82.5346222 152.4731598 50.9878922
-83.6827850 152.3858337 51.5978928
-88.2831650 152.1123657 53.6388359
-92.9120941 151.9217224 55.1728745
-94.0781860 151.8911896 55.4870834
-95.2479095 151.8648376 55.7683296
-96.4234619 151.8384857 56.0148087
-113.0719070 152.0132751 56.6499519
-114.3004150 152.0622864 56.4748840
-117.9987106 152.2445068 55.7889977
-121.7171783 152.4833374 54.7734985
-141.5435181 154.8263855 43.2111816
-142.9431458 155.0953064 41.8109665
150.2880554 138.3557129 115.7040710
148.9097900 138.0975342 117.1254654
147.5855408 137.9084167 118.3650970
99.7560349 139.1381989 116.0857773
98.7581024 139.3505554 114.9511642
97.7754135 139.5847778 113.7064896
96.7895355 139.8452148 112.3221436
-82.5145340 153.5970459 51.3195419
-83.6561127 153.5103302 51.9224701
-87.0883026 153.2955933 53.4810486
-88.2631454 153.2357788 53.9491997
-95.2042236 152.9797058 56.0610085
-108.2143555 152.9868469 57.3348198
-109.4236221 153.0173492 57.2841415
-110.6244507 153.0520630 57.2010574
-111.8544540 153.0906830 57.0968552
-113.0393829 153.1350555 56.9658241
-114.2633286 153.1864166 56.7898407
-117.9507217 153.3682098 56.1146736
-121.6778717 153.6083679 55.1064072
-141.4848633 155.9569092 43.6211739
-142.8787537 156.2227478 42.2443237
-144.3883362 156.5321198 40.6125603
147.8720245 139.2457275 116.7005081
146.5240784 139.0380707 117.9378662
145.2380981 138.8865051 118.9953995
101.9068604 140.0326233 116.7577667
100.9064484 140.2359467 115.7234421
99.9203491 140.4429321 114.6310730
98.9389038 140.6711121 113.4235611
-82.4929810 154.7231445 51.6205788
-83.6292191 154.6377869 52.2183075
-109.4085541 154.1389618 57.5816269
-113.0154114 154.2605896 57.2525253
-114.2522736 154.3141327 57.0697479
-115.4629822 154.3692627 56.8804359
-116.6863861 154.4304047 56.6539078
-117.9362030 154.4984283 56.3878136
-119.1436768 154.5696564 56.1073685
-120.4057159 154.6497192 55.7738876
-121.6334229 154.7358398 55.4122925
-141.4437256 157.0960846 43.9721451
-142.8427277 157.3622894 42.6050568
148.2091370 140.6468506 114.7762146
146.8150482 140.3916016 116.1456375
145.5152283 140.2167664 117.3154297
102.0735550 141.3553162 115.2564163
101.0880432 141.5659332 114.1671219
100.1101074 141.7902527 112.9857330
-82.4659424 155.8538513 51.8947449
-83.6149979 155.7670288 52.5005379
-112.9904022 155.3897095 57.5236893
-114.2182999 155.4433289 57.3406982
-115.4378281 155.5005493 57.1421280
-116.6589966 155.5625763 56.9149017
-117.8986206 155.6305695 56.6550751
-119.1262436 155.7031250 56.3649826
-120.3722687 155.7834320 56.0378342
-121.6122589 155.8693848 55.6752625
-141.4116821 158.2427673 44.2761230
-142.8153076 158.5093994 42.9207726
147.1730347 141.8251953 114.0849915
145.8238525 141.5979004 115.4235458
144.4985046 141.3952637 116.6245651
143.2313538 141.2428284 117.6525497
106.2915268 141.9429016 117.4377136
105.2913666 142.1056671 116.6212387
104.2667694 142.2923889 115.6953354
103.2746735 142.4819489 114.7165146
102.2720490 142.7016754 113.6029739
-82.4514618 156.9884033 52.1454620
-83.5892487 156.9036865 52.7316666
-84.7425232 156.8238373 53.2921600
-115.4115524 156.6345215 57.3832054
-116.6421051 156.6970215 57.1556396
-141.3751221 159.3951569 44.5457420
-142.7729492 159.6642456 43.1803246
144.8406067 142.8136749 114.5978241
143.5387878 142.6129913 115.7467346
106.4804764 143.2799377 115.8558807
105.4830627 143.4505310 114.9848938
104.4651184 143.6556091 113.9839325
-82.4387207 158.1286469 52.3607979
-83.5760193 158.0444641 52.9393234
-84.7248688 157.9660187 53.4881401
-85.8830795 157.8895111 54.0259209
-87.0120926 157.8193970 54.5262489
-115.3889694 157.7715149 57.6047134
-116.6302338 157.8367004 57.3669586
-141.3560486 160.5567322 44.7599564
-142.7404938 160.8235779 43.4195251
-144.2275391 161.1332703 41.8507195
-145.6921997 161.4633179 40.1741447
143.9272156 144.0947418 113.4923172
142.5698242 143.8806763 114.6959534
141.2777100 143.7149353 115.7051010
140.0074768 143.5695953 116.6374207
138.7795258 143.4508362 117.4338608
108.7437134 144.2954102 115.8077927
107.7247925 144.4636993 114.9930191
106.6951904 144.6446228 114.0929260
105.7055588 144.8318787 113.1431580
-65.5297241 161.5983887 38.0985222
-84.7159119 159.1103363 53.6687088
-85.8829651 159.0309601 54.2133484
-116.5959244 158.9784851 57.5581512
-144.2162018 162.3096771 42.0087013
-145.6896210 162.6412201 40.3371582
139.1008606 144.8621979 115.3710861
108.9737854 145.6942596 113.9337616
107.9588547 145.8796844 113.0330887
106.9473572 146.0830078 112.0322647
-63.3073769 163.3235016 34.9978294
-64.4262466 163.0294189 36.7093811
-65.5427551 162.7603455 38.2811356
-84.6991577 160.2597198 53.8260956
-85.8541641 160.1835938 54.3560028
-116.5944214 160.1280518 57.7146492
-144.2028046 163.4915619 42.1288910
-145.6852264 163.8279877 40.4492569
139.4905090 146.3723755 112.9465103
138.2014160 146.1977234 113.8814850
136.9416809 146.0743866 114.6749115
135.7243652 145.9791870 115.3555756
134.5163269 145.8969727 115.9557571
115.4533005 146.2576447 115.9322891
114.3886490 146.3755646 115.4118881
113.3597870 146.4994812 114.8438568
112.3007965 146.6395874 114.1866455
111.2705841 146.7962341 113.4612579
110.2523651 146.9520721 112.6773376
109.2376633 147.1432495 111.7702942
-62.2237663 164.8199310 33.2864609
-63.3124466 164.5023956 35.1110497
-84.7109985 161.4101105 53.9672852
-85.8654709 161.3336334 54.4891052
-114.1353760 161.1568604 58.2658043
-115.3471756 161.2129822 58.0743942
-116.5817032 161.2806702 57.8394012
-144.2033997 164.6830444 42.1983833
137.3679047 147.6491241 112.0454407
136.0985565 147.4777374 112.9023438
134.8558807 147.3527222 113.6221237
115.7339401 147.6901855 113.8599014
114.6691895 147.8300018 113.2616119
113.6405258 147.9478149 112.6614609
112.5878448 148.1154785 111.9171906
111.5724792 148.2843323 111.1028137
110.5628662 148.4787445 110.1496887
-61.1589737 166.3729706 31.3010883
-62.2282333 166.0144196 33.3346176
-63.3175087 165.6900482 35.1789246
-84.6937714 162.5687866 54.0660553
-85.8527679 162.4911499 54.5932770
-102.1432877 162.0169983 58.7514267
-114.1252823 162.3138733 58.3757668
-115.3523941 162.3736267 58.1725807
-116.5869980 162.4414368 57.9340591
-144.2056274 165.8806763 42.2338753
135.3244476 148.9898987 110.6982422
134.0843964 148.8566742 111.4464111
132.8340302 148.7391510 112.0680618
131.6436768 148.6796875 112.5562744
130.4501801 148.6253967 112.9609222
129.2944183 148.5741730 113.3098450
128.1295471 148.5544739 113.5455627
126.9740295 148.5639801 113.6707535
125.8503723 148.5632629 113.7677155
122.5015564 148.6638031 113.6062622
121.3935852 148.7222595 113.4072189
120.3037109 148.7874756 113.1537933
119.2238617 148.8710327 112.8258591
118.1660309 148.9749908 112.4170456
117.0997467 149.0859528 111.9360504
116.0579147 149.1843719 111.4105530
115.0043793 149.3285675 110.7379990
-60.1295319 167.9860382 29.0415344
-61.1504326 167.5787354 31.2985668
-84.7082748 163.7260742 54.1506691
-85.8596268 163.6517029 54.6764984
-112.9124451 163.4222412 58.6434975
-114.1242523 163.4719391 58.4529724
-141.3203735 166.4714966 45.2149124
-142.7167358 166.7555695 43.8356705
-144.2021484 167.0838470 42.2405624
130.9223785 150.2952728 109.8937759
129.7354584 150.2120361 110.3559265
128.5629578 150.1546936 110.6418076
127.3913116 150.1285553 110.8378754
126.2488327 150.1248016 110.9549942
122.8857193 150.2221985 110.8291626
121.7773666 150.2842255 110.6138916
120.6847992 150.3489075 110.3528519
119.6200409 150.4404297 109.9813080
116.4514618 150.8606262 108.2894135
-59.0170975 169.7111816 26.1916122
-60.1159973 169.2093506 28.9361458
-61.1517754 168.8037262 31.2005959
-84.7076950 164.8963470 54.2023048
-85.8604126 164.8172302 54.7316589
-95.1032944 164.4127350 57.7909431
-96.2805557 164.3910828 58.0292854
-97.4305191 164.3663330 58.2806206
-108.0795670 164.4207306 59.0544853
-109.2995605 164.4554596 58.9980927
-110.4813080 164.4882050 58.9363861
-111.7144012 164.5368042 58.8223572
-112.9071808 164.5845947 58.6698074
-114.1315308 164.6419067 58.4961395
-141.3336334 167.6792297 45.1719131
-142.7316742 167.9672394 43.7791023
126.7979279 151.9399414 107.2084045
125.6414185 151.9330597 107.3445053
124.5307770 151.9479065 107.3731995
123.4092941 152.0107117 107.1974030
-59.0333786 170.9720764 25.9514046
-60.1284637 170.4571075 28.7273407
-61.1594391 170.0427704 31.0274239
-84.7125626 166.0644226 54.2351189
-85.8617630 165.9873810 54.7559090
-86.9940414 165.9163361 55.2370911
-88.1577759 165.8519745 55.7073288
-96.2838974 165.5521851 58.0814590
-97.4237366 165.5282593 58.3138351
-100.9828339 165.4984436 58.8364830
-102.1443863 165.5021667 58.9471588
-105.7047806 165.5349274 59.1263275
-109.2973938 165.6192474 59.0343094
-141.3585663 168.8986969 45.0705109
-142.7515869 169.1918335 43.6639862
-59.0543480 172.2524719 25.6115379
-60.1552429 171.7155151 28.4730797
-61.1916084 171.2836304 30.8417435
-84.7221375 167.2418823 54.2283211
-85.8703003 167.1676025 54.7492943
-87.0064697 167.0957336 55.2335815
-88.1695862 167.0293579 55.7013969
-89.3030701 166.9663086 56.1347275
-90.4791260 166.9076385 56.5469894
-91.6163559 166.8621674 56.9055099
-92.7843704 166.8210144 57.2374878
-93.9493408 166.7852173 57.5479507
-95.1128159 166.7502899 57.8356094
-96.2812424 166.7246857 58.0936890
-97.4381256 166.7023163 58.3153992
-100.9689026 166.6697845 58.8325348
-105.7326355 166.7184143 59.0926018
-109.3220673 166.8003845 59.0293198
-141.3757629 170.1224365 44.9381561
-142.8083344 170.4334259 43.4653587
-60.1790314 172.9883423 28.1451035
-61.2279816 172.5359344 30.5934162
-96.2917862 167.9000702 58.0727806
-97.4428024 167.8840332 58.2916794
-98.6332321 167.8668365 58.4895172
-99.7967224 167.8545532 58.6599808
-100.9901657 167.8479004 58.8017616
-102.1683578 167.8561096 58.9082260
-103.3438263 167.8585205 58.9940414
-104.5316010 167.8730927 59.0465469
-105.7344284 167.8941040 59.0612869
-106.9397278 167.9185638 59.0692101
-108.1007004 167.9363251 59.0536118
-109.3256302 167.9791565 58.9937820
-141.4232330 171.3612366 44.7403030
-142.8369751 171.6730347 43.2686272
-144.3792725 172.0424347 41.5559196
-60.2229805 174.2725067 27.7549324
-61.2564774 173.8131866 30.2316494
-96.3149567 169.0827332 58.0215225
-99.8144226 169.0398102 58.6085968
-101.0032883 169.0340576 58.7376785
-102.1736908 169.0391846 58.8462868
-105.7395554 169.0720215 59.0244751
-106.9462967 169.0972748 59.0200768
-108.1280365 169.1280212 58.9928741
-109.3377533 169.1595612 58.9360580
-141.4689941 172.6081848 44.4994926
-142.8948669 172.9273682 43.0129509
-60.2422638 175.5900269 27.2406197
-61.2942886 175.1021576 29.8104362
-96.3267059 170.2733765 57.9314156
-101.0245743 170.2190857 58.6565666
-102.1986847 170.2297363 58.7663651
-105.7593231 170.2597809 58.9447098
-106.9684143 170.2905731 58.9360199
-138.6790466 173.2830353 46.8958626
-140.0824585 173.5619659 45.6180115
-141.5396881 173.8758087 44.1757202
-142.9514313 174.1954346 42.6932182
-60.2704430 176.9227142 26.6574574
-61.3397369 176.4060822 29.3186455
-96.3498993 171.4681244 57.8130188
-101.0563354 171.4222565 58.5500183
-102.2230301 171.4222717 58.6581459
-103.4032898 171.4247284 58.7469254
-104.5884247 171.4431458 58.8047409
-105.7776794 171.4546814 58.8278503
-106.9870605 171.4876099 58.8201523
-138.7357941 174.5398865 46.5897942
-140.1494751 174.8307495 45.2749252
-141.5931244 175.1475220 43.8194313
-61.3961754 177.7280884 28.7531662
-62.4523163 177.2648926 31.1806908
-63.4983635 176.8727112 33.2864151
-96.3763885 172.6721954 57.6709442
-97.5283813 172.6524963 57.8941727
-98.7119064 172.6358643 58.1009216
-99.8759918 172.6222382 58.2744713
-101.0724640 172.6180725 58.4152718
-102.2393723 172.6275024 58.5230789
-138.8121033 175.8140259 46.2219849
-140.2052307 176.1030579 44.8997116
-62.5008011 178.5936279 30.5693626
-63.5522957 178.1797943 32.7701035
-96.3987579 173.8765106 57.5065460
-97.5520172 173.8592529 57.7314339
-98.7378693 173.8392639 57.9404144
-99.9010849 173.8294678 58.1119080
-101.1019745 173.8244324 58.2554512
-102.2613602 173.8271179 58.3654785
-138.8712158 177.0905762 45.8196182
-140.2903290 177.3950195 44.4419098
-61.4551353 180.4772491 27.2207527
-62.5631332 179.9350586 29.8953705
-63.5967255 179.5090485 32.1455803
-78.0408325 176.3611450 49.1817970
-79.1530304 176.2227478 49.9823952
-80.3050232 176.0928650 50.7432060
-81.4358368 175.9685669 51.4272690
-82.5796585 175.8585358 52.0997238
-83.7227173 175.7497406 52.7310257
-138.9691772 178.3939514 45.3235626
-140.3942108 178.7076111 43.9082832
-62.6115570 181.3187103 29.0630322
-63.6631279 180.8491516 31.4580536
-78.0630112 177.6072540 48.8891449
-83.7493439 176.9914551 52.4664879
-139.0399933 179.6957703 44.8018951
-62.6851845 182.7098083 28.1795406
-63.7395592 182.2176361 30.6559258
-64.7990494 181.7893524 32.8731461
-65.8792496 181.4094543 34.8523979
-78.0961227 178.8550262 48.5700874
-82.6392059 178.3426056 51.5230141
-83.7850189 178.2284546 52.1703720
-136.3173065 180.4299774 46.8089371
-137.7286072 180.7184753 45.5490723
-139.1343079 181.0180511 44.1776886
-63.8010406 183.6281891 29.6958084
-64.8676605 183.1634674 32.0349846
-65.9442596 182.7619476 34.1137009
-78.1483154 180.1269226 48.1583786
-82.6778488 179.5943756 51.1708145
-83.8152008 179.4846497 51.8120270
-136.4112701 181.7510376 46.2113609
-137.8129578 182.0427399 44.9205856
-139.2566223 182.3904419 43.4113464
-64.9424591 184.5627136 31.1038437
-66.0117493 184.1371765 33.2754135
-78.1999359 181.4006195 47.7105789
-79.3097229 181.2530518 48.5414658
-80.4525986 181.1124115 49.3424454
-81.5783768 180.9819336 50.0801506
-82.7228088 180.8592224 50.7712555
-83.8666306 180.7452850 51.4329376
-136.5261993 183.0885010 45.5422173
-64.9942551 186.0029297 30.0784130
-66.0914230 185.5317841 32.3520737
-78.2553101 182.6791534 47.2316971
-79.3650055 182.5331421 48.0634384
-80.5168839 182.3778992 48.8939438
-81.6369171 182.2520142 49.6398697
-82.7716141 182.1243286 50.3455353
-83.9136505 182.0080719 51.0135422
-136.6394958 184.4407043 44.8023834
-138.0445099 184.7599945 43.3791656
-66.1687241 186.9684906 31.2800827
-67.2338409 186.5470581 33.3677483
-68.3170624 186.1660614 35.3077545
-133.9730988 185.2298584 46.4703026
-135.3816071 185.5179596 45.2638893
-136.7726135 185.8191681 43.9560013
-66.2540359 188.4472809 30.0437832
-67.3156509 187.9885864 32.2542877
-68.3997650 187.5760193 34.3113136
-134.1060181 186.6072388 45.6496239
-135.5117950 186.9037933 44.3905258
-136.9140320 187.2231140 43.0166931
-67.4120026 189.4694977 31.0044594
-68.4951019 189.0117950 33.1904526
-134.2457275 187.9955292 44.7460480
-135.6701965 188.3176422 43.3968773
-68.6016541 190.4960175 31.8958702
-134.3977203 189.4164581 43.7297173
-68.7158813 192.0231018 30.4409809
-69.7605743 191.5747681 32.5940552
-70.8379517 191.1826477 34.5565186
-131.7743530 190.2568512 45.1267548
-133.1911926 190.5637512 43.8942261
-134.5774536 190.8757629 42.5914497
-69.8891907 193.1136017 31.0716591
-70.9561768 192.6837158 33.1857567
-131.9415894 191.6983948 44.0164490
-69.9947815 194.7533417 29.2503510
-71.0907745 194.2191010 31.6373577
-72.1381149 193.8153687 33.6176224
-73.2254257 193.4532166 35.4159622
-129.3906555 192.6122131 45.0707703
-130.7622375 192.8790131 43.9724464
-132.1354370 193.1748962 42.7492447
-71.2276688 195.8522339 29.7807808
-72.2802887 195.3828125 31.9700966
-73.3605576 194.9720154 33.9459000
-129.5690002 194.0827332 43.8467178
-130.9552307 194.3748169 42.6564102
-132.3345490 194.6892242 41.3492966
-73.5014038 196.5556641 32.2407379
-74.5707016 196.1651306 34.1033745
-75.6479416 195.8282623 35.7701721
-127.0175171 195.0391846 44.6600494
-128.3815765 195.2959290 43.6383438
-129.7704163 195.5915527 42.4705734
-73.6460419 198.2481842 30.2205372
-74.7195435 197.7785339 32.2828712
-75.7889404 197.3939209 34.1247673
-127.2239532 196.5521088 43.2826347
-74.8754120 199.4922180 30.1834068
-75.9613800 199.0274200 32.2100449
-77.0576935 198.6413269 34.0341949
-78.1173859 198.3214264 35.5976067
-79.2178268 198.0223541 37.0615196
-80.2999573 197.7713318 38.3279266
-124.7523956 197.5901794 43.7405968
-126.0723114 197.8248291 42.8075867
-127.4301376 198.0944519 41.7203827
-76.1256256 200.7836761 29.9493046
-78.2583618 199.9642944 33.7552414
-79.3573685 199.6211548 35.3313065
-80.4426422 199.3372803 36.7174911
-124.9741058 199.1529541 42.1552849
-126.3206711 199.4136353 41.1079025
-79.5609741 201.2643738 33.3454361
-80.6230927 200.9566650 34.8676300
-81.7393417 200.6552124 36.2994766
-82.8268661 200.4243164 37.4873581
-119.8834000 199.8348236 43.8772163
-121.1748657 200.0243683 43.1714554
-122.5233154 200.2568054 42.3304520
-123.8335800 200.4697876 41.4531441
-125.2302017 200.7740936 40.3586044
-80.8274994 202.6684418 32.6410751
-81.9275208 202.3169403 34.2661018
-83.0144043 202.0383301 35.6296768
-120.1135788 201.4251709 42.1990356
-121.4161530 201.6358948 41.4109192
-122.7672882 201.8735046 40.4969368
-83.2233810 203.7521973 33.3924179
-84.3380585 203.4698486 34.7732391
-85.4334946 203.2119446 36.0162430
-86.5449905 202.9863739 37.1236725
-87.6769257 202.7923889 38.1085320
-115.1502533 202.3469543 42.8723717
-116.4390335 202.4996490 42.3547897
-117.7315216 202.6673126 41.7594910
-119.0371246 202.8559570 41.0740280
-120.3750687 203.0661926 40.2756386
-121.6944427 203.3042603 39.3742409
-85.6609726 204.9483337 33.6851349
-86.7651825 204.6829071 34.9546967
-87.8832703 204.4688110 36.0523834
-115.3908768 203.9800720 41.0121841
-116.6916962 204.1535034 40.4130974
-117.9880066 204.3304596 39.7407379
-119.3201675 204.5533295 38.9257736
-120.6783447 204.8242340 37.9654312
-88.1395111 206.2245483 33.6052399
-89.2243958 206.0041809 34.7326393
-90.3694687 205.8014832 35.7355690
-91.4899826 205.6349792 36.5971565
-92.6506348 205.4551544 37.4355431
-93.7899323 205.3382111 38.0980949
-94.9481888 205.2231750 38.7078476
-110.5757294 205.1687775 40.5764923
-111.8613815 205.2787018 40.2514191
-113.1190186 205.3986511 39.8624306
-114.4108887 205.5466461 39.3670692
-115.6858521 205.7025757 38.7930984
-116.9959869 205.9003296 38.0930786
-90.6476517 207.6425934 32.9929237
-91.7591095 207.4374695 34.0038872
-92.9042206 207.2542419 34.9364929
-94.0412140 207.1090240 35.7027359
-95.1923828 206.9699707 36.4088669
-110.8544540 206.8976746 38.3079453
-112.1531525 207.0319824 37.8987656
-116.0217743 207.5321350 36.1191216
-94.3474274 208.9933319 32.7528839
-95.4864426 208.8266296 33.5979004
-96.6403580 208.7016602 34.2932014
-97.8080902 208.6039734 34.8606529
-98.9901962 208.5281372 35.3326759
-100.1523132 208.4438171 35.7482834
-101.3561172 208.4011993 36.0533676
-102.5479279 208.3848419 36.2681580
-103.7722244 208.3783264 36.4292603
-104.9706116 208.3967896 36.4893188
-106.2001801 208.4311371 36.4513016
-107.4485855 208.4795227 36.3407593
-108.6976166 208.5605774 36.1369362
-109.9451752 208.6475830 35.8775978
-111.1998672 208.7718506 35.4929276
-100.5173645 210.4163513 32.4487801
-101.7150650 210.3574677 32.8208847
-102.9024811 210.3368225 33.0525894
-106.5834503 210.4030151 33.1941643
-107.8331451 210.5098877 33.0580025
126.6499710 54.9931068 94.0092468
126.0526810 54.9803162 94.1664734
125.4343262 54.9757004 94.2827454
124.8701782 54.9762688 94.3302460
124.2940979 54.9755783 94.3567429
123.7347717 54.9763641 94.3444977
123.1559753 54.9792557 94.3278351
122.5756454 54.9866905 94.2493820
122.0258484 55.0037270 94.1403961
121.5155182 55.0126610 93.9018021
120.9822922 55.0225983 93.7017593
120.3658295 55.0360832 93.6318665
119.8057175 55.0432968 93.4313278
119.2832870 55.0576286 93.1684723
131.4554138 55.9022179 96.6343536
130.8247070 55.8833313 97.0168915
130.2407074 55.8754501 97.5158234
129.1889343 55.9291916 98.7057343
114.9829102 56.0494804 95.5730438
112.6533127 56.5539131 95.8237305
134.7471466 56.9459953 99.0516663
132.0373230 56.8090782 100.0606308
112.4476013 57.0508118 97.6930847
111.9120178 57.0643463 97.2158432
111.4048615 57.0930939 96.7115860
138.2400818 57.4839134 97.0572128
133.7519684 57.3069687 100.8154907
133.1434326 57.3159142 101.1226425
132.4549408 57.2841454 101.4839859
131.8533173 57.2795639 101.7241058
111.2069473 57.5662308 98.4101181
137.9089813 57.9543304 99.2418747
133.4769287 57.7768173 102.3564453
132.8665009 57.7586899 102.6567230
132.2459717 57.7458382 102.9727173
131.6332092 57.7336769 103.2287445
111.0236359 58.0070457 99.9757767
110.5103912 58.0276337 99.5608139
110.0095520 58.0585632 99.1349106
109.4818573 58.0737038 98.6113892
108.9562454 58.0652504 98.0817032
107.7624741 58.5707588 98.5423279
107.6233444 59.0785561 100.0600815
107.0865784 59.0837708 99.4480591
106.5737839 59.1127243 98.8680420
106.0670013 59.1421928 98.2580185
142.1971436 59.9043999 101.2320251
141.5305023 59.8857765 101.8922272
140.8707428 59.8638802 102.5123138
143.3441315 60.4126205 101.3755188
102.1207886 60.8023720 97.8760071
143.0621185 60.8982887 102.9874344
101.9874725 61.2857971 99.3136597
144.2068024 61.3886604 103.0339432
100.8510590 61.8034134 99.2205505
144.6410522 61.8945122 103.7976913
143.9623871 61.8618164 104.4645844
100.7268753 62.3043175 100.4998322
100.2270508 62.3368683 99.7654495
99.7350998 62.3772964 99.0009308
99.2267838 62.4223747 98.1689529
146.4814606 62.4490891 102.9680176
146.9361877 62.9563828 103.6099625
146.2411346 62.9254646 104.3777924
147.4261169 63.4449730 104.1464005
147.9205780 63.9492950 104.6758041
147.2045898 63.9215584 105.4860687
98.2297516 64.3246384 102.2379532
97.1372452 64.8846817 101.9037323
97.0467529 65.3829041 102.9032745
96.5286789 65.4082565 102.1709137
95.9298630 65.9324417 102.4423218
150.6159363 66.0031662 105.5204926
95.8454819 66.4220734 103.3938904
151.8358154 66.5578384 104.9580841
152.3489838 67.0631485 105.2347870
151.5902710 67.0258865 106.2002640
93.6837540 67.5737915 102.2691193
93.5873489 68.0579147 103.1339874
152.7150269 68.0305557 106.5928650
93.5243225 68.5489807 104.0519562
93.0190887 68.5860138 103.2937241
92.4242477 69.1176376 103.3498535
153.0630646 68.9932709 107.8836899
152.3338318 68.9440918 108.7355499
92.3534088 69.6121674 104.1846466
91.8631134 69.6582947 103.4328690
153.5858307 69.5212708 108.0491638
91.2936096 70.1960373 103.4657593
154.8852386 70.0941925 107.1648102
154.1327515 70.0431595 108.1380463
153.4176788 69.9808044 109.0031433
91.2164536 70.6852417 104.2479095
90.7087250 70.7326202 103.4446335
90.1479263 71.2763367 103.4557953
155.9974365 71.1377106 107.2451935
90.0831146 71.7487411 104.2041168
155.7977600 71.6062393 108.2662659
156.3777313 72.1265335 108.2507706
155.6301727 72.0697937 109.2100525
89.9399185 72.7262650 105.6995773
89.4449615 72.7792816 104.9348907
156.9775085 72.6420441 108.1865158
88.8843231 73.3253326 104.8223953
88.8359070 73.8269577 105.5266037
88.3253479 73.8825684 104.7170715
156.6342163 73.5588455 109.9950790
87.7595825 74.4263382 104.5475388
156.4921722 74.0247269 110.8135681
87.6679077 75.4085846 105.9001617
157.6819305 75.1140671 110.6360855
87.6202927 75.9067307 106.5176544
87.1067200 75.9671402 105.6623383
86.6197739 76.0335846 104.8495560
86.5861359 76.5290909 105.4858475
86.0633621 76.5874481 104.5806732
159.6275787 76.2699509 109.1080170
158.8635254 76.1881409 110.1572876
86.5355606 77.0222549 106.0975342
160.2822266 76.7991714 108.8051453
86.4699402 77.5065308 106.6727982
85.9511795 77.5608978 105.8342285
86.4217453 77.9939575 107.2528000
159.9705811 77.7228928 110.4228592
159.8421936 78.1953430 111.1345978
122.8216553 77.2864075 129.5176239
122.2728271 77.3025055 129.5085602
121.7475357 77.3075256 129.4730072
121.2174911 77.3096695 129.4272003
120.7000504 77.3363266 129.3966217
120.1462173 77.3379745 129.3413239
86.2741928 79.4617233 108.8414001
161.0307159 79.2855988 110.5842209
120.0978699 77.8228531 129.6627960
86.2265167 79.9493103 109.3385925
85.7214355 80.0054321 108.5998154
161.7522888 79.8285599 110.0970840
160.9120789 79.7558441 111.2408142
120.0493851 78.3085556 129.9705658
86.1785278 80.4389877 109.8028030
85.6694946 80.5001831 109.0606232
160.8198090 80.2238235 111.8500443
120.0089417 78.7958221 130.2671204
86.1405792 80.9317551 110.2745132
162.0264740 81.7952118 111.6757355
86.0128403 82.4099197 111.5468445
85.9780121 82.9036560 111.9500504
85.4627762 82.9647293 111.2553635
161.7859039 82.7468719 112.8742065
85.9397354 83.4006577 112.3230438
85.4330063 83.4650803 111.6403275
161.6851807 83.2197266 113.4024124
85.9009094 83.8967285 112.6832886
82.8696671 84.8487091 108.4933548
163.0077362 84.3550110 112.4012756
82.8500519 85.3564835 108.8843460
164.2387543 85.9783707 111.7958069
82.7730942 86.8608246 109.9758606
164.1647491 86.4610291 112.2585983
82.7376404 87.3606415 110.3011551
82.2205276 87.4432144 109.4453583
81.7324600 87.5291672 108.6159821
164.0663910 86.9428787 112.7513733
117.8975983 85.1958389 133.3795319
117.3480988 85.2080078 133.2997437
116.8188782 85.2260895 133.2169495
116.2928391 85.2388611 133.1292114
110.4436340 85.4279556 131.8282166
109.8983078 85.4547729 131.6488800
109.3868866 85.4843140 131.4817505
108.8485184 85.4989014 131.3064423
108.3080902 85.5215149 131.1239624
107.7629852 85.5409393 130.9287415
164.7711792 87.5152435 112.1241684
163.9667816 87.4184036 113.2311172
110.3987427 85.9131393 132.0430450
163.8793335 87.8989105 113.6809540
111.0063934 86.3701172 132.5517578
81.6755753 89.0454941 109.5893402
81.1812897 89.1353836 108.7391815
164.6018982 88.4778900 113.0157013
163.8015594 88.3812256 114.0983887
107.6864395 87.0316544 131.5590515
81.6499252 89.5471420 109.8996582
114.5844955 87.2486801 133.6662140
114.0487289 87.2694702 133.5580597
108.2013245 87.4931641 131.9445190
107.6570358 87.5217285 131.7486420
107.1336365 87.5473404 131.5587769
106.6282883 87.5681229 131.3770294
80.6214142 90.2367554 108.4308472
114.5819626 87.6849823 133.8779755
114.0231934 87.6996078 133.7447815
106.5965424 88.0600662 131.5714722
80.6300583 90.7473221 108.7465897
128.6882172 88.0425034 134.7020721
128.1399689 88.0414734 134.7515411
117.7432556 88.1695328 134.5285187
117.1885681 88.1705780 134.4541779
116.6682205 88.1902390 134.3825226
116.1289825 88.2025375 134.3059845
115.6832352 88.2003098 134.2897491
112.9341736 88.2290649 133.6599884
112.3806152 88.3187866 133.5518341
111.8442078 88.3330688 133.4173126
165.0031891 90.5176697 113.5878296
116.0890808 88.6951752 134.4866180
126.9566040 89.0276184 135.2089386
123.1240845 89.0541840 135.2828979
122.5718689 89.0649719 135.2641296
119.8665695 89.1145172 135.0778656
119.3280869 89.1298828 135.0229034
106.5332947 89.5531845 132.1056519
122.5527191 89.5542145 135.4371796
119.8732300 89.5757599 135.2124176
119.3152924 89.5646591 135.1534424
106.5202560 90.0547180 132.2691956
131.9150543 90.0304031 134.9786682
131.3672180 90.0235825 135.0667419
121.4427490 90.0676193 135.5419922
80.5278702 93.2849503 110.0323792
166.3520050 92.6952515 112.6682816
131.8958130 90.5280991 135.1352997
166.2864227 93.1830978 113.0061111
135.3022766 91.0603638 134.6400604
134.7073212 91.0398865 134.7657166
133.5443268 90.9805832 134.9559326
133.0124817 91.0412369 135.0785828
166.2666626 93.6739426 113.2863846
135.3110046 91.5083008 134.7631836
133.4888000 91.5372009 135.1189728
132.9938660 91.5366898 135.2214813
80.4491882 94.8141251 110.6539917
79.9411850 94.9211197 109.7326584
105.3832779 92.6080475 132.5941772
104.8588486 92.6401978 132.3730927
79.4534225 95.5436249 109.0429230
80.4135208 96.3546219 111.2033691
166.0142822 95.6655884 114.5008469
103.2364273 94.2352829 132.0859070
80.3993225 96.8723755 111.3582230
165.9876251 96.1449127 114.6694641
137.4357605 94.0781174 134.8951569
136.8552551 94.0658112 135.0525360
103.2335205 94.7391434 132.2108002
102.6952591 94.7731247 131.9511566
102.1822968 94.8077469 131.7061310
80.3981934 97.3872910 111.5089111
165.9266205 96.6451035 114.8858948
137.3987579 94.5789566 135.0246582
80.3910522 97.9004059 111.6668396
165.8758240 97.1471252 115.0831528
137.3923798 95.0749054 135.1387329
100.0555801 95.9618073 130.8471069
166.6835785 97.7768555 114.0920944
165.8033600 97.6457443 115.3097610
137.3746643 95.5717239 135.2465363
136.7949219 95.5576859 135.4046326
100.0726395 96.4692001 130.9596863
100.0610504 96.9756775 131.0473480
78.4154129 99.9176178 108.3306580
77.9183578 100.0420532 107.3254929
100.5651474 97.4426041 131.4139404
100.0535965 97.4823227 131.1344910
78.3936844 100.4438705 108.4183350
136.1812134 97.0467148 135.8231354
100.5481033 97.9497070 131.4950256
100.0260391 97.9899673 131.2102356
79.3329468 100.7306213 110.3579865
136.1638794 97.5483398 135.9037628
135.6113434 97.5382538 136.0356903
135.0467377 97.5276947 136.1708069
100.0232849 98.4968567 131.2966003
136.7063751 98.0591736 135.8494720
136.1437836 98.0489044 135.9838715
135.5919037 98.0391083 136.1157379
100.0289688 99.0038452 131.3782349
80.3145447 101.5439835 112.3762283
-109.2692032 115.6656036 13.3117571
136.6957550 98.5606995 135.9274750
100.5221481 99.4739532 131.7117004
100.0010757 99.5143738 131.4308472
80.2899399 102.0706711 112.4209518
-97.5305710 116.2673798 12.3179874
-98.0954056 116.2135620 12.8345995
-98.6684113 116.1664429 13.2969370
-99.2457199 116.1248474 13.6965618
-99.8351974 116.0906525 14.0465441
-100.4302139 116.0772324 14.3932495
-101.0164032 116.0892334 14.7070580
-108.9791183 116.0580521 15.9381485
-111.5914001 116.1868515 15.3321753
-112.2243652 116.1483841 15.0489264
-112.8610077 116.1626816 14.8135500
-113.5288391 116.1954803 14.4452181
165.6483612 101.1811295 116.3193665
136.7053833 99.0599365 136.0177155
101.0488815 99.9424591 132.0555878
80.2887115 102.5951614 112.4846649
-110.6484985 116.5142212 17.6944485
-113.8917999 116.5996399 16.5633373
165.6344299 101.6908875 116.4193802
138.4148254 99.6018448 135.6080933
137.8475494 99.5884552 135.7672119
137.2662964 99.5755692 135.9215240
136.6934052 99.5635147 136.0714111
101.0491104 100.4513702 132.1146545
80.2573853 103.1289291 112.4781342
-93.0587692 117.3631287 13.1349640
-93.6126938 117.3001251 13.8138838
-94.1858215 117.2469864 14.4609060
-94.7618256 117.2025986 15.0122118
-109.7683334 116.8100586 19.7407913
-110.4114838 116.8525314 19.6118412
-113.6319046 116.9965744 18.6573582
165.6228790 102.2034683 116.4999161
137.2526550 100.0792160 135.9752960
136.6677704 100.0664749 136.1285095
101.0267868 100.9625015 132.1581726
100.5072632 101.0036774 131.8758545
99.9824448 101.0459442 131.5870667
80.2515793 103.6580505 112.5053558
-91.1603699 117.9344482 13.3256044
165.5946960 102.7151566 116.5873795
99.9807816 101.5568848 131.6316986
80.2497711 104.1880493 112.5248566
-89.8377686 118.4551620 13.9837675
-90.3890839 118.4061661 14.7332602
-90.9611816 118.3554230 15.4888906
-114.4823990 117.8404617 21.7118225
-115.1372070 117.8798599 21.4221058
-115.8056183 117.9249115 21.0989170
-116.4819260 117.9752884 20.7512627
-117.1420441 118.0192719 20.4200459
-117.8015900 118.0430374 20.0566769
-118.5015030 118.0729065 19.6143970
165.5887451 103.2312088 116.6355438
99.9640579 102.0699539 131.6649475
80.2582474 104.7164078 112.5545197
-88.5485611 119.0079880 14.6029711
165.6017456 103.7510834 116.6520538
99.9730225 102.5804062 131.7085876
80.2656174 105.2453308 112.5777283
-86.7230072 119.6456604 14.0850124
-87.2662888 119.5734177 14.9288483
-87.8234558 119.4963226 15.7130642
-88.3823776 119.4275818 16.4891319
165.5721283 104.2645035 116.7167816
99.9519730 103.0957489 131.7316284
80.2647324 105.7780762 112.5722809
-121.9641342 119.6773224 21.8830872
165.5640869 104.7829056 116.7452240
137.2281952 102.6022491 136.2055664
80.2468491 106.3167191 112.5296021
-84.6956024 120.7813950 15.3161430
-121.7374039 120.1358643 23.4263744
-122.4210968 120.1816025 22.9521198
-123.1113663 120.2311630 22.4361935
165.5762177 105.3061142 116.7365036
80.2686920 106.8461609 112.5448074
-83.5265045 121.3418350 15.2409096
-124.3200073 120.8094559 22.8311443
165.5799255 105.8296509 116.7270050
80.2580872 107.3864212 112.4887161
-81.7430115 122.0871353 13.8967867
-82.2778854 121.9752274 14.9653921
-82.8346176 121.8748550 16.0203094
-83.3851624 121.7775040 16.9697952
-124.1095581 121.2793350 24.2854061
-124.8246078 121.3324051 23.7292156
-125.5295944 121.3957062 23.1610317
165.6064606 106.3591995 116.6780090
80.2630234 107.9241409 112.4456635
-126.7288055 122.0018387 23.3587742
165.5861969 106.8786774 116.6815491
80.2689590 108.4646378 112.3808060
-80.3976059 123.1310043 15.4579754
-80.9370728 123.0323257 16.4855671
-126.5171509 122.4662857 24.7760315
165.5912628 107.4064789 116.6437531
103.0804520 105.9430008 133.3429108
-127.7962570 123.0599289 24.8037758
165.5908203 107.9336014 116.6036377
134.9407806 105.6290817 136.7323914
134.4700775 105.6710510 136.7208862
103.6030502 106.4182816 133.5939331
103.0830765 106.4563828 133.3467865
-127.5859146 123.5335464 26.1497192
165.5867462 108.4607239 116.5576782
-128.8345490 124.1148911 26.1500244
165.6405334 109.0032196 116.4254532
-77.1813889 125.3994217 16.4513588
-77.7274551 125.2966309 17.5324993
-78.2652893 125.1905518 18.5363312
-128.6437073 124.6010895 27.3593559
-129.3974152 124.6630325 26.6955509
165.6692200 109.5406876 116.3184433
133.7990112 107.1239700 137.0089874
133.2374878 107.1182709 137.1189423
106.2276917 107.7921753 134.5656891
80.3122635 111.1841812 111.9313278
-77.0857239 125.8590851 17.9168530
165.6719513 110.0722885 116.2411041
133.8096924 107.6409607 136.9878845
131.5410767 107.6127243 137.3842621
130.9884491 107.6070862 137.4536743
130.4442749 107.6077271 137.5223083
129.8843231 107.6027222 137.5938568
106.1954880 108.3178177 134.5595093
-76.4211960 126.4254990 18.2184982
-76.9761658 126.3103714 19.2621536
-131.1877441 125.8595200 27.0898914
165.7289581 110.6208496 116.0838776
133.8049011 108.1523514 136.9678345
106.2066116 108.8337326 134.5682983
105.7954636 108.8143082 134.4521637
-74.7118454 127.2360840 16.3140297
-131.0215912 126.3421936 28.1951065
133.8096313 108.6633377 136.9406738
129.3330231 108.6297607 137.6065216
128.7805328 108.6323318 137.6612244
128.2303925 108.6346054 137.7056885
127.6807938 108.6356506 137.7434387
127.1206207 108.6322403 137.7759399
126.5511627 108.6376648 137.7989960
124.9363480 108.6547241 137.8153687
120.5762405 108.7196274 137.7277222
120.0421524 108.7334213 137.6854858
119.5004196 108.7462540 137.6336823
118.9456482 108.7676010 137.5701752
118.4153824 108.7774582 137.5062866
108.8449173 109.1893005 135.4168549
108.3257675 109.2207413 135.2445984
107.7995758 109.2487106 135.0677185
107.2642212 109.2806320 134.8834076
106.7426682 109.3132324 134.7049255
106.2238846 109.3476257 134.5361481
-74.6263199 127.6995697 17.7229404
-130.8596191 126.8203354 29.2557888
-131.6117249 126.8840332 28.5998631
124.9533310 109.1634140 137.7573395
124.4417877 109.1925430 137.6833954
118.4059906 109.3067169 137.4583588
106.7391129 109.8383865 134.6541595
106.2149887 109.8767776 134.4803162
103.0685425 110.1067963 133.1294403
102.5458450 110.1447525 132.8635559
102.0529861 110.1788025 132.6107635
80.3610382 113.3866425 111.4245987
-132.1627197 127.4560699 29.0258961
124.9375916 109.6786423 137.7232361
124.3880234 109.6953278 137.7316132
118.4146118 109.8183365 137.4163208
117.8929672 109.8275070 137.3563690
117.3522415 109.8479996 137.2910004
116.7952805 109.8655014 137.2220764
102.0541382 110.7018280 132.5529633
80.3691940 113.9450989 111.2424393
-73.3056946 128.9191132 18.1305885
-132.0293884 127.9370193 29.9690990
102.0532532 111.2294388 132.4842987
-73.2380905 129.3126068 19.2048225
113.1059952 111.0483856 136.3999176
112.5631790 111.0720444 136.2790375
112.0295029 111.0885468 136.1575928
111.4905701 111.1279449 136.0264130
102.0682297 111.7525864 132.4171906
-72.1035767 130.0482178 18.1825676
-72.6344299 129.9113922 19.3353519
-73.1598663 129.7731171 20.3827343
-133.1503601 129.0793152 30.6302280
165.1208191 113.7401199 116.2346649
164.3454285 113.5956116 117.2518463
116.2871170 111.4393234 136.9871826
105.7610397 112.0104218 134.0200500
105.1751862 112.0946121 133.8109589
104.1305771 112.0570908 133.3339539
164.3855743 114.1466599 117.0656815
116.2998581 111.9558640 136.9162140
113.6416321 112.0690765 136.3869629
109.9380493 112.3050537 135.4492950
109.3748474 112.3378754 135.2837219
105.8527832 112.4278870 134.1535645
104.1047440 112.6391449 133.2545624
103.6578293 112.6762390 133.0379181
103.1311798 112.7187881 132.7853088
-70.8592224 131.2747040 18.1013489
164.4433136 114.7055969 116.8391266
116.3009872 112.4777985 136.8345337
113.6494904 112.5875244 136.3184509
104.1828613 113.1603851 133.1855164
81.3989334 116.4837952 112.0297546
80.9295578 116.6165161 111.1767349
-134.2291260 130.7390137 31.9407768
164.4874420 115.2578583 116.6201172
116.3254242 113.0027161 136.7498169
115.8018417 113.0261917 136.6591034
115.2706757 113.0395508 136.5642853
114.7160721 113.0704651 136.4581146
114.1809006 113.0888138 136.3518677
113.6539459 113.1099548 136.2410583
104.7057724 113.6528168 133.3194427
104.1919403 113.6894226 133.0875702
-69.6560593 132.5072479 17.9697838
-134.0988464 131.2471466 32.7562828
-134.8471832 131.3337708 32.0639610
164.5563660 115.8235626 116.3626175
81.4420242 117.6126862 111.6099625
-135.4108887 131.9298553 32.1705933
106.8140030 114.5576324 133.9801636
106.3032608 114.5922623 133.7796326
105.7929993 114.6266251 133.5715942
105.2522125 114.6726990 133.3421936
81.4731598 118.1807022 111.3802948
-68.4017410 133.7501221 17.5346661
-135.2297363 132.4641876 33.1071434
-135.9782715 132.5564423 32.3899956
-136.7075195 132.6608124 31.6540089
-137.4987946 132.7668915 30.8085213
126.1140060 114.3488998 137.1226349
125.5748062 114.3592300 137.1438904
125.0240784 114.3566360 137.1606598
124.4624710 114.3583527 137.1692657
123.9050903 114.3694382 137.1676025
123.3727112 114.3817596 137.1556702
118.4861069 114.5127182 136.8006592
117.9716644 114.5147018 136.7368927
117.4349289 114.5309219 136.6614685
116.8822708 114.5495300 136.5780334
116.3539810 114.5706711 136.4922638
115.8163757 114.5989151 136.3973236
82.4576797 118.4798737 112.8426056
-138.1035309 133.3774567 30.8633652
123.3874817 114.9062653 137.0639191
118.5212250 115.0301895 136.7111511
115.8347702 115.1193314 136.3047485
82.4792175 119.0513229 112.5848923
81.9839706 119.1874924 111.7173691
-68.2542191 134.6727448 19.7577477
163.2377472 117.7836914 117.2700729
123.4053955 115.4339600 136.9623108
118.5268326 115.5592880 136.6060944
115.8537521 115.6489487 136.1999817
82.5124969 119.6181641 112.3375931
81.9917755 119.7689972 111.4188995
-68.2072449 135.1517334 20.7697067
-137.8536835 134.3635559 32.5324516
163.2895966 118.3488235 116.9685211
123.4247360 115.9565125 136.8510590
118.5333862 116.0843048 136.4922943
115.8787689 116.1717682 136.0891571
-67.6013565 135.7873688 20.4980392
-68.1400223 135.6335754 21.6569023
-137.7134705 134.8751831 33.3096428
-138.4523163 134.9727478 32.5713272
164.1489258 119.0806656 115.5719299
163.3525848 118.9195175 116.6596451
82.5415421 120.7770004 111.7318344
-139.0867310 135.5868378 32.5342522
82.5653610 121.3621674 111.4058456
-66.4058075 137.0808563 19.8540554
-66.9443512 136.9232330 21.0650215
83.5928574 121.6488647 112.8417587
83.6266708 122.2304916 112.4870987
-65.7663193 138.2206879 20.4006157
-140.2683563 137.3543701 33.0651436
162.0317993 120.9034576 117.3288727
-65.7091522 138.7084351 21.2392139
162.9496002 121.6731796 115.7985764
162.1277771 121.4952469 116.8920822
-65.6535950 139.1981659 22.0596504
-140.0767975 138.3690033 34.4074554
163.0497131 122.2753067 115.3282394
162.2137909 122.0828934 116.4760895
84.6692047 123.7176361 113.1342239
-65.5998459 139.6833038 22.8353405
-139.9361267 138.8976440 35.0807533
-140.6908875 139.0080261 34.3012581
162.3520508 122.6966858 115.9865189
84.6748123 124.3225784 112.7338104
-139.8386688 139.4209900 35.6786957
162.4394073 123.2957611 115.5511551
161.6636353 123.1260757 116.6064148
160.9073334 122.9770508 117.5987167
-66.5680923 140.3793945 26.3316154
-139.7210236 139.9489594 36.2740669
-66.5326767 140.8890991 26.9932079
-139.6416168 140.4639282 36.8420372
161.0890045 124.1663589 116.7173462
85.7966843 125.7990417 113.2849121
-67.5764465 141.1432953 29.3891468
-99.0631866 138.3786011 50.1793747
-99.6570587 138.3662109 50.2761421
-100.2438812 138.3538055 50.3627205
-100.8353119 138.3550262 50.4495087
161.2091980 124.7838974 116.1961670
85.8261337 126.4015884 112.8587646
-67.5558777 141.6654816 29.9476051
-99.0210724 138.9146576 50.5282173
-99.0069962 139.4481354 50.8712158
-101.9577866 139.4204102 51.2819443
-140.8716736 142.2510986 37.0152512
-141.6588745 142.3650970 36.2338943
-98.9597549 139.9831390 51.1947861
-99.5427094 139.9656830 51.2901306
-140.7997284 142.7764587 37.5299263
159.9463196 126.2714081 116.6412964
86.8976593 127.9456482 113.0890350
160.8417664 127.0625153 115.0388184
160.0268555 126.8758163 116.1353302
86.9543457 128.5456085 112.6372833
86.4739456 128.6906738 111.8164291
87.0081787 129.1478119 112.1623001
-142.0904999 144.6230164 37.4180717
-142.8525543 144.7501373 36.6305351
160.3304443 128.1570740 114.8156433
87.0333786 129.7864990 111.6008987
-142.0173950 145.1620026 37.8673820
90.1057053 130.7877502 114.8389435
89.6148911 130.9200134 114.0918579
-141.8005676 146.7696075 39.1711578
90.1419296 131.4113007 114.3019638
-141.7626190 147.3083038 39.5490570
-142.4889832 147.4315338 38.8257256
-143.2417603 147.5574951 38.0641670
159.4696808 131.0317841 113.3268738
158.6808929 130.8433228 114.5154419
157.9006958 130.6612091 115.6021500
157.1450500 130.4695282 116.6224442
154.9877625 130.1029510 119.2045975
90.2204971 132.0081024 113.8127823
89.7187042 132.1826172 112.9316254
155.0746765 130.7730103 118.5762558
90.2614059 132.6477203 113.2000046
155.2258453 131.3487854 117.8907394
90.3312836 133.2742157 112.5955048
-97.4665375 146.0036163 54.0794716
-100.4090729 145.9759369 54.5532494
156.0689850 132.1280823 116.3355484
155.3467102 131.9819641 117.2072372
90.3881454 133.9096985 111.9412384
-97.4456482 146.5521088 54.3119698
-100.3889771 146.5207520 54.7850266
-144.4983673 150.0448456 37.8562965
-145.2624969 150.1983185 36.9870262
156.9787292 132.9585266 114.6188126
156.1935883 132.7718506 115.6413269
155.4452972 132.6118774 116.5555801
91.4117508 134.2609100 112.9224625
90.9401779 134.3965759 112.1553116
-97.4256363 147.1028595 54.5354652
-105.7142944 147.0906067 55.3913651
-106.3210526 147.1041412 55.3987694
-108.7635193 147.1033020 55.3613167
-144.4356079 150.6004791 38.1829758
155.5940552 133.2448578 115.8314972
91.4724121 134.9034729 112.2812119
-97.4052200 147.6584320 54.7525940
-97.9935226 147.6454620 54.8664818
-98.5929184 147.6355133 54.9691162
-99.1868515 147.6315765 55.0599327
-105.6378250 147.5883179 55.6055603
155.7935181 133.9700928 114.9392471
92.4936829 135.2803345 113.1238174
92.0032501 135.4207306 112.3642883
-104.5009308 148.1854553 55.7832794
-108.6840515 148.2528992 55.7828522
92.5762634 135.9124603 112.5019073
-104.4708176 148.7378540 55.9903679
-144.2698517 152.2468262 39.1655045
-145.0290680 152.4139099 38.2889404
154.6401367 135.0035400 115.1620560
-89.2113190 149.5710449 53.0898094
-90.3293839 149.5513000 53.3221626
-90.9908142 149.5051422 53.6489639
-100.8608246 149.2232819 55.9584465
-102.0636902 149.2685242 56.0790291
-102.6478958 149.2750244 56.1041222
-103.2411270 149.2790527 56.1307945
-103.8616333 149.2913361 56.1621819
-109.8509750 149.3889313 56.1409111
-110.4321442 149.4090729 56.1015434
-111.0497818 149.4268188 56.0500488
-144.2236023 152.7992249 39.4931755
-103.8416595 149.8479004 56.3538971
-105.6030121 149.8729706 56.4301987
-106.1842651 149.9167328 56.4524117
-144.1937103 153.3536987 39.7639236
153.5188904 136.0583649 115.2292557
94.7254486 137.3331909 113.2940140
-92.0722351 150.5608215 54.4675102
-99.6397858 150.3798065 56.1917038
-100.0795288 150.3382263 56.4728622
-105.6106262 150.4295349 56.5566483
-106.2286148 150.4404449 56.5663795
-106.8187485 150.4500427 56.5750923
-112.2505646 150.5800476 56.3055229
-87.4320602 151.3233795 53.0134621
-92.0525131 151.1172333 54.6548500
-99.6064758 150.9409332 56.3664970
-105.5946960 151.0025787 56.6945953
-112.2139053 151.1401062 56.4942703
151.6513062 136.8592072 116.2255325
150.9584045 136.8623810 116.7997971
95.8794327 138.3603516 113.2943344
95.3869934 138.4969177 112.5679016
-92.0238495 151.6719666 54.8338394
-97.2922592 151.5442200 56.0974541
-97.8731918 151.5380096 56.1992531
-98.4701385 151.5268860 56.3007851
-99.0560303 151.5163116 56.4088554
-99.6334457 151.5015717 56.5337067
-112.1895981 151.6996155 56.6703033
-118.9104385 152.0166931 55.4946480
-119.5321198 152.0542297 55.3366737
-120.1684113 152.0946045 55.1625252
-120.7834396 152.1368561 54.9822464
95.9566727 139.0255890 112.5165253
-89.1081009 152.3468323 54.0705109
-89.4944687 152.3488007 54.2187958
-102.5706253 152.0713348 56.9671097
-103.1618042 152.0742645 57.0158272
-103.7748871 152.0745392 57.0656128
-109.7545166 152.1818085 57.0378265
-110.3556671 152.1982574 56.9955177
-110.9662323 152.2164307 56.9463882
-111.5814972 152.2370911 56.8915787
-112.1774368 152.2599335 56.8336601
-120.7835464 152.6989594 55.1460419
-144.0637054 155.6098785 40.7019806
-144.8060608 155.7676392 39.8862877
151.2965851 138.2368164 114.9747314
96.0383453 139.6952972 111.6952972
-89.1152039 152.9079895 54.2108383
-93.7645874 152.7306824 55.6698303
-94.3370972 152.7183685 55.8046875
-96.1072922 152.6862030 56.1853676
-102.5496750 152.6339264 57.1145325
-103.1509552 152.6358337 57.1637955
-120.7732391 153.2599945 55.3065948
-145.5509033 156.4884796 39.2438431
-84.4979706 153.7285156 52.4360199
-89.1088715 153.4738007 54.3537102
-94.3242493 153.2855072 55.9471474
-120.7454147 153.8224640 55.4671097
150.2132874 139.3561249 114.6836243
149.4996185 139.2003021 115.4659576
148.8180695 139.0658112 116.1721725
98.1679153 140.5056915 112.8885574
-84.4832077 154.2917175 52.5833092
-94.3182526 153.8492126 56.0794296
-94.8812943 153.8015442 56.1835670
-110.2976532 153.8855286 57.4508095
-110.8975677 153.9037781 57.4086914
