-98.2394104 224.7752075 49.1631889
-100.6176910 224.7346802 49.5595589
-103.0229721 224.7674866 49.6973076
-105.4464645 224.8684082 49.5644608
-101.1808014 228.4504089 44.5402832
126.2864456 74.6767349 102.2186127
131.5311127 75.4282761 105.4720001
130.3353729 75.4253082 105.8935852
129.1655579 75.4244003 106.1874084
128.0023651 75.4135132 106.3708344
126.8713226 75.4155045 106.4655914
125.7183838 75.4220276 106.4887085
124.6179733 75.4301834 106.4303207
123.4939499 75.4555435 106.2667694
122.3990784 75.4806824 106.0240784
121.3072052 75.5182037 105.6659012
120.2356949 75.5582047 105.2673187
119.1733398 75.5742798 104.7632599
118.1035919 75.6151199 104.1592178
135.8742371 76.3703918 106.7865448
134.6457825 76.3301086 107.5177002
133.4173279 76.2826996 108.1281967
132.2275848 76.2496796 108.6171112
131.0337982 76.2213745 109.0026321
129.8658600 76.1995316 109.2895126
128.6981201 76.1864700 109.4968872
127.5469055 76.1803284 109.6220169
126.4321442 76.1772690 109.6678314
125.2907257 76.1905365 109.6833344
124.1914673 76.2067642 109.5898285
123.0649414 76.2300262 109.4190598
121.9760284 76.2603455 109.2097015
120.8872528 76.2949982 108.9179993
119.8121796 76.3373642 108.5643539
118.7436371 76.3878021 108.1313477
117.6713257 76.4386902 107.5910568
116.6296158 76.4993134 106.9985046
136.6270142 77.1676025 109.4486618
135.3907928 77.1449432 110.0994949
116.2693329 77.3008499 109.8554382
115.2101669 77.3520584 109.2102966
114.1728592 77.4212265 108.5222626
113.1392288 77.5142288 107.7514114
112.1205750 77.6078186 106.8675156
111.1144562 77.7018738 105.8869858
141.1963196 78.2773590 108.9445267
139.9157410 78.1960144 109.9810333
138.6605072 78.1073685 110.8815765
137.4103088 78.0391235 111.6627808
136.1961975 77.9933472 112.2887115
134.9711914 77.9599838 112.8744507
115.9540634 78.1350403 112.2755966
114.8909760 78.1996841 111.7266312
113.8604202 78.2570801 111.1020203
112.8180618 78.3377686 110.4351044
111.7852325 78.4186172 109.6483536
110.7633057 78.5160828 108.7729340
143.3456879 79.2182770 109.7693710
142.0363159 79.1405640 110.9144516
140.7358551 79.0593414 111.9337158
139.4971008 78.9874649 112.7746201
111.4889221 79.2558746 111.9867630
110.4575882 79.3404160 111.2136993
109.4382095 79.4243774 110.3416519
108.4389572 79.5247650 109.3624878
107.4263763 79.6368408 108.2748871
106.4195404 79.7109070 107.0884705
145.5274963 80.2077942 110.2129440
144.2102814 80.1269531 111.4729309
142.8896027 80.0361786 112.6177292
141.6198273 79.9493713 113.5878372
140.3509064 79.8772354 114.4443359
139.1231232 79.8159790 115.1606903
111.2366333 80.1267776 114.0645981
110.2010193 80.2022858 113.3495636
109.1651688 80.2795792 112.5253448
108.1506958 80.3761673 111.6495514
107.1438522 80.4824295 110.6957397
106.1493225 80.5894852 109.6506653
105.1477356 80.7020187 108.4608383
146.4211426 81.1322327 111.7395935
104.8889771 81.5611343 110.7755127
103.9112701 81.6836700 109.6227417
102.9046173 81.7897415 108.2911835
147.3318176 82.0620117 113.0237885
146.0100250 81.9599609 114.2873764
104.6434479 82.4165573 112.8066711
103.6573715 82.5283813 111.7270813
102.6661148 82.6597137 110.5501862
101.6731873 82.7736511 109.2523422
149.6323547 83.1259918 112.6911545
148.2736664 83.0040283 114.1235046
146.9426575 82.8884354 115.3878784
145.6564636 82.7838745 116.4684601
102.4332809 83.5220566 112.5218658
101.4400482 83.6490173 111.3174057
100.4679108 83.7770157 110.0396881
150.5927429 84.0771713 113.6508789
149.2199402 83.9529724 115.1150970
147.9192200 83.8286285 116.3233185
146.6056213 83.7298431 117.4502182
145.3288574 83.6473694 118.4433517
102.2286072 84.4031601 114.3320236
101.2355270 84.5244827 113.2172852
100.2503128 84.6596603 112.0030899
151.5881958 85.0429153 114.4524612
150.2061462 84.9093018 115.9266434
100.0443268 85.5299988 113.7738571
99.0696106 85.6661682 112.5628128
98.0965118 85.8062744 111.2335510
152.6060333 86.0094910 115.1038284
151.2435303 85.8750839 116.5634613
149.8737488 85.7502365 117.9015656
99.8769684 86.4272003 115.4315109
98.8815765 86.5572052 114.2550201
97.9056091 86.6980591 112.9965820
96.9082336 86.8240356 111.6079865
152.2461243 86.8574524 117.1741257
97.7239609 87.5905914 114.5954132
96.7341003 87.7367249 113.2930832
95.7499161 87.8636703 111.9053421
154.6782227 87.9958344 116.0768890
153.3147888 87.8449173 117.6068268
151.9404907 87.7074051 118.9953766
97.5732040 88.4902115 116.1060486
96.5576859 88.6353531 114.8243027
95.5810242 88.7774963 113.5043640
155.7594147 89.0018311 116.3556366
154.3540802 88.8379669 117.9765244
95.4422226 89.6873093 115.0334320
94.4460754 89.8303528 113.6379166
156.8594971 90.0122681 116.5119171
155.4355621 89.8505554 118.2138443
154.0498962 89.6982651 119.6899338
95.2942429 90.5931396 116.4141541
94.3022156 90.7457733 115.0822144
93.3327713 90.8989258 113.6786652
156.5388641 90.8683167 118.3202591
93.2047119 91.8169785 115.0867004
92.2094269 91.9788208 113.5896378
157.6622925 91.8982162 118.3270340
156.2525940 91.7304382 119.9545593
93.0671921 92.7321777 116.3793030
92.0866928 92.8988342 114.9637527
158.7899628 92.9441452 118.2499390
157.3858795 92.7651978 119.9314499
155.9895325 92.6078644 121.4434052
92.9323349 93.6492844 117.5601196
91.9497910 93.8179626 116.2049332
90.9815826 93.9850006 114.7695160
159.9517059 93.9924316 118.0253983
158.5143127 93.8022003 119.8174667
157.1255798 93.6393814 121.3918304
155.7551117 93.4921417 122.7965698
92.8224182 94.5764999 118.6914978
91.8327179 94.7405777 117.3775330
90.8616257 94.9117432 115.9807816
89.8836365 95.0914307 114.4380493
159.6573792 94.8613892 119.6195831
158.2663422 94.6816406 121.2542877
90.7435150 95.8372192 117.1232376
89.7723236 96.0160599 115.6531982
160.8617249 95.9262314 119.2629395
159.4037476 95.7365570 121.0437241
158.0442352 95.5654144 122.5472183
90.6306000 96.7668915 118.1848068
89.6559601 96.9432373 116.7647324
160.6046906 96.8068390 120.6668243
90.5340881 97.7047424 119.1806412
89.5518723 97.8779373 117.7897873
160.3655396 97.6921921 121.9563904
90.4434509 98.6497192 120.1051102
89.4582825 98.8211670 118.7470703
88.4891129 99.0048218 117.3152390
161.5778809 98.7782059 121.4531708
160.1542664 98.5863419 123.1332016
88.3948441 99.9489594 118.2412338
87.4234695 100.1352615 116.7554626
162.8227386 99.8785172 120.8037109
161.3523254 99.6698074 122.6419373
159.9625244 99.4900665 124.2143555
88.3119736 100.8950195 119.1389160
87.3471451 101.0852509 117.6846542
86.3518829 101.2809372 116.0774689
164.0497894 100.9875183 120.1061249
162.5927124 100.7722855 122.0001221
88.2305527 101.8463287 119.9719086
87.2605743 102.0367584 118.5373611
163.8368225 101.8845520 121.2609863
162.4025879 101.6748886 123.0711823
88.1417313 102.8017044 120.7199020
87.1797562 102.9911957 119.3350983
86.1932526 103.1884308 117.8172836
163.6318665 102.7895126 122.3399887
162.2179871 102.5837402 124.0742188
86.1232529 104.1477661 118.5969620
164.9480896 103.9205551 121.4093933
163.4430389 103.6988983 123.3461380
162.0514526 103.5008392 124.9949646
86.0579300 105.1099701 119.3250732
85.0735016 105.3108673 117.7837601
163.2685394 104.6133499 124.2700500
161.8992004 104.4225616 125.8400345
125.2103577 102.8131943 141.5363007
124.1323242 102.8313751 141.4972382
123.0413589 102.8495560 141.4398499
121.9697495 102.8753967 141.3635254
85.9859161 106.0778656 119.9907684
164.5821075 105.7542419 123.3200073
163.1307068 105.5398865 125.0904999
161.7556152 105.3507767 126.6268158
125.1289215 103.7700348 141.9931335
124.0632095 103.7895660 141.9503174
122.9759979 103.8116150 141.8843994
121.9059601 103.8355103 141.8007355
85.9371033 107.0454025 120.6467438
84.9507294 107.2528534 119.1290054
165.9152832 106.9135056 122.2434692
164.4399719 106.6813889 124.1276093
131.6530609 104.6883316 142.1319275
130.5298157 104.6831055 142.2462006
129.4496155 104.6904068 142.3231201
128.3439789 104.6918411 142.3701782
127.2505875 104.6982422 142.4081421
126.1515656 104.7132492 142.4360504
125.0730743 104.7286606 142.4151001
121.8413544 104.7965851 142.2274017
114.4147110 105.0453720 141.0030212
113.3535004 105.0936279 140.7277679
112.3028793 105.1461716 140.4260254
111.2398987 105.2011795 140.0985413
110.2196884 105.2631226 139.7639923
109.1673584 105.3199387 139.3845673
108.1268997 105.3880615 138.9883728
107.0782318 105.4569397 138.5614471
85.8765717 108.0179291 121.2398605
84.9030075 108.2271881 119.7525406
83.9285812 108.4573364 118.1099472
82.9934387 108.7021713 116.3363037
165.7523193 107.8410721 123.0593948
164.2860870 107.6109772 124.9170837
131.5932922 105.6442108 142.5467834
130.4603882 105.6442642 142.6563568
129.3899384 105.6469574 142.7263489
128.2833557 105.6517792 142.7787781
127.1923218 105.6586380 142.8231506
126.0938873 105.6761322 142.8450317
121.7822647 105.7489319 142.6400757
114.3529282 106.0101700 141.4007263
113.2927551 106.0586929 141.1244354
112.2452927 106.1102295 140.8326263
108.0746384 106.3550873 139.3928833
107.0360565 106.4250488 138.9739685
85.8083267 108.9957733 121.7716827
84.8589020 109.2040558 120.3385086
83.8883286 109.4362488 118.6910858
82.9502792 109.6808243 116.9250183
165.5876617 108.7722473 123.8510513
164.1545715 108.5467453 125.6300125
133.7493591 106.6153336 142.6385193
132.6235809 106.6083221 142.8020325
131.5231323 106.6010742 142.9350281
130.4069519 106.6044006 143.0408783
126.0320740 106.6359940 143.2240906
124.9733734 106.6628418 143.1841888
121.7305450 106.7126083 143.0255127
120.6437225 106.7415085 142.9117432
119.5950775 106.7712173 142.7686157
118.5298996 106.8107529 142.6131134
117.4736252 106.8460464 142.4405212
116.3995743 106.8837128 142.2429810
115.3542786 106.9293365 142.0257568
114.2999878 106.9715576 141.7773743
108.0280380 107.3246918 139.7766418
106.9882050 107.3962860 139.3570099
83.8341827 110.4161530 119.2695465
82.8828964 110.6515961 117.6058578
166.9695435 109.9682541 122.5139771
165.4589996 109.7110596 124.5450592
164.0263062 109.4883499 126.2936401
133.6865234 107.5737610 143.0163422
132.5622559 107.5687408 143.1757050
131.4589539 107.5644836 143.3064270
124.9062347 107.6156158 143.5662537
121.6839600 107.6758652 143.3908539
120.5927429 107.7074661 143.2655640
119.5505753 107.7393799 143.1238403
118.4725952 107.7721329 142.9744110
117.4260178 107.8121872 142.8179474
110.0667267 108.1625748 140.9047852
109.0158691 108.2277679 140.5352478
107.9821167 108.2944794 140.1372986
106.9406052 108.3664932 139.7154846
83.7702789 111.3974304 119.7680130
82.8386154 111.6314163 118.1564102
81.8376312 111.8898315 116.2985992
166.8327637 110.9057617 123.2291031
135.8582306 108.5597687 143.0013123
134.7367554 108.5482712 143.2022705
133.6347046 108.5378418 143.3693542
106.8931961 109.3395996 140.0534363
83.7251129 112.3864288 120.2333527
82.7939072 112.6224670 118.6350555
166.7095490 111.8505402 123.8811646
135.7982178 109.5250931 143.3374481
134.7008972 109.5070953 143.5142517
106.8607025 110.3152618 140.3708496
83.6807251 113.3800812 120.6501770
82.7427216 113.6182404 119.0516815
81.7862244 113.8797607 117.2643814
166.5955353 112.8017120 124.4675446
140.2740173 110.5835342 142.5711670
139.1453247 110.5563354 142.8808441
138.0098267 110.5279999 143.1643829
136.8864746 110.5070648 143.4251099
135.7563171 110.4903030 143.6503906
134.6538849 110.4887848 143.8092957
106.8238831 111.2915497 140.6738586
105.7943497 111.3700714 140.2250824
104.7594528 111.4496460 139.7519379
103.7317123 111.5347748 139.2521210
102.7046432 111.6227493 138.7218018
81.7436371 114.8793793 117.6721420
166.4902191 113.7578201 125.0057678
140.2282104 111.5503311 142.8715210
139.0989075 111.5222244 143.1799011
105.7542267 112.3465347 140.5161285
104.7429276 112.4297485 140.0441132
103.6884308 112.5164490 139.5215454
102.6754913 112.6071548 138.9989777
81.7198639 115.8823090 118.0554886
80.7533112 116.1636887 116.1535797
167.9240875 114.9875031 123.4729233
166.4056091 114.7207565 125.4837570
140.1731262 112.5213165 143.1534424
139.0561066 112.4926834 143.4565430
103.6695938 113.5016556 139.7889099
102.6404800 113.5914536 139.2546387
101.6050491 113.6863098 138.6918335
100.5986786 113.7826920 138.1257172
81.6882629 116.8918762 118.3762512
166.3280792 115.6898422 125.9052124
140.1312103 113.4939651 143.4115448
101.5829468 114.6741638 138.9354095
100.5724335 114.7713470 138.3637085
81.6534424 117.9067764 118.6531677
167.7571106 116.9341888 124.3047714
166.2463379 116.6625519 126.2982178
142.3818665 114.5394745 142.9497375
141.2458191 114.5007782 143.3127594
140.0911560 114.4672089 143.6507874
101.5512848 115.6647797 139.1481934
100.5465088 115.7632751 138.5775604
81.6244965 118.9267654 118.8905945
-97.6029129 135.7483521 21.6129608
-98.7590332 135.6912994 22.2802181
-99.9465790 135.6352997 22.8236408
-101.1248779 135.5954895 23.2123833
-102.3462143 135.5690155 23.5107040
-103.5519028 135.5566864 23.6891899
-104.7922821 135.5671692 23.7663269
-106.0185699 135.5839844 23.6891861
-107.2828903 135.5968933 23.5230789
167.6919250 117.9123154 124.6701965
166.1835632 117.6418228 126.6380234
142.3474121 115.5149536 143.1739197
141.2114410 115.4773254 143.5338135
140.0519257 115.4435577 143.8711700
102.5620728 116.5589905 139.9104156
101.5325928 116.6579895 139.3434143
100.5189133 116.7578430 138.7675323
81.6088028 119.9503021 119.1024323
80.6645432 120.2410431 117.2356415
-97.1521149 136.3634338 25.7530899
-98.3183136 136.3000183 26.3033142
-99.5058594 136.2488251 26.7309628
-100.6931381 136.2153320 27.0770340
-101.9089584 136.1891785 27.3146114
-103.1076050 136.1807404 27.4969082
-104.3479462 136.1915588 27.5943489
-105.5731506 136.2145996 27.5905533
-106.8191986 136.2503662 27.5002174
-108.0762253 136.2854309 27.2959671
-109.3350830 136.3638916 27.0361004
-110.6247940 136.4378052 26.6561852
-111.8967438 136.5267792 26.1785164
167.6265259 118.8949509 124.9997101
166.1336212 118.6273041 126.9260254
142.3161316 116.4938660 143.3751068
141.1788940 116.4564362 143.7307587
102.5432434 117.5532837 140.0856323
101.5088501 117.6542664 139.5124817
100.5014725 117.7545471 138.9416046
83.4990540 120.4557114 122.5733185
82.5569763 120.7019196 121.0254974
81.5906067 120.9773254 119.2856216
80.6508789 121.2711105 117.4172745
-88.7986603 137.8550110 22.9577637
-89.9062042 137.7072906 24.2439995
-91.0368576 137.5663452 25.3168716
-92.1642532 137.4444885 26.2721710
-93.3221283 137.3360901 27.1315842
-94.4695282 137.2313232 27.8413811
-95.6273193 137.1431885 28.4822788
-96.7917252 137.0775757 29.0384121
-97.9682159 137.0240326 29.4868622
-111.4758987 137.2092438 29.6423359
167.5690002 119.8858185 125.2668076
166.0918884 119.6188965 127.1676636
142.2882385 117.4760971 143.5492401
141.1510010 117.4387817 143.9028320
101.4860840 118.6536102 139.6577606
100.4838715 118.7546997 139.0867615
83.4829407 121.4838867 122.7109375
82.5474854 121.7307281 121.1729965
-86.2241974 138.8868561 23.9464855
-87.3343124 138.7275391 25.3171387
-88.4580612 138.5599670 26.5244446
-89.5720444 138.4139557 27.5806618
-90.7156525 138.2834167 28.5111790
-91.8454742 138.1732483 29.3255768
-93.0155182 138.0799561 30.0822277
-94.1645508 137.9985962 30.7269630
-95.3313065 137.9290466 31.2916470
-96.5032501 137.8688812 31.7669716
-97.6882935 137.8238831 32.1796761
-111.1282501 137.9698792 32.5195732
-112.4233856 138.0455933 32.1140022
-113.6870346 138.1526031 31.6647148
-115.0102081 138.2640533 31.0729733
-116.3221588 138.3739319 30.3940945
-117.6745148 138.4880676 29.5798035
167.5332947 120.8882904 125.4513397
166.0626678 120.6173325 127.3619614
142.2560272 118.4610062 143.7025604
141.1250000 118.4240570 144.0532227
139.9702759 118.3894501 144.3877106
101.4763336 119.6549606 139.7866516
100.4657822 119.7585907 139.2061310
83.4801331 122.5143433 122.8296890
82.5297241 122.7687225 121.2594681
-84.8241196 139.8161621 25.9240208
-85.9237900 139.6291504 27.2372284
-115.9719772 139.1608429 33.1911812
-117.2754211 139.2942505 32.5352669
167.4889526 121.8906708 125.6323776
166.0228577 121.6163254 127.5470200
142.2444763 119.4488068 143.8331604
141.1085052 119.4114304 144.1851044
139.9512787 119.3770523 144.5157166
138.8363647 119.3482208 144.8140564
102.4936523 120.5570602 140.4567719
101.4692688 120.6590729 139.8932190
100.4561081 120.7642136 139.3110657
83.4718323 123.5533142 122.8912506
82.5316620 123.8077698 121.3330841
-81.2566910 141.1941986 24.4015293
-82.3552170 140.9707184 26.0790272
-83.4383545 140.7628479 27.5190563
-84.5509644 140.5769653 28.8458309
-85.6536636 140.4137573 30.0008602
-115.6624680 139.9819183 35.6395874
-116.9674072 140.0910797 35.0360832
-118.2788620 140.2220459 34.3591919
-119.6058960 140.3754272 33.5826874
-120.9670715 140.5175171 32.6813240
-122.3199158 140.6592102 31.6956406
168.9731598 123.2187729 123.5732117
167.4671936 122.9011993 125.7556763
165.9998932 122.6241302 127.6737061
139.9350586 120.3669128 144.6254578
138.8174133 120.3383179 144.9216003
102.4771881 121.5651398 140.5369720
101.4478073 121.6676483 139.9749298
100.4458160 121.7714691 139.4015808
99.4115372 121.8865128 138.7666931
98.4034805 122.0022888 138.1187134
83.4700851 124.5974045 122.9188690
82.5298843 124.8551788 121.3536224
-78.8376160 142.4437103 23.9708595
-79.9197235 142.1937256 25.8550701
-80.9807663 141.9578247 27.4400845
-120.6299973 141.3454590 35.2018814
-121.9534149 141.5070190 34.3299942
-123.3582687 141.6639709 33.2627640
168.9705505 124.2428436 123.6261292
167.4596863 123.9211426 125.8148651
165.9782257 123.6378326 127.7546082
139.9167480 121.3603516 144.7117004
138.7995911 121.3311157 145.0037231
99.4136963 122.8977051 138.8336792
98.4019089 123.0161285 138.1785736
83.4636993 125.6487045 122.9005890
82.5246582 125.9096909 121.3281631
-78.5790558 143.2084351 26.9720287
-79.6697540 142.9649506 28.6089840
-80.7524033 142.7525940 30.0126514
-120.3471832 142.1902618 37.4063644
-121.6581650 142.3414459 36.6191368
-123.0240707 142.5105896 35.7024765
-124.3693695 142.6806946 34.7173462
-125.7916107 142.8548126 33.5236511
168.9716644 125.2700043 123.6656952
167.4590912 124.9475174 125.8336182
165.9698792 124.6589050 127.7878799
139.9154816 122.3580627 144.7724609
138.7942810 122.3277283 145.0632477
100.4299469 123.7999420 139.4949799
99.4103165 123.9155350 138.8646545
98.3917923 124.0366058 138.2062531
83.4608459 126.7048187 122.8540955
82.5277405 126.9688492 121.2731934
-76.2046738 144.5233459 26.1013527
-77.2781296 144.2500305 27.9160709
-78.3497696 144.0064545 29.5151901
-125.4606857 143.7248840 35.8848190
-126.8401718 143.9090576 34.7281189
167.4505768 125.9756775 125.8365631
165.9786682 125.6879654 127.7733002
139.9053192 123.3564987 144.8233948
138.7828217 123.3262329 145.1221924
102.4584961 124.6037598 140.6622009
101.4345703 124.7110138 140.0847778
100.4298706 124.8193283 139.5039520
99.3944321 124.9394836 138.8647003
98.3949585 125.0561523 138.2220001
83.4793701 127.7605820 122.7996674
82.5420837 128.0326843 121.1880798
-74.9112396 145.6024017 26.8355484
-75.9846191 145.3243561 28.6928654
-77.0797424 145.0738525 30.3416767
-78.1577835 144.8549347 31.7767982
-125.1761246 144.5912933 38.0015793
-126.5101852 144.7851868 36.9787750
-127.9290466 144.9610138 35.7700272
167.4687653 127.0161514 125.7660522
165.9801331 126.7197723 127.7359924
137.6348572 124.3011551 145.4344025
103.4766006 125.5333252 141.2042084
102.4525604 125.6271591 140.6437073
83.4841156 128.8294678 122.6739044
82.5459976 129.1081543 121.0356979
81.5812149 129.4199829 119.2215424
-73.6381378 146.6907654 27.4318504
-74.7063828 146.4130249 29.2736416
-75.7953568 146.1625214 30.9523163
-127.6306381 145.8585663 37.8615990
-129.0403748 146.0586853 36.6376381
167.4822998 128.0620575 125.6587067
166.0027924 127.7630997 127.6336288
137.6280365 125.3037872 145.4372101
136.5283203 125.2855530 145.6658936
105.5403137 126.3487930 142.1533508
104.5237656 126.4410629 141.6815643
103.4952774 126.5399323 141.1693726
102.4669800 126.6456528 140.6263123
83.5022202 129.9014740 122.5248947
82.5651855 130.1857300 120.8647003
81.5949097 130.5097504 119.0039520
-73.4571075 147.5297546 29.7497025
-74.5348663 147.2723846 31.4444256
-75.6299667 147.0409851 32.9609604
-127.3689423 146.7570801 39.7647667
-128.7511749 146.9639893 38.6390991
-130.1771545 147.1537018 37.3834419
167.5389709 129.1253204 125.4507065
166.0296936 128.8119965 127.4897461
137.6254883 126.3099594 145.4216309
136.5212250 126.2925568 145.6494598
135.4053802 126.2792816 145.8584900
106.5768509 127.2788239 142.5731201
105.5521393 127.3700256 142.1122742
104.5225449 127.4676056 141.6315613
83.5105515 130.9861603 122.3119736
82.5903015 131.2699890 120.6637955
-70.0699005 149.3262177 25.7601643
-71.1489944 148.9803619 28.0628605
-72.2028809 148.6745911 30.0169640
-73.2948532 148.4017334 31.7948208
-129.8796844 148.0691376 39.3189163
167.5743256 130.1882935 125.2455444
166.0633240 129.8690338 127.3014679
137.6521149 127.3313599 145.3751678
136.5283203 127.3026962 145.6140747
135.4105377 127.2887421 145.8276062
128.8074646 127.2706604 146.5817566
127.6988907 127.2803345 146.6186523
123.3911667 127.3670120 146.5323181
109.7007370 128.0545959 143.7666931
105.5557404 128.3953705 142.0608368
104.5214691 128.4968567 141.5674591
83.5386963 132.0711365 122.0821686
82.6034775 132.3684082 120.3882675
-69.9028168 150.1636658 28.1567650
-70.9890900 149.8366089 30.2343578
-72.0466309 149.5535278 31.9870548
-73.1406021 149.3019409 33.6332130
-129.6314545 148.9898376 41.0557709
-131.0520325 149.2025299 39.8291855
167.6517029 131.2713318 124.9457397
166.1081085 130.9349060 127.0612030
135.4188843 128.3035126 145.7692261
134.3049927 128.2865753 145.9638977
133.1992188 128.2805328 146.1290131
128.8101044 128.2870636 146.5175018
127.7008667 128.2962952 146.5581055
126.6342468 128.3126068 146.5756836
123.3959503 128.3820190 146.4667358
109.7174301 129.0744629 143.6840515
105.5639725 129.4261169 141.9829407
104.5446014 129.5239716 141.4888916
85.4920502 132.6096191 124.9351730
84.5346756 132.8751221 123.4476776
83.5672684 133.1684418 121.7965851
82.6354675 133.4716797 120.0748444
-68.7047806 151.3525391 28.1786461
-69.7435760 151.0215759 30.2222805
-70.8295975 150.7224426 32.1136742
-129.4319763 149.9191742 42.6326218
-130.8170471 150.1358948 41.4976044
-132.2157288 150.3501129 40.2632446
167.7104034 132.3567810 124.6292953
166.1580811 132.0100250 126.7768478
135.4321899 129.3235168 145.6936493
134.3183441 129.3082581 145.8895111
133.1977539 129.2932129 146.0578613
132.0887299 129.2900085 146.1933136
131.0043793 129.2964020 146.2979736
129.8984985 129.2973785 146.3819275
128.8209991 129.3028564 146.4439697
127.7195206 129.3101807 146.4875488
126.6448212 129.3306274 146.5006714
125.5526428 129.3519287 146.4886780
124.4814453 129.3739166 146.4533997
123.4103241 129.4002380 146.3989105
119.1539230 129.5401611 145.9665222
109.7183533 130.1013947 143.5758514
108.6660919 130.1874847 143.1785583
107.6375961 130.2720947 142.7756042
106.5961761 130.3660278 142.3373566
105.5752335 130.4595490 141.8691559
104.5503159 130.5630493 141.3746490
85.5029449 133.7062531 124.6438751
84.5547028 133.9741516 123.1417313
-67.4644394 152.5760345 27.8962822
-68.5393982 152.2250824 30.1435261
-69.5917969 151.9138184 32.0520134
-70.7059937 151.6367188 33.8667221
-129.2238159 150.8639679 44.1277809
-130.6021118 151.0697479 43.0495262
-131.9618378 151.2903900 41.8924599
-133.4093933 151.5233612 40.5341873
166.2479095 133.1025391 126.4153214
164.7520905 132.7946167 128.3408203
163.3529663 132.5398712 129.9874420
126.6578979 130.3514862 146.4134674
125.5707245 130.3676758 146.4076080
124.4998856 130.3969421 146.3716888
123.4262085 130.4198608 146.3093872
122.3394318 130.4565430 146.2287140
121.2804871 130.4880371 146.1344910
120.2104340 130.5306091 146.0072784
119.1631470 130.5710754 145.8601685
118.0892334 130.6190796 145.6883698
112.8357239 130.9160461 144.4598999
111.8054047 130.9819641 144.1608887
110.7555161 131.0587463 143.8205566
109.7303696 131.1350403 143.4615173
108.6847229 131.2192230 143.0713501
85.5417175 134.7991943 124.3484497
84.5860062 135.0764008 122.8140564
-66.2861710 153.8183441 27.6107578
-131.7509308 152.2386017 43.3930244
-133.1531677 152.4808502 42.1267700
164.8159790 133.8811951 127.9771500
163.4132080 133.6193390 129.6610718
126.6747665 131.3776550 146.3028870
123.4432526 131.4499054 146.1927490
122.3644104 131.4806824 146.1106262
121.3041687 131.5133972 146.0139771
120.2296524 131.5555878 145.8877106
119.1844482 131.5972137 145.7375488
118.1035309 131.6498413 145.5587769
114.9524231 131.8143921 144.8921204
113.9088974 131.8828735 144.6250610
112.8533173 131.9475555 144.3332520
111.8188858 132.0161438 144.0226135
110.7692871 132.0984650 143.6780243
109.7500916 132.1729889 143.3229065
108.6916962 132.2637329 142.9272461
85.5589752 135.9107056 123.9677582
84.6232681 136.1892395 122.4240265
-66.1567383 154.7068787 29.5550365
-131.5659637 153.1895294 44.7648048
-132.9672089 153.4160461 43.5798111
-134.3588257 153.6645355 42.3014069
-135.8382568 153.9273987 40.8222160
166.4255066 135.3152771 125.5381546
164.8881226 134.9760590 127.5767670
163.4748077 134.7039490 129.2958679
126.6917496 132.4081268 146.1560364
123.4579926 132.4839783 146.0489349
118.1351471 132.6794739 145.4107971
117.0774841 132.7377319 145.2066498
116.0214233 132.7929077 144.9861755
114.9643021 132.8526459 144.7477417
85.6031342 137.0241089 123.5695801
84.6754303 137.3110504 121.9707489
-134.1487427 154.6203308 43.7191010
-135.6080627 154.8800354 42.3131256
165.0147400 136.0958862 127.1019974
163.5577240 135.8016663 128.8655243
126.7164688 133.4476318 145.9859009
125.6263504 133.4617157 145.9840088
124.5522614 133.4856567 145.9461365
123.4826508 133.5168152 145.8823853
118.1502686 133.7227783 145.2389526
117.1019440 133.7736664 145.0434265
116.0434875 133.8270416 144.8310089
114.9998474 133.8863983 144.5890961
85.6506958 138.1477509 123.1178055
84.7122498 138.4498291 121.4781342
-133.9749146 155.5908203 45.0083771
-135.4111328 155.8488770 43.6686707
-136.8365936 156.1071167 42.2563858
163.6581726 136.9120789 128.3802795
87.6286926 138.7176361 125.6365433
86.6621475 138.9893494 124.1924210
85.7013321 139.2797852 122.6199493
-136.6371155 157.0839233 43.5732422
163.7644653 138.0338593 127.8392715
87.6757355 139.8467560 125.1505585
86.7226868 140.1198425 123.6908875
85.7569427 140.4292450 122.0644302
-136.4349670 158.0666809 44.8289909
163.8868561 139.1738892 127.1945877
162.4067535 138.8663788 129.0025482
161.0381165 138.6237793 130.5301208
87.7227554 140.9887543 124.6018829
86.7811737 141.2663422 123.1156082
-66.7032166 159.1596680 38.4733620
-67.8100128 158.9019470 39.9990578
-136.3095551 159.0574951 45.9284286
164.0417175 140.3364868 126.4939423
162.5449371 140.0113525 128.3469391
161.1667938 139.7549591 129.9303436
87.7805862 142.1393433 124.0084610
86.8317261 142.4358826 122.4525604
85.8564529 142.7756958 120.7333908
-65.5445709 160.4241943 37.9761963
-66.6338577 160.1602631 39.5569000
-67.7436523 159.9109497 41.0464211
-136.1294708 160.0577240 47.0356483
-137.5453491 160.3315277 45.6706276
162.6799316 141.1641846 127.6502075
161.2800903 140.8859863 129.3039246
89.7795410 142.7404785 126.2357101
88.8110504 143.0092621 124.8583984
87.8594818 143.2930298 123.3820496
-66.5594025 161.1729431 40.5502090
-67.6788101 160.9261627 42.0127792
-136.0109558 161.0690308 48.0059967
-137.4029846 161.3363800 46.7026825
162.8277283 142.3347168 126.8821411
161.4009705 142.0381165 128.5947571
89.8319244 143.8992615 125.5932465
88.8757935 144.1734314 124.1835480
87.9194717 144.4768066 122.6459961
-65.4020538 162.4497223 39.9770050
-66.4855423 162.1932831 41.4639053
-67.6169128 161.9515076 42.9099731
-135.8699036 162.0915527 48.9376907
-137.2609253 162.3528442 47.6715698
161.5570374 143.2134705 127.7875061
160.1091461 142.9214630 129.4776764
158.7551117 142.6864014 130.9149628
89.8993607 145.0749817 124.8882141
88.9509583 145.3563995 123.4370193
-64.3791046 163.7028046 39.5461464
-65.3609619 163.4760895 40.9018364
-107.8179092 160.5385895 60.9876289
-109.0416336 160.5769196 60.8863983
-110.2383270 160.6240387 60.7570724
-111.4656296 160.6745605 60.6039581
-112.6584702 160.7307892 60.4294205
-113.8885269 160.7930298 60.2068138
-135.7508850 163.1218567 49.7997360
-137.1404419 163.3744354 48.5764084
-138.5650024 163.6517029 47.2201118
-140.0174561 163.9410553 45.7533913
161.7382813 144.4099121 126.9289093
160.2585449 144.0912781 128.6776428
158.9000092 143.8496704 130.1623383
89.9833221 146.2528076 124.1382751
89.0286865 146.5556183 122.6167297
-64.3439255 164.7215881 40.4459648
-65.3070526 164.5145874 41.7254524
-107.7548828 161.5967865 61.5809402
-111.4007797 161.7290649 61.2201653
-112.5982819 161.7896881 61.0318260
-113.8204193 161.8490906 60.8108597
-135.6323853 164.1620483 50.6077347
-137.0289459 164.4112244 49.4035263
-138.4297180 164.6840210 48.1003723
-139.8704071 164.9776917 46.6537819
160.4345093 145.2893982 127.7735596
159.0255585 145.0109100 129.3704529
91.9996719 146.8865204 126.1329575
91.0246353 147.1618652 124.7664185
90.0738373 147.4479523 123.3171539
-64.3008423 165.7558441 41.3388596
-65.2514648 165.5546112 42.4925156
-107.7009659 162.6584625 62.1383591
-112.5351868 162.8513184 61.6050072
-113.7583466 162.9149017 61.3901825
-138.3292084 165.7238922 48.8932343
-139.7441711 166.0159607 47.4881363
-141.2471619 166.3279877 45.9161644
160.6331177 146.5137939 126.7667542
159.2029877 146.2071228 128.4449005
92.0835114 148.0736542 125.3383331
91.1080856 148.3668976 123.9033966
90.1547012 148.6721497 122.3903885
-64.2724152 166.8004150 42.1032295
-65.1946335 166.5973816 43.2358551
-107.6410751 163.7271271 62.6802826
-108.8615265 163.7637024 62.5942039
-110.0528793 163.8077393 62.4813576
-111.2776260 163.8572845 62.3314972
-112.4745102 163.9184570 62.1521111
-113.6933975 163.9809570 61.9387512
-138.2093811 166.7715759 49.6682549
-139.6273804 167.0604553 48.2832527
159.3885040 147.4231873 127.4270020
157.9968719 147.1523590 129.0052338
156.6553040 146.9183044 130.3989258
94.0981064 148.7630310 127.0286865
93.1162109 149.0227051 125.7653351
92.1831512 149.2798920 124.4675446
91.2085342 149.5880737 122.9653931
-64.1674118 167.8581543 42.7949753
-65.1395264 167.6519470 43.9337044
-95.8105774 164.7025452 62.4930611
-99.2980652 164.6774292 62.9962158
-138.1269836 167.8267517 50.3546524
-139.5267181 168.1141510 49.0072746
-141.0037231 168.4255524 47.4994812
159.6107788 148.6768799 126.2873993
158.1731262 148.3664246 127.9851837
156.8140717 148.1102295 129.4636536
94.2008057 149.9544220 126.1908035
93.2191620 150.2297363 124.8661499
92.2686081 150.5169983 123.4557648
91.3090057 150.8407593 121.9126816
-65.1092987 168.7216949 44.5669556
-95.7598267 165.7737732 62.9757614
-99.2645340 165.7487183 63.4502068
-138.0240631 168.8923187 51.0127831
-139.4422607 169.1783752 49.6664505
-140.8991089 169.4871216 48.1953354
158.3987122 149.6284790 126.8323364
156.9945068 149.3359985 128.4090424
155.6392517 149.0955048 129.8121033
154.3078308 148.8798676 131.0735321
94.3031464 151.1745758 125.2540741
93.3312225 151.4743042 123.8517151
-65.0878906 169.7966003 45.1607399
-86.4692154 167.1714172 60.8481979
-87.6340637 167.1107941 61.2857895
-88.7769318 167.0579834 61.6783447
-89.9337463 167.0065002 62.0322952
-91.0748215 166.9652100 62.3616333
-92.2423401 166.9282532 62.6812897
-93.3900452 166.8964539 62.9702072
-94.5494080 166.8731689 63.2156792
-95.7231598 166.8544922 63.4335175
-96.8727722 166.8380737 63.6215363
-98.0583267 166.8335114 63.7710686
-99.2160034 166.8252869 63.9115829
-100.3962173 166.8279724 64.0424805
-101.5610352 166.8320007 64.1261063
-102.7418518 166.8464355 64.1751556
-103.9325714 166.8609161 64.1960220
-105.1202774 166.8868103 64.1983795
-106.3314133 166.9107056 64.1715164
-109.8957520 167.0321350 63.9317360
-111.1221619 167.0819855 63.7839584
-112.3240128 167.1406250 63.6092949
-113.5391464 167.2032166 63.4054565
-114.7497101 167.2705688 63.1816635
-115.9732208 167.3476563 62.9190979
-140.7947388 170.5531769 48.8548851
157.2182922 150.5937195 127.2394714
155.8208618 150.3138428 128.7500916
154.4862976 150.0903015 130.0717163
94.4080124 152.4204865 124.2070160
-63.9912987 171.0857391 44.5046196
-65.0497894 170.8725891 45.7061882
-86.4332352 168.2526245 61.2819176
-87.5984192 168.1926727 61.7158089
-88.7346954 168.1404114 62.0989761
-89.9056091 168.0924377 62.4600868
-91.0466080 168.0484009 62.7940826
-95.6873627 167.9335938 63.8469200
-99.1736984 167.9053802 64.3471375
-100.3732758 167.9083862 64.4599304
-101.5336685 167.9145813 64.5430756
-102.7103271 167.9255676 64.6023788
-103.8899231 167.9444275 64.6364517
-105.0856628 167.9671631 64.6300888
-106.2781296 167.9999084 64.5965118
-109.8511276 168.1116943 64.3657532
-111.0697708 168.1662750 64.2155151
-112.2730713 168.2230225 64.0412903
-115.9417572 168.4268188 63.3490067
-140.7086334 171.6312561 49.4457474
156.0600128 151.5894470 127.5112762
154.6768036 151.3267670 128.9554291
153.3597870 151.1139069 130.2063599
152.0448761 150.9162750 131.3489380
96.4557190 153.1270447 125.7278137
95.4805756 153.3984375 124.4435272
94.5379715 153.6806030 123.0661850
-63.9227638 172.1990509 44.8896637
-65.0101318 171.9580841 46.2072411
-81.8482513 169.6414642 59.7020416
-82.9700851 169.5519714 60.2462082
-84.1195984 169.4742737 60.7740059
-85.2698288 169.4030762 61.2455597
-86.4040680 169.3401642 61.6830063
-87.5634155 169.2765961 62.1144028
-95.6576004 169.0243378 64.2365952
-105.0452423 169.0511017 65.0289001
-109.8143692 169.2001495 64.7614899
-111.0383301 169.2541656 64.6141357
-112.2460861 169.3098297 64.4358749
-115.8710556 169.5185852 63.7562027
-140.6457825 172.7185364 49.9729347
156.3167725 152.8952026 126.1511307
154.8947296 152.5957947 127.7115784
153.5610962 152.3517151 129.0546417
152.2441406 152.1483765 130.2671509
96.5804520 154.3765869 124.6300735
95.6040802 154.6742859 123.2454605
-63.8700829 173.3029633 45.2725296
-64.9796371 173.0508270 46.6667404
-81.8120880 170.7308044 60.0772972
-82.9529572 170.6435699 60.6440201
-84.0929565 170.5649109 61.1534653
-85.2394333 170.4971771 61.6064110
-86.3763885 170.4338226 62.0486259
-87.5434647 170.3697815 62.4953384
-93.2917786 170.1579437 64.1430130
-94.4549408 170.1307831 64.3901138
-95.6250153 170.1153870 64.6001892
-96.7675323 170.0994110 64.7876129
-97.9511719 170.0889893 64.9623260
-109.7731934 170.2910767 65.1295776
-110.9937592 170.3442078 64.9850922
-112.1952209 170.4016418 64.8121643
-113.3983765 170.4654541 64.6217575
-114.6198730 170.5332642 64.3959122
-115.8496552 170.6114807 64.1274338
-140.5891113 173.8147430 50.4465294
-142.0159607 174.1299133 48.9876366
153.7974243 153.6444855 127.7488403
152.4408569 153.3969879 129.0902710
98.6481171 155.1309967 125.8957291
97.6782227 155.3887634 124.6978607
96.7162170 155.6653900 123.3867569
-62.7605362 174.6683960 44.2572784
-63.8427811 174.4079742 45.6710587
-64.9583206 174.1477051 47.0954437
-81.7912369 171.8252106 60.4448204
-82.9212189 171.7390289 60.9944839
-86.3442230 171.5290833 62.3901634
-87.5099030 171.4651337 62.8356895
-108.5521088 171.3411255 65.5820313
-109.7307892 171.3869629 65.4770813
-110.9555054 171.4398651 65.3359299
-115.8049698 171.7074432 64.4822845
-140.5082245 174.9145508 50.9031563
154.0654602 154.9668579 126.2775879
152.6766205 154.6827545 127.7435532
98.7807465 156.4119720 124.6780167
97.8234024 156.6826477 123.4110565
-62.7125282 175.7894897 44.5777245
-63.8339233 175.5125580 46.0767097
-64.9260941 175.2543030 47.4633102
-81.7679367 172.9242554 60.7782974
-82.9021759 172.8402863 61.3120766
-86.3213348 172.6238251 62.7365265
-87.4769745 172.5619812 63.1536636
-99.0351715 172.2644958 65.7945786
-109.7046585 172.4839630 65.8036194
-110.9239044 172.5384827 65.6572876
-115.7690353 172.8075867 64.8090897
-140.4697418 176.0273438 51.2848282
154.3677216 156.3464661 124.6227112
152.9519501 156.0269470 126.2129059
151.6244202 155.7784882 127.5508957
150.2830811 155.5627441 128.7841339
100.8757629 157.1993713 125.7301178
99.9091492 157.4393311 124.6058884
98.9381180 157.7170563 123.3258743
-62.6916885 176.9049988 44.9233513
-81.7421570 174.0304108 61.0722122
-82.8780441 173.9436951 61.6176453
-86.2995682 173.7207642 63.0633812
-87.4661102 173.6666412 63.4584885
-110.8973312 173.6458740 65.9355545
-115.7415695 173.9139404 65.1010361
-140.4160919 177.1448822 51.6387482
-141.8338318 177.4681549 50.1831741
151.9120026 157.1280212 125.9631577
150.5235291 156.8635254 127.3386078
101.0248947 158.5158844 124.3781509
100.0688553 158.7725220 123.1793671
-62.6806107 178.0252686 45.2469292
-81.7240982 175.1401215 61.3439369
-82.8613129 175.0514374 61.8951225
-86.2807083 174.8290253 63.3360634
-87.4424362 174.7757416 63.7160645
-110.8743744 174.7569275 66.1909027
-112.0672150 174.8123474 66.0377197
-115.7157898 175.0244293 65.3694000
-140.3880157 178.2744751 51.9280243
-141.8030701 178.5969238 50.4898071
152.2509155 158.5572662 124.1188583
150.8225861 158.2342529 125.6407013
149.5126801 158.0204773 126.8817520
148.1833801 157.7972260 128.0690918
103.1553192 159.3335419 125.2151947
102.1927872 159.5699615 124.1396637
101.2023773 159.8527832 122.8951569
-62.6702385 179.1528473 45.5256844
-81.7117844 176.2534485 61.5955849
-82.8438034 176.1660004 62.1370773
-83.9875565 176.0835571 62.6547127
-85.1361389 176.0090332 63.1336288
-86.2628174 175.9461365 63.5570145
-87.4244690 175.8852234 63.9730453
-97.8184433 175.5950623 66.4449921
-115.6901550 176.1395416 65.6117706
-140.3568420 179.4094238 52.1888580
149.8302612 159.4245148 125.1095200
148.4732056 159.1629028 126.4014435
103.3341064 160.6880188 123.6969299
102.3790207 160.9422150 122.5338593
-61.5600204 180.5982971 44.1502151
-62.6535721 180.2912292 45.7484283
-81.6977768 177.3727112 61.8139000
-82.8286209 177.2862396 62.3491440
-83.9732208 177.2045441 62.8598099
-85.1114883 177.1318970 63.3307190
-86.2433395 177.0634613 63.7743416
-114.4526520 177.1803284 66.0858917
-115.6664963 177.2590790 65.8287582
-140.3270416 180.5511475 52.4126205
148.8105774 160.6035004 124.4898453
147.4924469 160.3474121 125.7403107
146.1906433 160.1386261 126.8775635
144.8965302 159.9664001 127.8622894
143.6699524 159.8348236 128.6716309
105.4792328 161.5706787 124.2510910
104.5142212 161.8067932 123.1894608
103.5360260 162.0814514 121.9809341
102.5901642 162.3697052 120.6962357
-61.5660744 181.7388458 44.3677139
-62.6539650 181.4334717 45.9465065
-81.6806107 178.4974670 62.0031357
-82.8255768 178.4093170 62.5451126
-83.9600983 178.3281250 63.0495186
-85.1158829 178.2509155 63.5368805
-114.4319000 178.3043823 66.2751694
-115.6515961 178.3836670 66.0185547
-140.3145905 181.7048340 52.5786705
-141.7165375 182.0357971 51.1284218
147.8674622 161.8365326 123.6651840
146.5121765 161.5749359 124.9545059
145.1970520 161.3760071 126.0645142
143.9450226 161.2034760 127.0026398
105.6964188 162.9570007 122.5404053
104.7370682 163.2263184 121.3550720
-61.5607529 182.8970184 44.5031815
-62.6415100 182.5909576 46.0778656
-81.6778564 179.6237030 62.1839066
-82.8137817 179.5363617 62.7174416
-91.9735031 179.0584412 65.9343033
-93.1330414 179.0267944 66.2026520
-112.0077820 179.3010406 66.8788986
-113.2129288 179.3631134 66.6554565
-114.4253998 179.4341125 66.4382629
-115.6473846 179.5149078 66.1796951
-140.3042603 182.8650818 52.7085762
-141.7095032 183.2022705 51.2397041
144.2753906 162.6631927 125.0524139
142.9779358 162.4492188 126.0151520
141.7561951 162.3197937 126.8294983
109.8843994 163.4620514 124.6789093
108.8782578 163.6768799 123.7743607
107.8936691 163.8995514 122.8023987
106.9159851 164.1572266 121.7127151
105.9405441 164.4350433 120.4928970
-60.4550095 184.4118347 42.8383484
-61.5512009 184.0650482 44.5885429
-62.6317558 183.7532043 46.1777763
-79.4111328 180.9565430 61.1537933
-80.5322037 180.8525085 61.7566757
-81.6706924 180.7549133 62.3283081
-82.8033371 180.6713409 62.8507233
-93.1212006 180.1552734 66.3529205
-110.8058853 180.3671875 67.1662292
-111.9939651 180.4303589 66.9876556
-113.1963730 180.4940186 66.7972260
-140.3080750 184.0375671 52.7840767
-141.7261353 184.3826294 51.2893028
-143.2165527 184.7778778 49.5714951
-144.6939240 185.1935272 47.7570953
143.3440247 163.9298553 123.8587341
142.0844421 163.7445374 124.8358688
110.1220169 164.9013062 122.7746887
109.1366272 165.1280212 121.7918472
-58.3295746 186.4101715 38.7901917
-59.4187241 185.9648895 40.9997978
-60.4665642 185.5875702 42.8868561
-61.5612297 185.2348175 44.6591263
-62.6375732 184.9201050 46.2566452
-79.4142151 182.0963440 61.2619743
-80.5262146 181.9959106 61.8563194
-81.6573715 181.8980865 62.4365692
-87.3739853 181.5180359 64.8049469
-93.1194077 181.2911987 66.4668579
-96.5909119 181.2305603 67.1133728
-111.9913559 181.5652924 67.1086426
-113.2032394 181.6334839 66.9161301
-140.3019714 185.2152405 52.8288155
142.5021057 165.3262939 122.4123535
141.1920471 165.1167908 123.4213104
139.9438171 164.9559479 124.2551422
138.7166290 164.8358917 124.9776154
137.5122833 164.7226105 125.6302109
136.3095398 164.6358185 126.1753082
135.1306152 164.5828552 126.5966644
133.9713440 164.5252838 126.9665527
132.8130035 164.4893036 127.2696457
116.4751511 165.2744446 125.2548447
115.4276123 165.4206848 124.6726379
114.4108963 165.5769653 124.0333939
113.3921356 165.7647400 123.2863159
112.3927383 165.9457245 122.4930267
111.3818588 166.1567688 121.5648804
110.3986053 166.4069519 120.5699005
-57.2821388 188.0949860 36.3888016
-58.3297577 187.6146088 38.7396049
-79.4055710 183.2485657 61.3285065
-80.5201111 183.1446533 61.9308510
-88.4966125 182.6125183 65.2347336
-91.9584351 182.4652710 66.2631149
-93.1215286 182.4320679 66.5500565
-94.2724075 182.4046631 66.7994003
-95.4413834 182.3815002 67.0132217
-96.5856400 182.3719330 67.1891937
-97.7763748 182.3662720 67.3450470
-98.9352493 182.3639374 67.4794083
-107.1828308 182.4975891 67.7005692
-111.9794312 182.7048340 67.2023697
-113.1947021 182.7766571 67.0027161
-140.3167877 186.4062500 52.8147202
-141.7214966 186.7533264 51.3321152
140.3790741 166.5857544 121.6694717
139.0989838 166.3814087 122.5645828
137.8804321 166.2357941 123.3117065
136.6648560 166.1310730 123.9468536
135.4517975 166.0421448 124.4851608
134.2812195 165.9650116 124.9204788
133.1133118 165.9209595 125.2920914
116.7488403 166.7535248 123.2022324
115.7096786 166.9048157 122.5604095
114.6970825 167.0838928 121.8292007
113.6918182 167.2758636 121.0151749
112.7376862 167.5361481 119.9943695
-57.2779999 189.3315430 36.2174911
-58.3329849 188.8372345 38.6058273
-79.4086456 184.3999634 61.3853683
-80.5285645 184.2940216 61.9930916
-83.9458466 184.0124512 63.6402893
-85.0842590 183.9440765 64.0996094
-89.6825714 183.6987762 65.7001343
-90.8026810 183.6564484 66.0262375
-91.9627533 183.6124725 66.3390121
-96.5864563 183.5110016 67.2578506
-97.7698822 183.5062103 67.4219742
-98.9267731 183.4982452 67.5672607
-106.0068130 183.6025696 67.8172302
-107.1827393 183.6420441 67.7598267
-108.3873444 183.6867218 67.6763763
-109.5759811 183.7374725 67.5680161
-110.7992554 183.7975159 67.4221649
-111.9802856 183.8578339 67.2552795
-113.1891327 183.9260559 67.0534821
-140.3334351 187.6063690 52.7577362
-141.7542725 187.9666290 51.2236671
138.3577881 167.9382935 120.4436493
137.0972595 167.7730713 121.2790070
133.4706879 167.4555664 122.9411316
132.3142242 167.4035645 123.2931976
131.1395264 167.3741150 123.5701218
130.0145111 167.3670044 123.7504807
128.8831482 167.3703613 123.8707428
127.7715454 167.3793030 123.9387665
126.6654663 167.4182129 123.9080734
125.5447922 167.4644775 123.8176117
124.4614563 167.5129852 123.6859970
123.3762131 167.5820465 123.4853516
122.3164063 167.6543579 123.2319183
121.2341614 167.7601776 122.8669205
120.1797943 167.8675995 122.4614868
119.1317062 167.9939423 121.9827805
118.0960922 168.1407318 121.4165421
117.0702057 168.3037262 120.7638092
116.0485687 168.5034332 120.0201263
-57.2925262 190.5818634 35.9807510
-58.3669586 190.0575409 38.4782867
-79.4155121 185.5566101 61.4164734
-80.5316238 185.4524841 62.0193863
-81.6673737 185.3518677 62.5974808
-82.7956314 185.2631989 63.1434555
-83.9474106 185.1710358 63.6620102
-85.0911255 185.0946045 64.1386948
-86.2212219 185.0235596 64.5861664
-89.6829376 184.8451996 65.7602463
-90.8095856 184.7970581 66.0815811
-91.9725952 184.7595062 66.3871994
-96.6005859 184.6674347 67.2860260
-97.7775269 184.6559753 67.4747009
-98.9216080 184.6458740 67.6189041
-100.1203690 184.6545868 67.7312622
-106.0158615 184.7562561 67.8549500
-110.8000183 184.9481812 67.4515839
-140.3567810 188.8174744 52.6520920
-141.7728577 189.1836548 51.0999527
132.7620087 169.0918884 120.4505615
131.5706940 169.0208130 120.8177490
130.4151306 168.9700317 121.0552063
129.2701721 168.9666748 121.1984711
128.1537933 168.9717102 121.3029175
127.0344391 168.9857941 121.3299713
125.9205627 169.0435638 121.2215729
124.8378525 169.0925598 121.0806046
123.7490921 169.1664124 120.8654861
122.6961212 169.2515411 120.5846939
121.6169968 169.3665619 120.1787109
120.5705109 169.5007172 119.6856537
119.5264130 169.6356506 119.1270905
-58.3827286 191.3022766 38.2443085
-79.4171371 186.7236328 61.4094810
-80.5386200 186.6137695 62.0218353
-81.6685867 186.5156860 62.6017723
-82.8132782 186.4190521 63.1565018
-83.9447784 186.3328094 63.6684799
-85.0931091 186.2547455 64.1452179
-86.2234497 186.1836548 64.5821381
-87.3853226 186.1162109 65.0213242
-88.5110626 186.0523529 65.4148788
-89.6828613 186.0050507 65.7709656
-90.8157883 185.9574890 66.0919571
-91.9698410 185.9208374 66.3907394
-93.1298370 185.8891907 66.6506119
-96.6060104 185.8207092 67.3120956
-97.7872238 185.8095093 67.4948502
-98.9368896 185.8077545 67.6290131
-100.1222839 185.8103638 67.7281418
-101.2881927 185.8245392 67.7940903
-102.4687653 185.8393402 67.8478851
-103.6347580 185.8523560 67.8920212
-104.8238373 185.8807068 67.8914490
-106.0235901 185.9145203 67.8533020
-110.8106003 186.1132050 67.4529572
-140.3834534 190.0378723 52.4983559
131.0056763 170.8271027 117.5026169
129.8047485 170.7992706 117.7255859
128.6577454 170.7970123 117.8991623
127.5302277 170.8006287 117.9593887
124.2443848 170.9881592 117.4820938
-58.4099693 192.5672150 37.9328156
-93.1370926 187.0457306 66.6525269
-94.2958527 187.0220795 66.8805923
-95.4663544 186.9958801 67.1101990
-96.6066742 186.9790649 67.3114471
-100.1355209 186.9702148 67.7256546
-103.6520386 187.0180969 67.8730774
-104.8328781 187.0467072 67.8626099
-106.0284195 187.0796509 67.8338928
-107.2035904 187.1157227 67.7839432
-108.4103699 187.1667480 67.7009125
-109.6068878 187.2182159 67.5810318
-110.8186951 187.2775879 67.4324341
-140.4347839 191.2787170 52.2678833
-58.4309464 193.8536072 37.5197563
-93.1526718 188.2108154 66.6175232
-94.3109741 188.1907959 66.8549576
-95.4775162 188.1686707 67.0795364
-96.6217957 188.1456146 67.2779083
-100.1414566 188.1367188 67.6875229
-103.6637650 188.1894989 67.8343582
-104.8595581 188.2200317 67.8218842
-106.0412445 188.2459106 67.7978287
-107.2109146 188.2850952 67.7493210
-108.4231033 188.3287659 67.6621704
-109.6079636 188.3852539 67.5386505
-110.8311920 188.4478760 67.3887329
-140.4864197 192.5289001 51.9914970
-141.9439850 192.9314728 50.3558235
-58.4871597 195.1373749 37.1018295
-137.6717377 193.0657959 54.6336670
-139.0671692 193.4005585 53.2571411
-140.5531311 193.7956848 51.6605949
-58.5065346 196.4739227 36.5128250
-137.7416992 194.3257141 54.3047409
-139.1512604 194.6739349 52.8804207
-140.6288147 195.0744629 51.2722359
-58.5313301 197.8349762 35.8225327
-59.6348000 197.2228546 38.5760460
-60.6670837 196.7359161 40.8654022
-137.7951050 195.5924988 53.9379082
-139.2180176 195.9562073 52.4682999
-59.6900139 198.5649719 37.9311638
-60.7203178 198.0559845 40.2972717
-137.8725739 196.8802338 53.4955711
-139.2978516 197.2528076 51.9945793
-59.7263374 199.9488373 37.1319351
-60.7687492 199.4017334 39.6163445
-135.1385345 197.5031281 55.6720505
-136.5429535 197.8304749 54.3914108
-137.9576721 198.1828003 52.9927559
-139.4197388 198.5870972 51.4325790
-60.8242912 200.7726135 38.8419724
-135.2303772 198.8023071 55.1773186
-136.6400604 199.1428375 53.8520660
-60.8759842 202.1720123 37.9957047
-61.9489594 201.6221008 40.4402390
-62.9944878 201.1683350 42.5377007
-135.3229523 200.1159973 54.6240311
-62.0111313 203.0221252 39.5556183
-63.0640106 202.5284424 41.7770042
-135.4251556 201.4451752 53.9985352
-136.8530579 201.8149719 52.6026573
-62.0761871 204.4685669 38.5207329
-63.1259079 203.9427185 40.8467407
-132.7613831 202.1409454 55.8201981
