159.7003021 166.1048737 138.1891174
158.3294525 165.8316650 139.5835571
96.4691849 168.0557709 135.8929138
95.5263824 168.3459015 134.6655579
94.5617981 168.6735077 133.2891235
93.6301575 169.0122375 131.8345032
-62.1937256 189.8717346 53.2557297
-63.2693138 189.6314087 54.4638138
-80.0120087 187.0946045 67.7194290
-81.1513062 187.0010834 68.2600174
-82.2754364 186.9187775 68.7485504
-83.4068756 186.8400726 69.2215576
-84.5528717 186.7665405 69.6786575
-89.1195679 186.5475769 71.1514587
-92.5595169 186.4459686 71.9468536
-93.7130280 186.4211273 72.1737213
-97.1948090 186.3882751 72.6773758
-103.0331039 186.4591980 72.9599762
-110.1861115 186.7556000 72.3625031
-111.3613434 186.8233795 72.1830521
-138.2752686 190.5038300 58.2664108
-139.7321930 190.8734741 56.7336960
-141.2006226 191.2569122 55.1130829
161.2973785 167.6759796 135.6040802
159.8881989 167.3401489 137.1847382
158.4997559 167.0406036 138.6636353
96.5709076 169.2673187 135.0480652
95.6141510 169.5832825 133.7359924
94.6615219 169.9207001 132.3101044
93.7555695 170.2626038 130.8338318
-62.1563797 190.9475098 53.7005730
-63.2596817 190.6889801 54.9980278
-79.9797516 188.1565094 68.1300659
-83.3799591 187.8988953 69.6465683
-84.5188446 187.8264313 70.0964584
-85.6434021 187.7624054 70.4969482
-86.7937927 187.7031403 70.8773804
-87.9193115 187.6508789 71.2214661
-89.0913239 187.6064758 71.5529099
-90.2186279 187.5686493 71.8458252
-91.3709259 187.5325165 72.1221085
-92.5238953 187.5067139 72.3709106
-93.6774063 187.4837646 72.5822678
-94.8404083 187.4681091 72.7729568
-95.9785995 187.4609222 72.9265289
-104.1646881 187.5593262 73.3309021
-105.3667908 187.5989685 73.2673569
-110.1409302 187.8150635 72.7835083
-111.3108368 187.8843384 72.6040344
-138.2056580 191.5621948 58.8015022
-139.6496887 191.9285126 57.2974739
160.1087646 168.6052094 136.0783539
158.6813812 168.2702026 137.6506805
98.5975037 169.9190369 136.5332184
97.6255264 170.2069855 135.3521729
96.6739731 170.5014038 134.1089478
95.7323532 170.8216400 132.7621307
-61.0685768 192.2740173 52.9066353
-62.1061096 192.0320129 54.0883827
-63.2143860 191.7555237 55.4486694
-77.6943359 189.4315186 67.3530045
-78.8348694 189.3232269 67.9605026
-79.9454422 189.2216187 68.5226669
-83.3548737 188.9628143 70.0430908
-84.4943848 188.8920593 70.4784546
-85.6060333 188.8298492 70.8674774
-86.7686844 188.7708740 71.2607727
-87.9028549 188.7176361 71.6127319
-93.6507187 188.5472717 72.9664001
-94.8079147 188.5310669 73.1551132
-104.1498871 188.6226044 73.7024155
-107.7008743 188.7570648 73.4785538
-108.8769531 188.8159637 73.3437347
-110.0904922 188.8811493 73.1775818
-111.2812347 188.9506989 72.9829712
-138.1535645 192.6321411 59.2780991
-139.6022797 192.9978333 57.7864265
158.8950348 169.5379181 136.5088348
98.6941147 171.1453705 135.6072845
97.7363281 171.4403381 134.3887787
96.7869949 171.7635498 133.0695496
95.8533325 172.1040649 131.6488190
-61.0021591 193.3888245 53.1564827
-62.0893097 193.1075439 54.5230103
-63.1997871 192.8257446 55.8959084
-77.6636963 190.5008850 67.7363434
-78.8091278 190.3923950 68.3453979
-79.9258270 190.2920227 68.9046860
-81.0434799 190.1986542 69.4292908
-82.1866226 190.1098785 69.9430161
-83.3212280 190.0324860 70.4078827
-84.4676056 189.9620361 70.8402557
-85.5883408 189.8960876 71.2466354
-86.7387085 189.8363190 71.6366119
-87.8683624 189.7858124 71.9805679
-93.6098022 189.6149597 73.3354645
-94.7725220 189.6000519 73.5239029
-108.8401260 189.8827362 73.7155838
-110.0640793 189.9525299 73.5314255
-111.2494965 190.0236206 73.3350677
-138.0868683 193.7064972 59.7299271
-139.5179749 194.0695496 58.2633476
159.1546936 170.8536377 135.2145233
157.7427979 170.5073547 136.7960205
156.4002533 170.2316589 138.1731567
98.8163223 172.3903809 134.6128540
97.8578873 172.7064362 133.3079071
-60.9587669 194.4846191 53.4862213
-77.6368713 191.5756226 68.0809631
-78.7803955 191.4659576 68.6901245
-86.7081146 190.9076996 71.9781647
-87.8384705 190.8591461 72.3101959
-91.2836227 190.7393951 73.1943817
-92.4317856 190.7120972 73.4459381
-93.5817795 190.6859741 73.6670532
-94.7453232 190.6735687 73.8495026
-95.8919525 190.6662598 74.0006332
-108.8087921 190.9583282 74.0501175
-110.0231400 191.0297546 73.8618469
-111.2134094 191.0993652 73.6737976
-138.0335083 194.7904663 60.1345825
-139.4640503 195.1534729 58.6781616
158.0357361 171.8595886 135.4303131
156.6143494 171.5095367 136.9636688
98.9404144 173.6732941 133.4909973
97.9944763 174.0020599 132.1271057
-60.9611397 195.5748901 53.8544540
-77.6156082 192.6563263 68.4062958
-78.7599564 192.5458374 69.0128632
-91.2564240 191.8202209 73.4978790
-92.4049683 191.7859802 73.7509613
-111.1761703 192.1785126 73.9919739
-137.9821625 195.8817902 60.5030937
-139.4212189 196.2474365 59.0458984
-140.8406372 196.6283875 57.5167999
156.8750000 172.8386383 135.5656586
155.5174713 172.5354919 137.0181580
154.2047729 172.2841644 138.2843933
100.9918365 174.3549194 134.7908936
100.0255585 174.6579590 133.5664520
99.0884171 174.9748688 132.2626495
98.1405334 175.3395844 130.7988892
-60.9421806 196.6734772 54.1709213
-77.5963821 193.7415009 68.7045288
-78.7392654 193.6326141 69.2989807
-79.8552094 193.5337524 69.8466797
-80.9805527 193.4385223 70.3793411
-88.9528351 192.9767303 73.2242813
-90.0870972 192.9355621 73.5227432
-91.2318726 192.9028015 73.7820816
-111.1479263 193.2635345 74.2803268
-137.9451752 196.9839478 60.8193130
-139.3772278 197.3493347 59.3730431
-140.8154602 197.7392273 57.8198318
157.1917725 174.2448120 133.9766083
155.7901611 173.8777313 135.5722656
154.4362183 173.5831604 136.9792633
101.1348114 175.6586304 133.5709381
100.1759491 175.9862823 132.2538605
99.2386627 176.3357239 130.8453522
-59.8125839 198.1068726 52.9157906
-60.9325600 197.7744751 54.4751053
-77.5807877 194.8330231 68.9706039
-78.7266083 194.7232513 69.5660019
-79.8332520 194.6243744 70.1101761
-80.9689331 194.5271606 70.6504517
-109.9399872 194.2843018 74.7188721
-111.1224365 194.3548279 74.5355148
-137.9109344 198.0951385 61.0930786
-139.3477325 198.4640808 59.6419144
-140.7663574 198.8486633 58.1216354
154.7173920 174.9470215 135.4982910
153.3561554 174.6597290 136.8358154
152.0562439 174.4180603 138.0113373
150.7760162 174.2149353 139.0535278
149.5385284 174.0421448 139.9649658
103.1971130 176.3929596 134.6256714
102.2360153 176.6878357 133.4617004
101.2955246 176.9965668 132.2078094
100.3382111 177.3590698 130.7766571
-59.8155594 199.2185364 53.1796455
-60.9127083 198.8883209 54.7180862
-82.0857010 195.5329590 71.3936081
-83.2192307 195.4545593 71.8493195
-108.7022324 195.3091736 75.1298828
-109.9188766 195.3785095 74.9573364
-111.0986328 195.4494781 74.7755356
-112.3101730 195.5300446 74.5526276
-113.5153427 195.6173553 74.3005981
-137.8864594 199.2157135 61.3243866
-139.3096466 199.5835571 59.8865585
153.6514740 176.0490417 135.3007813
152.3243256 175.7673035 136.5688324
151.0069885 175.5237274 137.7223206
149.7583923 175.3270111 138.7232971
103.3581772 177.7340088 133.2744141
102.4140167 178.0398254 132.0419922
-59.8067474 200.3458557 53.3716278
-60.9125710 200.0073242 54.9349823
-82.0760956 196.6360626 71.5900497
-83.2062225 196.5565796 72.0527878
-92.3322678 196.1535950 74.7309570
-108.6774826 196.4057922 75.3516235
-112.2967377 196.6327667 74.7601471
-113.4980240 196.7210999 74.5040436
-137.8538818 200.3406067 61.5315971
-139.2977600 200.7173920 60.0690002
151.2784119 176.8860474 136.1963806
150.0155945 176.6664734 137.2932434
148.7287598 176.4728241 138.2859650
147.4832611 176.2994232 139.1574097
105.4506836 178.5117188 134.1100159
104.4863358 178.7935791 132.9908600
103.5426788 179.1001892 131.7768707
-58.7271042 201.8398438 51.8910904
-59.8111496 201.4773254 53.5451660
-60.9031677 201.1410828 55.0935593
-82.0603333 197.7421875 71.7792969
-83.1977997 197.6572723 72.2544708
-87.7351990 197.4081421 73.7956924
-88.8914108 197.3555603 74.1405716
-106.3066940 197.4036713 75.7517395
-107.4975815 197.4525909 75.6656036
-112.2786026 197.7405090 74.9391785
-113.4921722 197.8300171 74.6849747
-137.8540802 201.4838257 61.6624680
-139.2915802 201.8614807 60.2067375
151.6005096 178.3189240 134.4212494
150.2899170 178.0431976 135.6869049
148.9824524 177.8202057 136.7872620
147.7277222 177.6358185 137.7367859
105.6439133 179.8904266 132.5874329
104.6856079 180.2042389 131.3600159
103.7551270 180.5410461 130.0573120
-58.7275200 202.9896240 51.9940262
-59.8134384 202.6186371 53.6739769
-60.8930626 202.2836761 55.2100830
-82.0534592 198.8486481 71.9532547
-83.1858673 198.7664795 72.4195023
-87.7365265 198.5087585 73.9869232
-88.8855591 198.4642181 74.3008270
-93.4651413 198.3376160 75.3108521
-105.1213684 198.4650726 75.9907379
-106.2885590 198.5111847 75.9208984
-112.2670822 198.8518372 75.0996552
-113.4792938 198.9421692 74.8433533
-137.8567963 202.6362000 61.7537613
-139.2924347 203.0143433 60.3090515
149.2776031 179.2399292 135.0527649
147.9995728 179.0209656 136.1072388
146.7410278 178.8321228 137.0560913
145.5130005 178.6734619 137.8873596
109.7119598 180.2270813 135.0954285
108.7400665 180.4653778 134.1851807
107.7684555 180.7235107 133.1777496
106.8078003 181.0134583 132.0657043
105.8465500 181.3396149 130.8362579
-56.5990334 205.0086060 48.2035713
-57.6389694 204.5680237 50.1819305
-58.7342224 204.1462708 52.0644836
-82.0444336 199.9682922 72.0891266
-83.1803131 199.8834686 72.5580139
-86.5941391 199.6777649 73.7705231
-87.7194824 199.6271210 74.1120911
-92.3051987 199.4781036 75.2266922
-93.4623108 199.4523010 75.4472198
-105.1106262 199.5786591 76.1362915
-106.2746506 199.6236725 76.0616531
-112.2635803 199.9710693 75.2301025
-113.4730530 200.0619659 74.9740906
149.6653900 180.7785492 133.0001068
148.3215179 180.4782410 134.2475281
147.0397949 180.2552795 135.2896271
145.7990265 180.0621948 136.2332458
109.9185562 181.6230774 133.5105743
108.9511032 181.8798370 132.5126953
107.9839554 182.1784668 131.3947449
-55.5376968 206.7292938 45.8368874
-56.6069870 206.1932831 48.1838074
-57.6457901 205.7410583 50.1911888
-58.7368126 205.3140106 52.0902367
-82.0483322 201.0857086 72.2076797
-83.1733627 201.0061951 72.6683044
-84.3275528 200.9301910 73.0997009
-92.2922287 200.5927734 75.3460617
-103.9315643 200.6561737 76.3022003
-105.1145554 200.6993103 76.2447815
-106.2805939 200.7476807 76.1601410
-107.4850235 200.8070679 76.0460434
-108.6631851 200.8679047 75.9134216
-109.8753815 200.9379120 75.7495499
-111.0470276 201.0097046 75.5600433
-112.2574921 201.0960083 75.3344574
-113.4650955 201.1844788 75.0814743
147.3984528 181.7717285 133.2311554
146.1105347 181.5160675 134.3243866
144.8625031 181.3429871 135.2452850
143.6082764 181.1689301 136.0904083
142.4097900 181.0463867 136.7725372
141.2001953 180.9243317 137.4051971
114.0923004 182.1483002 135.1732483
113.0995178 182.3443604 134.4396820
112.0974884 182.5770874 133.5946350
111.1349335 182.8030853 132.7146301
110.1490173 183.0838318 131.6694794
109.1920013 183.3726807 130.5745697
-55.5510864 207.9323730 45.7524414
-56.6200981 207.3874054 48.1162109
-82.0499039 202.2145691 72.2916412
-83.1785355 202.1323090 72.7544403
-88.8766632 201.8205566 74.6448212
-90.0045166 201.7785492 74.9408264
-91.1484680 201.7414398 75.2048035
-92.3017197 201.7172699 75.4436340
-95.7478867 201.6646118 76.0232315
-96.9181824 201.6624603 76.1499023
-103.9286880 201.7815399 76.3860321
-137.8689575 206.1404724 61.8210182
-139.3231049 206.5433502 60.3139839
146.5376282 183.1266785 132.0150299
145.2183533 182.8558350 133.1496887
143.9428711 182.6563263 134.0647888
142.7131348 182.4820862 134.8859406
141.4934845 182.3549194 135.6146240
114.3270721 183.5796509 133.4372406
113.3481445 183.7952271 132.6292419
112.3548279 184.0564880 131.6848602
111.3931656 184.3159943 130.7055206
110.4188004 184.6437073 129.5476685
-55.5575333 209.1618958 45.5666809
-56.6377487 208.5974731 47.9898071
-82.0465851 203.3517456 72.3456879
-83.1900711 203.2639160 72.8172302
-86.5850983 203.0548248 74.0440826
-98.0722961 202.8005066 76.3013840
-103.9282227 202.9124908 76.4396057
-137.8764038 207.3264313 61.7647285
-139.3552551 207.7455444 60.2064400
141.8400269 183.8702087 133.5041199
140.6388092 183.7268677 134.2171326
139.4222412 183.6131287 134.8330994
138.2453766 183.5294800 135.3389435
137.0744934 183.4519043 135.7861938
118.6225815 184.2981567 134.2450562
117.6039810 184.4690857 133.6482849
116.5958023 184.6659241 132.9643707
115.5979614 184.8627472 132.2327728
114.5980988 185.0931854 131.3922577
113.6257553 185.3387756 130.4947968
-55.5909576 210.4064636 45.3078918
-56.6519470 209.8222504 47.8057060
-82.0522614 204.4936829 72.3757629
-83.1937943 204.4068298 72.8474579
-84.3296814 204.3245850 73.3010559
-85.4389191 204.2560730 73.7060928
-93.4646225 203.9584198 75.7769928
-94.6159821 203.9402771 75.9732361
-98.0879364 203.9382935 76.3445129
-102.7718658 204.0178528 76.5047379
-103.9453812 204.0556946 76.4654617
-137.9234924 208.5372620 61.6266060
142.2912598 185.5641785 130.8967438
141.0505676 185.3635101 131.7875366
139.8023682 185.1927185 132.5332642
138.5950317 185.0546112 133.1625671
137.4116669 184.9656677 133.6847839
118.9108124 185.8213196 132.1730194
117.9026413 186.0097046 131.4995575
116.8990021 186.2144165 130.7506561
115.9120712 186.4480591 129.9116211
-54.5709877 212.3672180 42.0626602
-55.6225243 211.6627502 45.0001221
-56.6748848 211.0557861 47.5770149
-82.0616837 205.6398010 72.3839035
-83.1927338 205.5521240 72.8603516
-84.3340378 205.4685669 73.3072662
-85.4583740 205.3979797 73.7095947
-92.3110657 205.1116028 75.5708771
-93.4527740 205.0937195 75.7989807
-94.6223068 205.0790863 75.9859924
-95.7624359 205.0743866 76.1361694
-96.9407501 205.0661469 76.2610626
-98.0958710 205.0784302 76.3589478
-99.2678757 205.0866089 76.4424667
-102.7737808 205.1640015 76.5060425
-103.9508057 205.1997528 76.4737244
-137.9608002 209.7538147 61.4583931
139.0525665 186.7653503 130.4273224
137.8208008 186.6017151 131.0922394
136.6379700 186.4945679 131.6431580
135.4676056 186.4276276 132.0804443
134.2921295 186.3724976 132.4357910
133.1582489 186.3485260 132.6878967
132.0360260 186.3325195 132.8938446
130.9265137 186.3472748 132.9883423
129.8001099 186.3585510 133.0260773
128.7102356 186.3977051 132.9822083
127.6173401 186.4435730 132.8968353
126.5467911 186.5055695 132.7604523
125.4721222 186.5880737 132.5481720
124.4011307 186.6949921 132.2503357
123.3579865 186.8038635 131.8997345
122.3160400 186.9373016 131.4669189
121.2926025 187.0842285 130.9660339
120.2627258 187.2502594 130.3505554
119.2620087 187.4433899 129.6917877
118.2601700 187.6955566 128.9076233
-55.6212997 212.9540710 44.6011810
-56.7087250 212.3139038 47.2609940
-79.8103409 206.9892273 71.3255310
-80.9400482 206.8895416 71.8595581
-84.3397064 206.6296387 73.2809219
-85.4631882 206.5584717 73.6760788
-91.1753540 206.2949524 75.3210144
-92.3250504 206.2678833 75.5780869
-96.9540405 206.2216949 76.2477798
-98.1000595 206.2254639 76.3454590
-99.2797852 206.2442322 76.4219666
-102.7830276 206.3137512 76.4922638
-103.9640961 206.3502808 76.4662552
-105.1401367 206.3912201 76.4226227
-106.3074722 206.4362488 76.3414917
-107.5140686 206.5025940 76.2210236
-108.6829453 206.5643463 76.0796204
-135.2067261 210.2419739 63.9544754
-136.5947418 210.5949097 62.6586342
-138.0037842 210.9841766 61.2327881
137.1677246 188.3524628 128.4380341
135.9570160 188.2195892 129.0710144
132.4508972 188.0129089 130.1746826
131.3386078 188.0026398 130.3206329
130.2080231 188.0097809 130.3733826
129.0972443 188.0306091 130.3774261
128.0061646 188.0807800 130.2722168
126.9382935 188.1550293 130.1243591
125.8738937 188.2505341 129.9128418
124.8045502 188.3808594 129.5527954
123.7641220 188.5126038 129.1089630
-56.7378769 213.6036377 46.8325310
-79.8238449 208.1529999 71.2670746
-80.9565277 208.0489197 71.8119659
-84.3621445 207.7819824 73.2365265
-85.4740601 207.7164001 73.6374054
-86.6272736 207.6446381 74.0447006
-91.1935730 207.4622650 75.2874756
-92.3416672 207.4296265 75.5301743
-96.9592743 207.3740234 76.2193756
-98.1191025 207.3777466 76.3117142
-99.2964630 207.3945313 76.3793182
-100.4482651 207.4058228 76.4379730
-101.6187820 207.4309692 76.4658890
-102.7937927 207.4711456 76.4624176
-106.3241501 207.5991058 76.2993240
-107.5391998 207.6678162 76.1681290
-108.7039413 207.7269897 76.0279999
-135.2384033 211.4612732 63.7477112
-136.6458435 211.8316803 62.4028320
-56.7721252 214.9060974 46.3420486
-57.8058624 214.3422546 48.7248077
-58.8774300 213.8310394 50.8893356
-79.8405609 209.3282776 71.1825638
-80.9779968 209.2124481 71.7370834
-82.0900269 209.1229553 72.2401581
-83.2287598 209.0342255 72.7191772
-84.3727570 208.9461517 73.1731491
-85.4875793 208.8757629 73.5797272
-86.6381683 208.8119202 73.9614563
-87.7801208 208.7544708 74.3087616
-88.9189224 208.6996307 74.6448746
-90.0476913 208.6477966 74.9542084
-91.2025604 208.6204071 75.2118530
-92.3552704 208.5877991 75.4557419
-96.9781036 208.5364075 76.1532593
-102.8098602 208.6331940 76.4169235
-107.5356979 208.8233948 76.1031342
-108.7252274 208.8941040 75.9551010
-135.2908630 212.7033691 63.4700623
-136.6901703 213.0794220 62.1034012
-57.8428802 215.6452332 48.2235985
-58.9188881 215.1065063 50.4840355
-79.8584137 210.5030060 71.0706406
-80.9876938 210.3918304 71.6292114
-82.1199799 210.2937164 72.1457672
-83.2519989 210.2020264 72.6258621
-84.3871078 210.1139221 73.0779190
-85.5065918 210.0459900 73.4801788
-86.6596298 209.9845581 73.8547897
-87.7902374 209.9236450 74.2065735
-88.9460068 209.8717957 74.5521698
-90.0756073 209.8231964 74.8529663
-91.2233582 209.7855835 75.1210556
-92.3731384 209.7555237 75.3632965
-93.5227509 209.7361450 75.5768127
-94.6842880 209.7167511 75.7650909
-95.8295441 209.7102966 75.9202652
-96.9940338 209.7117920 76.0505066
-102.8207474 209.8042908 76.3249588
-107.5625610 209.9981079 76.0053787
-108.7446594 210.0658875 75.8525848
-135.3491516 213.9545593 63.1437302
-136.7694702 214.3515472 61.7261353
-57.8902245 216.9699707 47.6422806
-58.9589844 216.4120331 49.9791374
-82.1386261 211.4754944 72.0111694
-83.2716675 211.3919983 72.4892273
-84.4002533 211.3066406 72.9386368
-85.5268173 211.2273102 73.3458252
-86.6730347 211.1668854 73.7287598
-87.8012619 211.1038208 74.0917206
-98.1694565 210.8854065 76.0429840
-99.3565369 210.8930969 76.1214905
-100.5106125 210.9189758 76.1624298
-101.6761932 210.9443970 76.1792984
-102.8612061 210.9794464 76.1851196
-105.2354431 211.0830078 76.0963287
-106.3839111 211.1138763 76.0010986
-107.5904465 211.1827087 75.8702393
-108.7738953 211.2514343 75.7148209
-135.4125061 215.2251282 62.7634544
-136.8387756 215.6286316 61.3237267
-57.9435692 218.3184204 46.9803276
-59.0150795 217.7278290 49.4176102
-82.1705017 212.6670074 71.8395767
-83.2951889 212.5737610 72.3235779
-86.6990814 212.3404846 73.5964508
-87.8277283 212.2840576 73.9507675
-98.1931076 212.0768127 75.8963699
-99.3748398 212.0785828 75.9752731
-100.5317688 212.1033325 76.0175552
-101.7112885 212.1273041 76.0368729
-102.8777161 212.1593170 76.0309753
-104.0604858 212.2027435 75.9928284
-105.2440872 212.2447357 75.9314728
-106.4162521 212.3072815 75.8369141
-107.6263809 212.3700256 75.7049484
-108.8057098 212.4450073 75.5496674
-135.4862823 216.5072327 62.3241005
-57.9900665 219.7060242 46.1970177
-59.0612564 219.0776062 48.7324867
-82.1990967 213.8710175 71.6360245
-83.3211746 213.7739563 72.1300583
-86.7275543 213.5378265 73.4171906
-87.8550262 213.4783173 73.7648163
-98.2271729 213.2602539 75.7267151
-99.4036789 213.2758179 75.8033905
-102.9041138 213.3512421 75.8564758
-104.0896378 213.3963928 75.8109512
-132.8146667 217.0764618 64.4209900
-134.1658020 217.4212036 63.2026100
-135.5839844 217.8184204 61.8041153
-58.0381241 221.1441956 45.2459526
-59.1253319 220.4579773 47.9522781
-82.2209091 215.0771484 71.4040680
-83.3560028 214.9811096 71.9034424
-84.4837189 214.8987885 72.3642426
-85.6077271 214.8211365 72.7866974
-86.7528839 214.7497101 73.1832428
-87.8897095 214.6872101 73.5464172
-98.2604523 214.4582214 75.5201874
-99.4333496 214.4740601 75.5993195
-102.9508057 214.5605316 75.6434021
-104.1228333 214.5997925 75.6004410
-132.9061127 218.3768311 63.9228020
-134.2751465 218.7362366 62.6454163
-135.6852722 219.1432800 61.2285233
-59.1845055 221.8686829 47.0731773
-60.2195930 221.2860413 49.4480629
-61.2824974 220.7725830 51.5526924
-132.9914246 219.6893005 63.3722916
-134.3781738 220.0724030 62.0323486
-60.2222137 222.7103424 48.5641441
-61.3321228 222.1613770 50.7492599
-133.0954742 221.0213013 62.7436752
-134.4831696 221.4213867 61.3700142
-61.3990021 223.5722809 49.8576164
-112.6354218 218.8168488 73.5240631
-113.8530579 218.9333801 73.2003403
-115.0782013 219.0634460 72.8371658
-116.3210144 219.2020721 72.4410400
-117.5295868 219.3375244 72.0202713
-118.8054352 219.5116882 71.5190964
-120.0417862 219.6800842 70.9938354
-121.3149109 219.8629456 70.4159088
-122.5785675 220.0633698 69.7920456
-123.8566360 220.2827454 69.0883636
-125.1551056 220.5217133 68.3195648
-126.4564514 220.7669983 67.5005341
-130.4651947 221.6575317 64.5354385
-131.8086243 221.9945526 63.3633499
-133.2130737 222.3849335 62.0270233
-61.4701614 225.0297546 48.7967148
-112.6935425 220.0718079 73.1311951
-113.9165878 220.1966400 72.7976837
-115.1469574 220.3248291 72.4325333
-116.3984070 220.4745178 72.0258789
-117.6038361 220.6130981 71.5864410
-118.8676376 220.7816772 71.0797501
-120.1253891 220.9669647 70.5334167
-121.4105148 221.1618805 69.9561920
-122.6765366 221.3659973 69.3194427
-123.9403534 221.5834045 68.5783081
-125.2374802 221.8223419 67.7895203
-126.5636597 222.0917664 66.9247589
-130.5629730 223.0022888 63.8633194
-131.9419861 223.3730164 62.6055717
-61.5620575 226.5261688 47.6026268
-62.6124306 225.9320374 49.9209061
-63.6739426 225.4088898 52.0197144
-73.4786682 222.5609436 63.9003639
-74.5925598 222.3547363 64.8009033
-75.6892242 222.1720581 65.6221619
-76.8201981 221.9865723 66.4301758
-82.4196777 221.2872925 69.6802368
-83.5532913 221.1822205 70.2022476
-84.6935883 221.0750427 70.7022858
-85.8131104 220.9976044 71.1503906
-86.9556808 220.9104614 71.5797195
-88.0923615 220.8438721 71.9624329
-89.2450180 220.7854767 72.3199234
-90.3691406 220.7257233 72.6441345
-91.5324173 220.6902771 72.9257813
-92.6854706 220.6490936 73.1750031
-96.1412659 220.5941162 73.7532959
-97.3131256 220.5885010 73.8930969
-98.4721756 220.6069031 73.9814453
-99.6588287 220.6184387 74.0477753
-100.8137054 220.6420135 74.0785065
-101.9909134 220.6672058 74.0937119
-103.1706238 220.7045288 74.0804138
-104.3547974 220.7593536 74.0275879
-105.5522003 220.8150940 73.9469757
-106.7203751 220.8702240 73.8274231
-107.9312897 220.9499664 73.6609497
-109.1256485 221.0372925 73.4793701
-110.3420868 221.1272583 73.2621078
-111.5502167 221.2360840 72.9996796
-112.7649460 221.3412933 72.7065201
-113.9813919 221.4594269 72.3800278
-62.6886444 227.4392700 48.7315483
-63.7559891 226.8687744 50.9348755
-73.5397568 223.8707123 63.3241653
-74.6511612 223.6581421 64.2369156
-75.7510376 223.4688721 65.0767975
-76.8738785 223.2813721 65.9008331
-82.4750519 222.5637970 69.2113876
-83.6071396 222.4583130 69.7447205
-84.7428818 222.3542938 70.2521667
-85.8563614 222.2675476 70.7073975
-87.0130157 222.1766357 71.1458588
-88.1376877 222.1151733 71.5339737
-89.2882843 222.0407257 71.9290466
-90.4216156 221.9896088 72.2426224
-91.5741119 221.9439087 72.5122375
-92.7297821 221.9099426 72.7631378
-96.1911316 221.8625336 73.3415070
-97.3611145 221.8525238 73.4871368
-63.8499603 228.3792877 49.7117233
-64.9139404 227.8599243 51.7601395
-65.9589310 227.4095764 53.5621223
-67.0423050 226.9886475 55.2685547
-68.1037292 226.6361694 56.7360382
-69.2099686 226.2897491 58.1356926
-70.2831573 225.9953156 59.3768463
-71.3844147 225.7098389 60.5608940
-72.4889984 225.4442596 61.6651611
-73.5924530 225.2070313 62.6832314
-76.9337082 224.5934753 65.3378601
-78.0413513 224.4188080 66.1094513
-79.1714630 224.2652283 66.8379517
-80.2673264 224.1124573 67.5054169
-81.4052124 223.9719849 68.1431503
-82.5215607 223.8574829 68.7170258
128.6958160 93.6262436 107.0893707
131.8027344 93.8889160 109.1698685
131.2185211 93.8658295 109.3614960
130.6329651 93.8578339 109.5473328
130.0521851 93.8600540 109.6767654
129.4721680 93.8818817 109.7800598
128.9010925 93.9211807 109.8202972
128.3266907 93.9390030 109.8543777
125.5353012 93.9292831 109.6300964
124.9816437 93.9308472 109.5126114
124.4564896 93.9415359 109.3378067
123.9245758 93.9627457 109.1399231
123.3718491 93.9934692 108.9146423
122.8382492 94.0284653 108.6335754
122.3195267 94.0677109 108.3474960
121.8033600 94.1099854 108.0432358
133.8689270 94.2214355 110.6885757
136.6028595 94.6553802 111.3148193
135.9750824 94.6255646 111.7092743
135.3431854 94.6041107 112.0791626
134.7496490 94.5890808 112.3688736
134.1459808 94.5939484 112.6567841
133.5454712 94.5880508 112.8856354
118.6686935 94.9490280 110.6231613
118.1613693 94.9721146 110.1923599
117.6401215 95.0250626 109.7599640
138.1511536 95.0638580 112.2359695
116.3774109 95.4326248 110.8846054
139.1109924 95.4751282 113.3024521
138.4715271 95.4596329 113.7751923
137.8278046 95.4372711 114.2012100
116.1536407 95.8185196 112.6519928
115.6499786 95.8604736 112.2487869
115.1408920 95.9067001 111.7363205
114.6475525 95.9607010 111.1674805
114.1705322 96.0228577 110.5438919
139.7644348 96.2209930 116.0273209
112.7276535 96.8519669 112.9647751
112.2233124 96.9104767 112.4437637
111.7261124 96.9614182 111.8418884
142.1282196 96.7377777 115.7647705
141.5191193 96.7273483 116.3012161
140.1650238 96.6421890 117.2771912
139.5768738 96.5975113 117.5753708
110.5601425 97.4500427 112.2908936
143.8030396 97.2335663 115.7464752
143.1423035 97.2004700 116.3282852
142.4849548 97.1660767 116.8755035
141.8405762 97.1335754 117.3728714
141.2245178 97.0937958 117.7889709
140.5932159 97.0497055 118.2233429
139.9728851 97.0021515 118.6273575
139.3564148 96.9642258 118.9896469
110.4026184 97.8545303 113.7520065
109.8814011 97.8931961 113.1145020
144.1796417 97.6673050 116.8121033
145.9506073 98.1688919 116.4913025
145.2572327 98.1317368 117.1703949
144.5892334 98.0856094 117.7539063
143.9246063 98.0432129 118.3205872
108.1137009 98.8710403 114.1210022
107.6160431 98.9330673 113.4807281
147.4188538 99.0921021 117.6475983
146.7302094 99.0369949 118.3193359
146.1068420 98.9713058 118.8414612
106.8219147 99.7930069 115.4263763
106.3154144 99.8496933 114.7551117
148.5513763 99.5964355 117.6643143
150.3921967 100.1870193 116.7451859
149.6376801 100.1214981 117.6767502
148.9558411 100.0502701 118.4281998
148.2743225 99.9847183 119.1462708
103.3998795 101.8450165 116.2603607
102.9039001 101.9098587 115.5496140
150.3223877 101.3659210 120.3373871
102.2871399 102.4103546 115.9174805
152.1679688 101.9368973 119.4017487
151.4624023 101.8789368 120.1860428
150.7676544 101.8173447 120.9267426
150.1178131 101.7444153 121.5578918
102.1824570 102.8332596 116.9770203
101.6950836 102.9112473 116.2738037
101.2065125 102.9836502 115.5345688
152.4270172 102.7993469 121.1374512
100.0229187 104.0053711 116.1399307
99.5358887 104.0882416 115.3230896
98.9459686 104.5970001 115.5878601
154.8034821 103.8818665 120.3593063
98.8673782 105.0267715 116.6523819
154.6002502 104.2612839 121.5327377
98.7771378 105.4286346 117.5617752
155.1176453 104.7257767 121.9178238
154.3923798 104.6545868 122.6870728
155.6263733 105.2497482 122.4069519
156.8286896 105.7618027 121.5879440
156.1187744 105.6689911 122.4558640
155.4150543 105.5859451 123.2598495
98.4751663 106.6794128 120.2920380
98.0016861 106.7713318 119.6066055
97.0202942 107.0010681 118.0759888
156.6278992 106.1719360 122.6645432
96.4380188 107.4731827 118.1797714
157.1435242 106.6633224 122.8659592
156.4510651 106.5753937 123.6678925
96.3603592 107.9045563 119.0365982
95.8674927 107.9911804 118.2683411
95.3140106 108.5120850 118.3509064
157.5173950 107.5471725 123.9876175
95.2497940 108.9442596 119.1811218
159.3006134 108.6442413 123.3312988
158.5479889 108.5421066 124.2699280
95.0832138 109.7884674 120.7151947
159.8480530 109.1491165 123.3754730
160.4222717 109.6564636 123.3730545
159.6602783 109.5532532 124.3461685
93.9536057 110.8536911 120.6365128
160.8034210 110.5624161 124.3086014
92.8715057 111.9447327 120.4955902
91.8370361 112.6155624 119.5072937
161.9369659 111.5792007 124.2247543
91.7829437 113.0595856 120.1653824
91.3036194 113.1710892 119.3287582
90.7558594 113.7257309 119.1134338
161.5904694 112.3912659 125.9646072
90.6136398 114.6041794 120.4219360
162.7720032 113.4389420 125.6857452
90.5991669 115.0491333 121.1321716
90.0897827 115.1517792 120.2504654
163.3825684 113.9594955 125.4997253
162.6178589 113.8514328 126.4783707
90.5407791 115.4951096 121.7407532
162.4505157 114.2637711 127.2733688
90.4788055 115.9363480 122.3149948
89.9994125 116.0445251 121.5095291
89.5054016 116.1565704 120.6666794
163.8233643 114.9162064 126.0482864
90.4270630 116.3828278 122.8890991
89.9506683 116.4983139 122.0993729
164.4608154 115.4526367 125.7604980
163.6833954 115.3320465 126.7951965
90.3696976 116.8292618 123.4450226
164.2904663 115.8689041 126.5564575
163.5357056 115.7419891 127.5427628
163.4030609 116.1559219 128.2492523
90.2263641 117.7043991 124.4713593
90.1953049 118.1620712 124.9816208
90.1554794 118.6162186 125.4596405
89.6680450 118.7171860 124.7513657
90.1098557 119.0744400 125.9149399
165.8860626 118.3421097 127.0254364
90.0652924 119.5320587 126.3544159
89.5815277 119.6353378 125.6523361
89.0635605 119.7415085 124.8873291
165.7577209 118.7654877 127.6733322
90.0262985 119.9895325 126.7854767
89.5357208 120.0963135 126.0761871
166.4041138 119.3153152 127.2900696
165.6151276 119.1877747 128.3367310
89.9818420 120.4480286 127.2053299
165.4722137 119.6107941 128.9827271
166.1351318 120.1694794 128.5487213
165.3587189 120.0383224 129.5603943
166.8012695 120.7352600 128.0878754
166.6871796 121.1702423 128.6518402
87.9228897 122.7705307 125.8678207
87.8786926 123.2354202 126.2505417
87.8404465 123.6922989 126.6443329
87.3737564 123.8138046 125.8962402
86.8889313 123.9479446 125.0674515
86.3891754 124.0917206 124.1752548
167.8521118 122.7384186 128.3149109
85.8445129 125.1485977 124.1116486
85.3423004 125.2849655 123.2248383
167.6561279 123.6055069 129.3577271
85.8149796 125.6244431 124.4665680
167.5520172 124.0424500 129.8618469
85.7911530 126.0948639 124.8195419
85.2982941 126.2316132 123.9363632
84.8055725 126.3695145 123.0470810
167.4517822 124.4828110 130.3501282
113.2715988 122.5579605 147.6825256
168.1624756 125.0585251 129.7749939
167.3491516 124.9204559 130.8264465
113.2285309 123.0213165 147.8985291
167.2797546 125.3617554 131.2422180
123.1864014 122.9643250 150.2009888
113.2075424 123.4907608 148.1178589
106.5373230 124.0250702 145.4390564
106.0100098 124.0743637 145.1779480
105.4985657 124.1251297 144.9178009
105.0082321 124.1766968 144.6575775
84.7445221 127.7873993 124.0754700
84.2435150 127.9339905 123.1527100
167.9478302 125.9460373 130.7074890
167.1970520 125.8095551 131.6607208
114.2280121 123.8901901 148.6557159
113.7088547 123.9286041 148.4969788
113.1867828 123.9643478 148.3326874
106.5086365 124.4955750 145.6597595
104.9779510 124.6432114 144.8748016
84.7323380 128.2617493 124.4161530
120.9822769 124.0067062 150.3733368
120.4529648 124.0311661 150.2745667
116.7859344 124.2077866 149.5339508
114.1985016 124.3593292 148.8607788
104.9476318 125.1161423 145.0856476
101.3986893 125.5147171 142.9934235
98.8841782 125.8361893 141.2608337
168.5234985 127.0062103 130.5489349
120.3735123 124.4634933 150.4635773
116.7525330 124.6677628 149.7485046
114.1644897 124.8281021 149.0633087
104.9254227 125.5903320 145.2946777
101.3595963 125.9868546 143.1985931
98.8595123 126.3085861 141.4771729
84.6835175 129.2133636 125.0167465
84.1869583 129.3639984 124.0909119
83.6822357 129.5192108 123.1374207
170.0265503 127.7614365 128.7322083
133.8207855 124.7164536 150.9586334
120.3387527 124.9964676 150.6832581
117.7773132 125.0856781 150.1969757
117.2469940 125.0716934 150.0757599
104.8972855 126.0645294 145.4901733
101.3333054 126.4610138 143.4029541
84.6573715 129.6918030 125.2876587
84.1569061 129.8455505 124.3618698
169.9317169 128.2085114 129.1577606
133.7881775 125.1851425 151.1562653
123.0564651 125.3500595 151.2266998
120.8812790 125.4858551 150.9542694
120.3779221 125.4478531 150.8511963
119.8492050 125.4669952 150.7547607
119.3191452 125.4883041 150.6584473
118.8034973 125.5100708 150.5720825
118.2743149 125.5235443 150.4911041
106.3955002 126.3871460 146.4580383
105.8665924 126.4368744 146.1945953
105.3616867 126.4878769 145.9352417
104.8694458 126.5408173 145.6771698
101.3166962 126.9378586 143.6013489
100.8177185 126.9997177 143.2766571
100.3276291 127.0614777 142.9507904
99.8282700 127.1262131 142.6110077
84.6193619 130.1731873 125.5421753
168.3027344 128.3407898 131.6843262
131.5628052 125.6558762 151.5417175
131.0270233 125.6514359 151.5782013
128.8639984 125.6740265 151.6543732
84.5935669 130.6522980 125.8118210
168.1955109 128.7972412 132.0970306
133.7355499 126.1143570 151.5435486
133.1938477 126.1109924 151.6045074
132.0842285 126.1185684 151.7023621
131.5369110 126.1163330 151.7395935
128.8342438 126.1472168 151.8434143
109.9359131 127.0179291 148.4013824
84.5848999 131.1317749 126.0828323
84.0928574 131.2820740 125.1823044
83.5841217 131.4391632 124.2373505
169.7138214 129.5497284 130.3432465
138.1374207 126.6322556 151.0191345
137.6049042 126.5769424 151.0998077
134.8039703 126.5905075 151.5842743
134.2476654 126.5887070 151.6570282
133.7120819 126.5839233 151.7185669
126.1236420 126.6627884 151.9753418
125.5965729 126.6757355 151.9442902
122.9407120 126.7584076 151.7182770
122.4059448 126.7779922 151.6653595
109.9135361 127.4939041 148.5699768
83.5829849 131.9217377 124.5114746
169.6320496 130.0051270 130.7052307
138.1466675 127.0890961 151.1720886
122.9195251 127.2318268 151.9002075
109.8759842 127.9672318 148.7296906
169.5436859 130.4599304 131.0757904
138.1046753 127.5971298 151.3625183
137.5576477 127.6078949 151.4848938
125.0206070 127.6328659 152.2743988
124.4862671 127.6488113 152.2269287
123.9551849 127.6630936 152.1772919
123.4293976 127.6817017 152.1288910
122.8911819 127.6969910 152.0772552
108.8495255 128.5317688 148.4898529
138.0220490 128.0449371 151.5571289
137.4751587 128.0273590 151.6622467
83.5408554 133.3781586 125.1969452
83.0364075 133.5462494 124.2230988
169.4566345 131.3793182 131.6673584
138.0042877 128.5134125 151.7337799
137.4798126 128.4897156 151.8288116
83.5184174 133.8703461 125.3847809
83.0354843 134.0329132 124.4581375
169.3691711 131.8389740 131.9917603
137.9873505 128.9770660 151.9031982
83.4892044 134.3625641 125.5644760
169.3222656 132.3053894 132.2498627
139.0551605 129.4703217 151.8340912
106.7363510 130.6304932 148.2077026
83.4609604 134.8537750 125.7477188
169.2667847 132.7742004 132.5034485
139.0322876 129.9419708 151.9861298
106.7069550 131.1089630 148.3449097
83.4533310 135.3402863 125.9558945
-92.9320679 155.1293640 27.5231647
-93.3498535 155.1113281 28.4765320
-93.9253769 155.0628967 28.8352280
-94.7780228 154.9999542 28.6619148
139.0070190 130.4157104 152.1360321
105.6558533 131.6950226 147.9624023
-91.1614075 155.6038818 28.1382904
138.9846954 130.8882294 152.2837677
105.6370010 132.1751404 148.0977936
-90.4372253 155.9217529 29.9242668
-90.9454803 155.8860321 30.4106388
-107.0060120 155.4200745 34.6670494
-107.6451950 155.4575500 34.4887428
-108.2822113 155.5022736 34.2955933
-108.9182587 155.5616302 34.1058197
-109.5625534 155.6087494 33.8969231
-110.2102509 155.6209717 33.6108742
-110.8604965 155.6472168 33.3072319
171.4574280 134.7134705 129.9145660
170.6478424 134.5236816 131.1041565
140.1154327 131.3860016 152.1503601
84.3693237 136.5080261 128.1654816
83.8891449 136.6587677 127.3401947
-86.3468628 156.9198303 27.1028023
-87.9472885 156.5229797 29.5496445
-88.4493256 156.4506683 30.2638206
-88.9931412 156.3972168 30.7855949
-89.6037445 156.2909851 31.3804932
170.6092377 134.9911957 131.3445587
140.0712891 131.8628693 152.2971344
106.1293564 133.0895386 148.5900574
105.6088257 133.1426849 148.3347321
84.3523026 137.0044098 128.3026581
-86.1266327 157.1672058 29.4694843
-87.7637711 156.8468170 31.5164528
-88.3076935 156.7705383 32.0962448
-88.8554153 156.6845703 32.5905952
-89.4289932 156.6029358 33.1429825
-113.6717377 156.6622467 35.2644958
-114.3485718 156.6996002 34.8535995
-115.0495224 156.7482758 34.3954773
170.5659943 135.4629669 131.5698853
140.0605011 132.3366089 152.4258270
106.1182709 133.5722656 148.7089233
105.6029510 133.6253662 148.4560242
103.0694199 133.9079742 147.0989838
102.5628586 133.9684601 146.8038025
84.3557358 137.4969330 128.4603882
-84.8321457 157.6234131 30.0415897
-116.8279953 157.3167419 34.7604294
170.5007782 135.9333649 131.8069153
140.0398712 132.8119965 152.5503387
84.3443909 137.9974518 128.5706329
83.8624954 138.1548462 127.7184525
83.3871384 138.3153229 126.8513947
82.8869019 138.4845581 125.9325409
-83.5605469 158.1313477 30.4073162
-84.1188660 158.0394745 31.2032738
-84.6633911 157.9442291 31.8934307
-116.5637360 157.6665192 36.5639191
-117.2947388 157.7126007 36.0105476
141.1183319 133.3196869 152.3884888
140.5621033 133.3049774 152.5329437
140.0151978 133.2889557 152.6719971
105.0644760 134.6469879 148.4254303
104.5718994 134.7008209 148.1727600
104.0841980 134.7151642 147.9241486
83.3547592 138.8272705 126.9055405
141.1086731 133.7971497 152.5014038
104.5546494 135.1846466 148.2803497
104.1006699 135.2211151 148.0578003
83.3604584 139.3266296 127.0311279
-80.5465469 159.3785553 29.8780975
-81.0776672 159.2573700 30.7313290
-118.8984833 158.6758881 37.6797447
141.0883484 134.2763062 152.6094055
104.5370483 135.6717072 148.3784180
104.0226440 135.7240295 148.1355743
83.3518677 139.8314819 127.1233902
-120.0942688 159.2064362 38.0847168
141.0744019 134.7565155 152.7071686
104.0441055 136.2232513 148.1667786
83.3436203 140.3377838 127.2065125
-119.8839722 159.5959930 39.5203094
-120.5655365 159.6815796 38.9980545
-121.2645950 159.7738647 38.4130211
141.0608063 135.2370300 152.8009033
104.5373764 136.6553040 148.5171356
83.3295975 140.8472443 127.2710266
-77.4195633 161.0343323 30.4208374
-122.4581451 160.3586884 38.6255684
141.0454254 135.7177734 152.8940125
83.3329391 141.3520050 127.3600616
-77.2900696 161.3769379 32.0862160
-122.2850113 160.7500610 39.9728279
170.2957153 139.2975922 132.9609375
141.0295563 136.1986694 152.9859619
102.9705658 137.8151550 147.8286285
102.4721222 137.8747711 147.5484924
-76.1005478 161.9987183 31.7583332
-122.0525436 161.1473999 41.3325958
170.2858887 139.7864838 133.0724792
141.0275116 136.6804962 153.0708618
102.9427414 138.3101959 147.9215851
102.4648285 138.2975006 147.6311798
-75.4404221 162.5071411 32.3073082
-75.9879990 162.3582153 33.2938576
-121.9048767 161.5291595 42.5323792
170.2763672 140.2788086 133.1651154
141.0032196 137.1619720 153.1565704
170.2451630 140.7700195 133.2641602
140.9933624 137.6450348 153.2309265
-73.6330490 163.6859589 32.3129311
-122.9364548 162.5011902 43.8298225
-123.6247940 162.6152954 43.2713470
-124.3451157 162.7227020 42.6640739
-125.0703125 162.8087311 42.0504189
170.2238007 141.2678680 133.3256378
139.8720398 138.0985565 153.5772247
139.3176575 138.0848389 153.7142944
101.9345016 139.9138947 147.4985199
101.4495010 139.9795380 147.1771698
171.8016663 142.1625061 131.0942230
170.9742889 141.9535522 132.2924805
170.2086945 141.7661896 133.3789673
139.8693848 138.5868530 153.6322632
101.4428101 140.4765625 147.2174988
-125.4274445 163.7345581 43.7159500
-126.1020966 163.8435974 43.1342316
-126.8194733 163.9542389 42.4783669
171.7807312 142.6600342 131.1614990
-72.2191544 165.0957794 34.3256149
-126.6625443 164.3692932 43.5848007
171.7877350 143.1650543 131.1911011
-70.0109406 166.2137146 31.1289368
-70.5751953 166.0128021 32.5306931
-71.0864410 165.8153534 33.6096039
-71.6021729 165.6370239 34.6228867
-72.1233673 165.4730988 35.5760498
-126.4989700 164.7886200 44.6653748
-127.2442780 164.8828735 44.0109634
171.7700500 143.6629181 131.2625427
170.9958496 143.4669647 132.3858795
170.1901093 143.2658081 133.5304718
140.9471130 140.0784149 153.5118713
140.3857727 140.0613403 153.6574707
170.2086487 143.7711029 133.5475922
140.9474335 140.5677795 153.5561371
-68.7948380 167.3490448 31.5767250
-127.6460342 165.8588104 45.4008255
-128.3529358 165.9793701 44.7600822
-129.0678558 166.1012115 44.0873909
170.2057495 144.2755280 133.5756226
140.9508362 141.0587769 153.5933838
105.4449997 142.4726563 149.6335297
84.2794418 146.7200775 129.1712646
83.7770462 146.9018555 128.2754974
170.2125397 144.7853546 133.5753326
140.9408722 141.5500946 153.6258240
105.4618454 142.9662323 149.6599579
-67.5498962 168.5046082 31.7154541
170.1958923 145.2894592 133.5912781
139.8239441 142.0068970 153.9272766
105.4602203 143.4686432 149.6713104
-66.8912888 169.0905151 31.5784569
-67.4547958 168.8670197 33.0133820
-130.0914612 167.6254730 45.6414108
170.2023315 145.8039093 133.5640717
139.8197174 142.5014496 153.9408417
139.2545624 142.4888000 154.0717926
138.6851501 142.4733124 154.2009430
106.9821625 143.7974091 150.4212952
106.4800949 143.8535156 150.1826019
105.9745941 143.9099274 149.9356384
105.4485245 143.9718781 149.6709747
-67.3677673 169.2355194 34.2874260
-129.9163208 168.0698395 46.6004524
-130.6275787 168.1852417 45.9384651
170.2115631 146.3194580 133.5232849
139.8232574 142.9984283 153.9520874
139.2584686 142.9839478 154.0830536
138.6849823 142.9675446 154.2132721
122.0586395 143.1001740 155.2989349
107.4794083 144.2480927 150.6514282
-131.2130737 168.7498932 46.1516647
170.2246399 146.8376465 133.4694061
139.8048248 143.4852295 153.9686737
136.4793091 143.4332275 154.6008301
135.9168243 143.4257507 154.6914673
135.3740387 143.4181671 154.7745514
134.8458862 143.4209595 154.8493805
122.5632782 143.6208496 154.9042664
122.1579285 143.5299835 155.4865723
121.7560806 143.4422302 156.0575104
109.5047226 144.5422211 151.5433960
109.0307617 144.5843201 151.3406677
108.5074997 144.6425323 151.1128387
107.9983597 144.6924744 150.8853607
107.4797058 144.7490540 150.6473694
84.3011780 149.3778687 128.8521423
-66.1475067 170.4051056 34.2382774
-131.0419006 169.1941833 47.0696526
170.2568359 147.3658447 133.3833160
139.8234558 143.9882965 153.9736481
122.9978256 144.1611786 154.8988953
122.6255798 144.0603485 155.3170776
122.2445679 143.9593201 155.8279572
109.5255966 145.0390015 151.5387115
84.3145981 149.9172363 128.7448883
-65.5643463 170.9941559 34.2619553
-66.0745468 170.7993469 35.3681412
-130.9332581 169.6344147 47.8975830
-131.6536407 169.7489471 47.2350693
170.2586517 147.8842163 133.3357697
139.8162231 144.4816589 153.9772034
137.5910797 144.4382935 154.4221802
137.0395508 144.4301300 154.5169373
133.1897125 144.4069824 155.0436554
111.5688705 145.3532104 152.3288879
111.0573883 145.3967896 152.1345978
110.5534668 145.4409790 151.9405518
110.0538177 145.4863892 151.7416077
109.5348663 145.5400848 151.5270081
84.3242264 150.4614105 128.6194763
-66.0013046 171.1950378 36.4371338
-130.8095703 170.0764618 48.7254677
170.3150177 148.4207001 133.2182007
169.5055237 148.2172546 134.3068542
168.7205811 148.0268402 135.3435822
133.1923065 144.8999023 155.0334320
126.1847076 145.0100555 155.1949463
111.5873642 145.8510284 152.3023376
111.0862427 145.8959808 152.1114197
110.5681000 145.9441528 151.9159088
110.0430527 145.9960938 151.7164154
109.4952774 146.0616302 151.4950714
84.3424988 151.0036926 128.4970703
168.7344971 148.5466766 135.2789917
133.1967468 145.4030762 155.0165253
129.9431610 145.4233856 155.1773071
126.7239227 145.4931488 155.1975403
126.1860809 145.5096283 155.1760559
111.5941772 146.3532257 152.2661285
111.0834885 146.4044647 152.0684204
84.3465652 151.5559082 128.3327026
83.8748016 151.7447205 127.4188614
-64.8241043 172.4057465 36.2761726
-132.0247650 171.2297211 48.9660797
168.7945099 149.0848846 135.1337738
130.4364929 145.9651947 155.1431274
125.6690903 146.0206757 155.1341858
111.5951233 146.8596344 152.2168732
111.0822983 146.9126129 152.0174255
104.9685135 147.5685730 149.3093109
104.4726715 147.6284637 149.0399628
103.9688721 147.6916504 148.7590485
103.4527054 147.7610016 148.4634705
168.7815247 149.6042328 135.0528107
132.1328125 146.4141235 155.0359955
131.5623016 146.4619598 155.0713043
130.9990082 146.4710236 155.1006775
130.4790497 146.4150391 155.1421967
125.6757813 146.5233459 155.1139221
125.1554565 146.5357971 155.0853424
124.6065826 146.5641785 155.0487061
124.0706253 146.5733337 155.0058136
114.6710434 147.1095428 153.2309418
114.1516266 147.1544189 153.0688477
113.6454010 147.1956482 152.9140320
113.1367188 147.2355652 152.7677765
112.6506195 147.2792358 152.6330566
104.9690018 148.0800018 149.2749176
-63.6104927 173.6486053 35.7934723
113.2028809 147.6987762 152.7715454
110.5603561 147.9685059 151.8435974
102.9500961 148.8533630 148.0818024
102.4327316 148.9308319 147.7726593
-63.5498619 174.0763397 36.7318001
-134.5030823 173.2350769 48.3258438
-135.2585907 173.4144897 47.4960747
121.4487000 147.6938171 154.6337280
119.3507996 147.8098602 154.2978210
118.8366852 147.8324890 154.1995850
118.3171005 147.8648376 154.0959778
113.2053070 148.2387085 152.7394257
110.5802765 148.4695129 151.8131409
102.3963928 149.3990936 147.7381134
-62.9749222 174.7109833 36.5138588
-63.4883308 174.5135498 37.6496277
-134.4262390 173.6627045 49.0844421
113.1447220 148.7560577 152.6751709
110.5266190 148.9883728 151.7470703
103.3705978 149.6054535 149.2396393
102.3957062 149.9790192 147.6974182
84.4278870 154.3160706 127.5149612
-62.3920212 175.3544312 36.2123299
113.2061462 149.2732239 152.6370697
103.9963531 150.2991180 148.5727692
103.4827881 150.3882446 148.2583008
102.9415741 150.4576111 147.9419556
102.4516602 150.4821320 147.6230774
84.4267731 154.8910980 127.2677689
-61.7562408 176.0143890 35.7426910
-62.3361855 175.7907410 37.0842361
-135.6757813 174.8693237 49.0131149
-136.4295654 175.0358887 48.1861458
169.7743378 152.5170441 133.1573639
168.9706268 152.3035278 134.2528687
168.1857910 152.1022186 135.3093567
167.4724731 151.9319305 136.2294312
113.2045898 149.7803192 152.5633850
110.6018295 150.0044556 151.6183319
-135.5469971 175.3406067 49.7439957
167.4994965 152.4692688 136.0894318
113.1906891 150.2752991 152.4823608
112.6495438 150.3325195 152.2897491
112.1357269 150.3760834 152.1157837
111.6201096 150.4250488 151.9373932
111.1214752 150.4668579 151.7548218
110.6117477 150.5160828 151.5568848
85.3765945 155.6274109 128.6982574
-61.1064987 177.1238861 36.2998619
-135.4678497 175.7987061 50.3984108
-136.1687775 175.9424286 49.6875916
167.5639954 153.0245056 135.8875275
122.5495758 150.1806030 154.5671997
122.0097733 150.1923981 154.5235748
121.4871063 150.1665497 154.4707489
120.9329910 150.2019043 154.3796082
112.1399002 150.8860779 152.0581207
111.6323166 150.9350739 151.8785095
111.1292572 150.9820251 151.6919403
110.6147614 151.0337067 151.4925079
110.0892792 151.0897064 151.2840729
109.5780029 151.1490326 151.0733643
86.3704071 155.7973633 130.2788849
85.8852463 155.9922485 129.3963318
85.3925018 156.1954498 128.4811249
-61.0442009 177.5233765 37.0531769
-136.8202209 176.5616150 49.5559311
167.6317596 153.5801392 135.6748047
120.9079590 150.7649536 154.3036652
112.1431503 151.4027710 151.9950256
109.5972061 151.6558228 151.0051422
86.3657608 156.3729401 130.0376587
-60.9722443 177.9870453 38.0952606
123.5947571 151.1557770 154.5471039
120.9701920 151.2772980 154.2292786
109.6134415 152.1748199 150.9247284
87.3584137 156.5617523 131.4974365
86.8792267 156.7416687 130.6889954
86.3824158 156.9425507 129.8350983
85.9045029 157.1378174 128.9307709
-60.9478035 178.4127197 38.7942047
-136.6345062 177.4923401 50.8646431
123.6210327 151.6566315 154.4810028
120.9851990 151.7895355 154.1446686
110.1147690 152.6408081 151.0437317
109.6127090 152.6894073 150.8327637
87.3699875 157.1315308 131.2283630
85.9827271 157.6647339 128.6221008
-60.8871155 178.8509216 39.3844528
123.6389694 152.1705475 154.4048920
121.0017166 152.3014069 154.0610962
112.1767731 152.9553680 151.7509308
110.6528320 153.1036224 151.1663513
-60.8635101 179.3075256 40.1262245
123.6485291 152.6937714 154.3171844
123.1271057 152.7150269 154.2632294
122.6081543 152.7298737 154.2048950
122.0938339 152.7326813 154.1435242
121.5252533 152.7926788 154.0559692
