-110.7147903 104.9155197 168.2068634
-113.3095779 104.3870087 170.2374420
-112.9570160 104.3674927 170.2229919
-111.6065521 104.4053040 169.8637390
-111.2607880 104.4138412 169.7217102
-110.9218979 104.4225845 169.5475922
-110.5926514 104.4544830 169.3221130
-110.2788696 104.5028610 169.0537567
-109.9697418 104.5557327 168.7396545
-108.9129944 104.2146759 168.7005157
-108.8382111 103.7140045 169.5154266
-108.5150070 103.7724991 169.1803589
-108.1917953 103.8587646 168.7621918
-116.2436523 102.8056717 171.9744110
-115.8602371 102.7687454 172.1253357
-115.4834290 102.7449570 172.2511444
-115.1028442 102.7230530 172.3623352
-117.2778244 102.4847031 171.9754486
-107.3448334 102.6301117 170.0899506
-117.5875626 102.1031799 172.2326050
-117.2043686 102.0623627 172.4353333
-107.3003540 102.1987000 170.5914001
-106.9973221 102.2466125 170.2518311
-106.6835251 102.3094788 169.8274384
-106.3730087 102.3722763 169.3642273
-106.0547943 102.4642410 168.8201141
-117.9173965 101.7470093 172.4432373
-106.0072632 102.0108261 169.4395752
-117.8501587 101.3483429 172.8575287
-105.9562073 101.5890350 169.9689331
-105.6335754 101.6786804 169.5212097
-105.2697296 101.3435822 169.5106659
-118.5197830 100.6445465 173.1448669
-105.2501068 100.9033356 169.9785156
-104.9333954 100.9930191 169.4963074
-104.5901794 100.6594086 169.4176941
-119.1768570 99.9529266 173.2941895
-104.5718460 100.2458267 169.8214417
-104.2591476 100.3277893 169.3293610
-119.1242676 99.5718460 173.5641632
-119.0952377 99.2036591 173.8133545
-103.8658371 99.6276855 169.4585114
-119.7902908 98.5481262 173.8101349
-103.1834869 98.6187744 169.3003540
-120.5514908 97.9133987 173.6424713
-103.1713638 98.2303162 169.5799561
-120.5157089 97.5467834 173.8301086
-120.8894424 97.2316589 173.7059631
-120.4846420 97.1841660 174.0007629
-102.4815598 96.8991699 169.3641510
-121.2160950 96.2087631 173.8353119
-102.4682922 96.5392303 169.5192719
-121.1958237 95.8553696 173.9471741
-102.4572220 96.1758270 169.6713409
-121.1751022 95.5026779 174.0453796
-121.5555573 95.1994019 173.8351593
-121.1509628 95.1520844 174.1335144
-101.8080292 94.9116974 168.8983002
-101.8094940 94.5636063 168.9619751
-101.8092804 94.2158737 169.0172424
-122.3128204 93.5708923 173.3626556
-121.8951263 93.5223312 173.7415924
-101.8028183 93.8728409 169.0477905
-122.3057480 93.2315140 173.3786316
-121.8894806 93.1837616 173.7467651
-101.8034668 93.5304031 169.0755920
-122.3038788 92.8938751 173.3804321
-121.8891068 92.8472443 173.7406311
-101.8000183 93.1912155 169.0785522
-122.2982330 92.5571823 173.3737793
-121.8936844 92.5125732 173.7201691
-101.8000641 92.8528137 169.0706635
-122.3026733 92.2240677 173.3372498
-121.8997803 92.1788635 173.6901703
-101.8060608 92.5156174 169.0532074
-122.3138123 91.8928146 173.2849121
-121.9105072 91.8458405 173.6541290
-101.8143387 92.1810608 169.0156403
-101.8185120 91.8498077 168.9450378
-121.9326401 91.1853409 173.5258942
-101.8312225 91.5200653 168.8682709
-121.9367981 90.8585129 173.4414215
-101.8398895 91.1921387 168.7652130
-121.9565125 90.5332794 173.3293762
-101.8489914 90.8649673 168.6511993
-122.3863220 90.2589569 172.8205872
-121.9639435 90.2082520 173.2187653
-122.4015198 89.9345016 172.7048492
-121.9837799 89.8829422 173.1027069
-102.5148163 89.7753296 169.4308167
-102.1867294 89.8291016 168.8300323
-102.5202637 89.4523697 169.2490997
-121.2623215 88.8459549 173.2764435
-102.5317307 89.1314240 169.0642548
-121.6900253 88.5588608 172.7964935
-121.2840576 88.5271606 173.1020966
-121.7326355 88.2369003 172.6008606
-121.3273697 88.2073822 172.9078979
-103.1568527 88.4010849 169.6523438
-102.8609619 88.4458694 169.1713562
-121.3655701 87.8851700 172.7148590
-103.1781387 88.0831528 169.4388123
-120.5843353 87.5075455 173.0959625
-121.0549545 87.2090378 172.5792847
-120.6301498 87.1888046 172.8673248
-120.6781311 86.8708496 172.6308746
-103.8500214 87.0496292 169.6426544
-103.8418198 86.7373962 169.3885040
-104.5601044 86.3563919 169.9390717
-104.2137909 86.3893051 169.5381470
-103.8410263 86.4599075 169.2018890
-104.5650558 86.0410233 169.6098785
-104.2100220 86.0840454 169.2534027
-119.2335892 85.5387497 172.5615082
-104.5781708 85.7261887 169.2868195
-104.1850739 85.7564316 168.9359741
-119.2823181 85.2342682 172.2271729
-105.9030914 84.9995193 170.0724792
-105.6020508 85.0349121 169.7351532
-105.2821274 85.0672989 169.3647003
-105.9426422 84.6921463 169.7116241
-119.4849396 84.3099289 171.1264648
-118.8589706 83.6464767 170.7786407
-118.4422913 83.6412277 171.0253601
-118.0363693 83.6270370 171.2394562
-106.7287140 83.7474442 169.1790009
-118.1130676 83.3218765 170.8007355
-106.7816238 83.4620819 168.7130280
-118.2086487 83.0005951 170.3157959
-117.7966843 83.0024033 170.5313873
-117.4152069 82.9941177 170.7108765
-117.5057373 82.6811829 170.2176361
-117.2047882 82.3779907 169.8725891
-116.8251953 82.3811111 170.0290070
-108.2348022 82.4981079 168.3963165
-107.9318237 82.5142059 168.0769348
-107.6157227 82.5260391 167.7190247
-116.9174271 82.0652924 169.4546204
-108.3193817 82.2106018 167.7687225
-109.0502853 81.8806152 167.7089691
-108.7173615 81.8902512 167.3780212
-108.4005203 81.9031219 167.0484772
-115.3694687 81.1629715 168.0550385
-115.0101166 81.1652603 168.1431580
-114.6542511 81.1641464 168.2056885
-114.3022690 81.1638641 168.2410278
-111.1658707 81.2287140 167.6587524
-110.8382111 81.2406693 167.4807434
-110.5259933 81.2439651 167.2524109
-110.2308960 81.2436447 166.9912567
-109.9162827 81.2599258 166.7457733
-111.2878036 80.9061127 166.8065643
119.8980484 -81.2277451 159.2069244
120.9572525 -81.1824036 159.3123932
118.7600174 -81.5376282 159.7443237
119.0863190 -81.5212021 159.8718109
119.4312057 -81.5168915 160.0017853
119.7768173 -81.5068588 160.0853271
120.8405151 -81.4605789 160.2389832
121.2005768 -81.4350281 160.2349396
121.5607758 -81.4196777 160.1954651
121.9246292 -81.4120712 160.1327057
122.3054657 -81.4064331 160.0446167
122.6929169 -81.3975830 159.9222107
117.6727448 -81.8489075 159.9143982
123.7043152 -81.6719971 160.2921906
124.0891724 -81.6801071 160.0839386
117.2324295 -82.1618195 160.4326324
117.5767975 -82.1377945 160.6571045
123.5679779 -81.9606171 161.0839691
123.9594727 -81.9448395 160.8692932
124.3538895 -81.9336166 160.6809235
116.1700668 -82.5194626 160.3362579
115.7632828 -82.8258896 160.6540833
116.0927200 -82.7868423 160.9215240
124.9400711 -82.4741669 161.6116486
125.3341827 -82.4729919 161.3835754
125.6417465 -82.7474594 161.7480316
115.3102188 -83.3918610 161.4886169
125.5357056 -83.0307465 162.3581696
125.9732208 -83.1115875 162.2737122
115.2532806 -83.6544724 161.9673462
114.8661194 -83.9658356 162.1328735
115.2096329 -83.9277267 162.4174042
127.0017395 -83.6785583 162.2290344
127.4512939 -83.6974106 161.8269501
114.4772873 -84.2858887 162.2656403
114.4330521 -84.5628052 162.6602478
127.6882935 -84.2596817 162.5514832
113.7379684 -84.9500122 162.4860535
113.3866196 -85.2877731 162.5283661
113.7279434 -85.2267075 162.8187408
128.3768158 -84.8699188 162.7673798
128.2896881 -85.1666260 163.2115936
112.6458511 -85.9831619 162.4822845
113.0248642 -85.8922348 162.8191071
128.2163696 -85.4461823 163.6077118
128.6537933 -85.4619522 163.2383575
112.2506714 -86.3082657 162.3731079
112.2964478 -86.5900803 162.7178345
128.9423065 -86.0740204 163.6322784
112.2873077 -86.8695145 162.9917145
111.9462967 -87.2280045 162.9208527
112.2877045 -87.1731110 163.2881927
111.5908508 -87.5795059 162.8061066
129.6095581 -87.3050003 164.1148071
111.5694656 -88.1756287 163.2340851
129.5549774 -87.6034393 164.3984833
111.5439606 -88.4805145 163.4231110
129.5159607 -87.8982773 164.6560669
129.9639893 -87.9298019 164.2642517
110.9264984 -88.9184799 162.7939301
129.4654694 -88.1957321 164.9127045
110.5996475 -89.2901077 162.5386047
110.9111023 -89.2222443 162.9860077
129.4245758 -88.4930496 165.1468658
129.8680878 -88.5274200 164.7687988
110.5750046 -89.5939484 162.7155762
110.8914642 -89.5264282 163.1680450
110.8697586 -89.8330536 163.3288727
110.2253876 -90.2859344 162.5568542
130.2064972 -89.4827881 164.9491272
110.2142410 -90.5961227 162.7108002
130.1672363 -89.7923203 165.1148224
130.6110687 -89.8403549 164.6902466
109.8436508 -91.9436493 162.6051483
110.1740417 -91.8621368 163.1169281
130.9401093 -91.1419754 164.7739258
131.4508362 -91.2157440 164.2039642
109.8413696 -92.2628326 162.6969299
110.1738434 -92.1799393 163.2082367
110.1582108 -92.5009384 163.2684174
110.1467438 -92.8245392 163.3160706
110.1471252 -93.1488190 163.3600922
110.1485748 -93.4759369 163.3850250
110.1481171 -93.8063126 163.3882751
110.1404190 -94.1418457 163.3667755
110.1443863 -94.4748764 163.3555908
110.1296463 -94.8150940 163.3164520
110.4710922 -94.7233810 163.8231201
110.7740250 -94.6474228 164.2585144
110.7850571 -94.9809418 164.2296600
130.0447998 -94.5757370 166.0752258
130.0604095 -94.9128113 166.0314789
130.0753632 -95.2494354 165.9753571
130.1019135 -95.5939026 165.9016113
129.2468872 -95.8207321 166.5971375
110.8369446 -97.0544662 163.7074738
129.2821808 -96.1686859 166.4981842
110.8368607 -97.4157867 163.5659180
111.1695633 -97.3199768 164.0314789
111.4759750 -97.2410278 164.4462891
129.3107452 -96.5197067 166.3880463
111.4846497 -97.5995560 164.3004913
111.1764450 -98.0506287 163.7262726
111.4985352 -97.9594955 164.1506348
129.3971100 -97.5782089 165.9351196
111.5239487 -98.6970596 163.7853699
111.8592453 -98.6011429 164.2183838
112.1867676 -98.5109634 164.6250610
129.4262390 -97.9347610 165.7474976
112.2181854 -98.8730850 164.4113464
112.2487717 -99.2373352 164.1824188
128.6176605 -98.5368958 166.1096954
129.0599670 -98.6016159 165.7276154
112.9244003 -99.8303452 164.4938965
127.8912888 -99.1833344 166.2957764
128.2874451 -99.2280884 165.9948578
112.9607010 -100.2019806 164.2283936
127.9344559 -99.5525818 166.0526581
113.5945206 -100.4434967 164.6845551
127.1931534 -99.8464127 166.3609009
127.5739441 -99.8789825 166.0965424
113.6361618 -100.8206329 164.3839264
127.2402954 -100.2183990 166.0866852
113.9804459 -101.1372528 164.4065857
114.2902832 -101.0735474 164.7489624
127.2897339 -100.6051331 165.7762909
115.6612778 -101.6033325 165.3017273
125.0474091 -101.1817856 166.5361481
125.4360199 -101.2075958 166.3596649
125.8252563 -101.2277069 166.1595612
126.2102203 -101.2518768 165.9325867
126.6164703 -101.2972870 165.6580811
127.0298615 -101.3551788 165.3625031
115.7113342 -101.9946747 164.9474487
116.0893173 -102.3320313 164.8418579
116.4090500 -102.2814865 165.0919037
116.4654007 -102.6810455 164.6896515
117.4993591 -102.9407196 164.9382019
117.8191986 -102.9066315 165.1160431
118.1422882 -102.8649597 165.2866974
118.4623260 -102.8317795 165.4304810
124.5258865 -102.7103653 165.3294983
118.5253754 -103.2282257 165.0017700
124.6053314 -103.1482468 164.8572083
118.5974197 -103.6490326 164.5038300
118.9225464 -103.6164856 164.6457825
119.2620239 -103.5804977 164.7758789
119.3384628 -103.9855194 164.2480927
119.4134216 -104.4478760 163.6213379
119.7704086 -104.4174957 163.7597961
120.1276703 -104.4031906 163.8716736
120.4762802 -104.4004898 163.9389038
119.5068207 -104.9560623 162.9202728
-114.0685806 103.7176056 171.2123260
-113.3427124 103.6920166 171.2450256
-112.6447449 103.6845093 171.1971588
-111.9814224 103.6898727 171.0754700
-111.3026352 103.7099457 170.8598022
-110.6340790 103.7410126 170.5425415
-109.9910812 103.7795029 170.1432800
-109.3597412 103.8861618 169.5892029
-114.6036072 102.9006577 172.2242584
-113.9090729 102.8858032 172.3016968
-113.1914673 102.8733826 172.3177948
-109.8337479 102.9602737 171.3328247
-109.2033539 102.9997559 170.9062347
-108.5551910 103.0676422 170.3394012
-107.9261398 103.1856842 169.6895142
-116.6889648 102.2268448 172.4682922
-115.9457474 102.1771469 172.7565918
-115.1976852 102.1390381 172.9737854
-114.4859467 102.1168747 173.1019287
-113.7868729 102.0992889 173.1639252
-113.0753632 102.0869217 173.1674957
-109.7089157 102.1718597 172.2479706
-109.0644455 102.2114105 171.8670349
-108.4146423 102.2567368 171.3875427
-107.7896576 102.3284149 170.8227539
-117.3002853 101.4924698 172.9549866
-116.5668182 101.4380875 173.2873840
-115.8363113 101.4059601 173.5276794
-108.3033142 101.4864044 172.1914368
-107.6717682 101.5401077 171.6783295
-107.0684891 101.6056519 171.0940552
-106.4591827 101.6927948 170.3609314
-117.9568634 100.7824249 173.2987366
-117.1877441 100.7225800 173.6768799
-116.4605713 100.6788483 173.9608002
-115.7411270 100.6483994 174.1670685
-108.2137604 100.7244797 172.8583374
-107.5745697 100.7784271 172.3887787
-106.9617920 100.8405457 171.8447723
-106.3460388 100.9108582 171.1873779
-105.7302399 101.0095367 170.4126434
-118.6347427 100.0904541 173.4908295
-117.8660355 100.0260696 173.9132080
-117.1053009 99.9773941 174.2543488
-106.8737488 100.0841217 172.4636230
-106.2503586 100.1540375 171.8557281
-105.6371613 100.2345505 171.1378326
-105.0428925 100.3429947 170.3172150
-118.5533829 99.3441620 174.0312347
-117.7903824 99.2893982 174.4258575
-117.0315628 99.2403259 174.7408600
-106.8045044 99.3516617 172.9651947
-106.1758652 99.4153137 172.4031982
-105.5544815 99.4879837 171.7385712
-104.9651337 99.5705261 170.9877014
-104.3679352 99.6892700 170.1000977
-119.2276306 98.6684875 174.0707397
-118.4849243 98.6133575 174.4987488
-105.4886856 98.7528381 172.2320557
-104.8850937 98.8369751 171.5137634
-104.3036499 98.9273682 170.6911316
-103.6808167 99.0751572 169.6622467
-119.9448318 98.0229340 173.9868774
-119.1604843 97.9490280 174.4907227
-118.4237671 97.8930588 174.8804474
-105.4285812 98.0279617 172.6282959
-104.8272400 98.1070404 171.9609070
-104.2406921 98.1910324 171.1839447
-103.6372375 98.3098679 170.2241364
-119.8760147 97.2988892 174.3527832
-104.1812744 97.4720078 171.5747070
-103.5842590 97.5733032 170.6752625
-102.9851532 97.7086029 169.6654968
-120.6422501 96.6710358 174.0845337
-119.8339233 96.5902710 174.6391296
-104.1363373 96.7560730 171.8964233
-103.5330811 96.8552551 171.0316772
-102.9490662 96.9718475 170.0696411
-120.5964813 95.9636078 174.3306732
-119.8067932 95.8926392 174.8544922
-104.1024704 96.0535812 172.1407776
-103.4944534 96.1488953 171.3036957
-102.9173737 96.2544098 170.3787689
-120.5657120 95.2674179 174.5157471
-119.7804565 95.1983948 175.0228882
-104.0729370 95.3587036 172.3155060
-103.4604034 95.4509201 171.5050659
-102.8860474 95.5490341 170.6180115
-102.2895279 95.6779938 169.5746155
-121.3255844 94.6551895 174.0933228
-120.5393677 94.5770187 174.6534576
-119.7532654 94.5095978 175.1493073
-102.8608170 94.8545990 170.7897949
-102.2800140 94.9741974 169.7637329
-121.3158951 93.9706955 174.1772766
-120.5339203 93.8951721 174.7290649
-119.7385483 93.8285217 175.2192535
-102.8437805 94.1665192 170.9019623
-102.2760620 94.2805023 169.8948975
-121.2988358 93.2907867 174.2145691
-102.8331146 93.4855270 170.9548798
-102.2653122 93.5976639 169.9537964
-121.3039017 92.6193771 174.1943970
-102.8298950 92.8121643 170.9463501
-102.2631531 92.9220581 169.9566193
-121.3096161 91.9528046 174.1334534
-102.8392639 92.1437988 170.8908386
-102.2683334 92.2529526 169.9024048
-121.3236771 91.2924805 174.0184937
-102.8526459 91.4826050 170.7735596
-102.2829666 91.5915451 169.7825623
-121.3446579 90.6379013 173.8510284
-102.8759460 90.8284225 170.5965881
-102.3080750 90.9370422 169.5993958
-121.3806610 89.9887924 173.6293030
-102.9057159 90.1793594 170.3625183
-102.3314133 90.2870102 169.3520355
-121.4286575 89.3428345 173.3595123
-120.6315918 89.2732544 173.9347839
-119.8406982 89.2072525 174.4458313
-104.1319427 89.3612061 171.7461853
-103.5213165 89.4428711 170.9568787
-102.9507980 89.5375061 170.0917206
-120.6736908 88.6358948 173.6249695
-119.8742294 88.5696945 174.1534729
-104.1684418 88.7202454 171.4279785
-103.5600128 88.8050690 170.6190796
-102.9858856 88.9003448 169.7276154
-120.7401276 87.9978790 173.2533417
-119.9379425 87.9351959 173.7867432
-104.2222824 88.0885315 171.0693207
-103.6143036 88.1750641 170.2324677
-119.9925232 87.3070679 173.3825378
-104.2825470 87.4616089 170.6376038
-103.6614456 87.5434723 169.7815552
-120.0592804 86.6822510 172.9201508
-119.2783890 86.6264801 173.3990784
-118.5452423 86.5734253 173.7831573
-105.5382080 86.6988144 171.5284576
-104.9472046 86.7644806 170.8837585
-104.3451080 86.8366928 170.1369781
-119.3506775 86.0140762 172.8749390
-118.6086121 85.9564819 173.2935486
-105.6129684 86.0816498 171.0040741
-105.0229721 86.1485748 170.3243408
-118.7041550 85.3439331 172.7082062
-117.9415970 85.2953033 173.0807800
-117.1851120 85.2550888 173.3815613
-106.9371872 85.3523712 171.6102905
-106.3039398 85.4085770 171.0509949
-105.6903076 85.4717407 170.3966064
-105.0888062 85.5372162 169.6949921
-119.5796356 84.7797928 171.5439453
-118.8097992 84.7424927 172.0390015
-118.0352402 84.6913528 172.4515228
-117.2678680 84.6465836 172.7848663
-107.0219574 84.7475891 170.9968262
-106.3925552 84.8033752 170.3983307
-118.9395294 84.1285782 171.2840271
-118.1430283 84.0927811 171.7313690
-117.3577576 84.0518646 172.1044617
-116.6377563 84.0089951 172.3628235
-115.9124146 83.9803085 172.5666962
-108.3752365 84.0526276 171.2378845
-107.7363052 84.0961304 170.7904053
-107.1174698 84.1447296 170.2601318
-106.4916840 84.2025604 169.6434326
-117.4915695 83.4542770 171.2939148
-116.7482147 83.4198456 171.6002655
-116.0149384 83.3880386 171.8364868
-108.4860611 83.4608002 170.4904175
-107.8415451 83.5053406 169.9869690
-107.2304306 83.5620880 169.4273987
-116.8962555 82.8293457 170.7052307
-116.1438293 82.8057632 170.9750061
-115.4042587 82.7750854 171.1690826
-114.6912613 82.7543335 171.2895203
-109.9051819 82.8032990 170.4227600
-109.2626572 82.8317719 170.0511475
-108.6072235 82.8759308 169.5950928
-107.9765091 82.9263000 169.0455933
-107.3583832 82.9818649 168.4215698
-116.3026352 82.2229691 169.9500427
-115.5516663 82.2041626 170.1780548
-114.8288422 82.1802139 170.3279572
-110.0452881 82.2245255 169.4327240
-109.4130783 82.2671509 169.0437012
-108.7585526 82.3152695 168.5237427
-115.0094452 81.6267090 169.1631165
-114.3111954 81.6119232 169.2627716
-113.5929718 81.6027374 169.2807312
-112.8829727 81.6030426 169.2314758
-112.2025604 81.6081085 169.1023560
-111.5232620 81.6215668 168.8907776
-110.8540421 81.6496735 168.6108398
-110.2222214 81.6771545 168.2297058
-109.5939026 81.7141724 167.7692413
-113.8052826 81.0292969 167.8716431
-113.0924835 81.0384293 167.8309631
-112.3956299 81.0483475 167.7146301
-111.7053604 81.0692520 167.5055542
120.3703842 -81.3518219 159.7474365
118.1241837 -81.9621124 160.5867615
118.7846069 -81.9182129 160.8943176
119.4590149 -81.8780670 161.1149445
120.1627960 -81.8453140 161.2428894
120.8654938 -81.8250198 161.3081055
121.5869675 -81.8107986 161.2646179
122.3216476 -81.8100586 161.1439514
123.0682220 -81.8083344 160.9275513
116.6214218 -82.6000519 161.0168610
117.2877808 -82.5325241 161.4659119
117.9530563 -82.4655151 161.8126373
118.6154480 -82.4144211 162.0942993
119.2930069 -82.3704224 162.2870331
119.9929199 -82.3364868 162.4049988
120.6999512 -82.3152390 162.4819641
121.4033585 -82.3059006 162.4837799
122.1400070 -82.3028793 162.3813477
122.8792801 -82.3140945 162.2134705
123.6079407 -82.3361435 161.9707336
124.3782806 -82.3408585 161.6234131
115.8403397 -83.1985550 161.6238708
116.4813385 -83.1185608 162.0935364
117.1499939 -83.0486526 162.5028534
121.9932556 -82.8214188 163.4065247
122.7302856 -82.8250122 163.2674255
123.4530869 -82.8403397 163.0612793
124.2032928 -82.8718109 162.7799225
124.9891510 -82.8927917 162.3911896
115.7132187 -83.7292404 162.5575562
116.3644028 -83.6557541 163.0048523
117.0271988 -83.5870667 163.3644409
121.8756561 -83.3595657 164.2552185
122.6052094 -83.3606110 164.1493835
123.3300323 -83.3707886 163.9790039
124.0692215 -83.3896790 163.7272644
124.8383636 -83.4241562 163.4057159
125.6147003 -83.4483566 162.9972687
126.4192505 -83.4935150 162.4585571
114.9560776 -84.3610840 162.8710327
115.6044846 -84.2790375 163.3575592
124.7134399 -83.9611206 164.2691650
125.4692459 -84.0000153 163.9073181
126.2502899 -84.0536423 163.4313049
127.0785370 -84.1060181 162.8205566
114.2152023 -85.0099564 163.0574799
114.8638000 -84.9227142 163.5910797
115.5180969 -84.8440857 164.0628204
124.6121902 -84.5127487 165.0093689
125.3652039 -84.5432892 164.6758423
126.1254272 -84.5914459 164.2680054
126.9280701 -84.6529083 163.7351990
127.7640533 -84.7018280 163.0894012
113.5258713 -85.6749649 163.1374054
114.1431808 -85.5829697 163.7009888
124.5203247 -85.0803528 165.6520691
125.2692566 -85.1060791 165.3513184
126.0299683 -85.1434479 164.9803009
126.8208847 -85.1997070 164.5021667
127.6206055 -85.2672119 163.9203644
112.8225708 -86.3561707 163.0890808
113.4506226 -86.2527084 163.7113037
114.0688629 -86.1623383 164.2833557
124.4392090 -85.6562195 166.2196045
125.1818924 -85.6804962 165.9532776
125.9341278 -85.7135468 165.6178436
126.7204285 -85.7601089 165.1722107
127.5129852 -85.8236694 164.6299591
128.3243103 -85.8894806 163.9980774
112.7670670 -86.9419098 163.6414795
125.8625183 -86.2906342 166.1587372
126.6412735 -86.3349304 165.7506866
127.4243774 -86.3924255 165.2614594
128.2185516 -86.4601135 164.6624298
129.0702209 -86.5293579 163.9357300
112.0751343 -87.6422958 163.4523621
112.6972885 -87.5315247 164.1143341
125.7936783 -86.8783340 166.6362000
126.5675888 -86.9155121 166.2546387
127.3521423 -86.9678574 165.7992096
128.1269073 -87.0351944 165.2474823
128.9618988 -87.1109467 164.5527191
112.0220337 -88.2431488 163.8744049
112.6457520 -88.1304932 164.5455017
127.2831726 -87.5568390 166.2677612
128.0556946 -87.6170807 165.7475586
128.8669434 -87.6963348 165.1019135
111.3602524 -88.9722061 163.4997559
111.9728088 -88.8480682 164.2558746
112.5995560 -88.7355347 164.9183960
127.2255707 -88.1529922 166.6767883
127.9965744 -88.2092896 166.1837311
128.8011780 -88.2851257 165.5684204
111.3242416 -89.5826721 163.8512268
128.7462006 -88.8828201 165.9685669
129.5948792 -88.9635239 165.2637939
110.6899567 -90.3339691 163.3217926
111.2832184 -90.2003937 164.1371460
128.7022705 -89.4869003 166.3103333
129.5322571 -89.5705414 165.6248169
110.6592331 -90.9573212 163.5722351
111.2562408 -90.8241272 164.3797302
128.6563873 -90.0988083 166.6085358
129.4824524 -90.1833496 165.9312744
130.3364563 -90.2793808 165.1386414
110.6488190 -91.5884399 163.7753448
111.2404709 -91.4533844 164.5794678
128.6317291 -90.7188416 166.8380280
129.4516907 -90.8008118 166.1799774
130.2847290 -90.8976898 165.4098969
110.6309052 -92.2269897 163.9214325
111.2262039 -92.0903244 164.7287445
130.2528534 -91.5249023 165.6147461
131.1490326 -91.6501617 164.6506348
110.6252518 -92.8703918 164.0294800
111.2165680 -92.7346115 164.8275452
130.2292175 -92.1566238 165.7720337
131.1239319 -92.2842560 164.8106232
110.6193924 -93.5242691 164.0682678
111.2152786 -93.3859100 164.8787231
130.2256317 -92.7981720 165.8647461
131.1132202 -92.9263153 164.9116211
110.6245117 -94.1844025 164.0674744
111.2290573 -94.0411224 164.8971252
130.2197571 -93.4461212 165.9149017
131.1078186 -93.5776443 164.9506073
111.2356491 -94.7071838 164.8513794
128.5904083 -93.9222031 167.3150330
129.4112244 -94.0030060 166.6719208
130.2344971 -94.1042252 165.9012604
131.1223602 -94.2388000 164.9233398
110.6429138 -95.5294189 163.9185181
111.2516708 -95.3802872 164.7555389
128.5992432 -94.5821991 167.2726593
129.4184723 -94.6660461 166.6175842
110.6554108 -96.2216415 163.7525482
111.2757416 -96.0617294 164.6124573
111.8871231 -95.9264450 165.3814697
112.5081711 -95.8053589 166.0586395
128.6202087 -95.2528229 167.1774597
129.4464417 -95.3404846 166.5050964
111.3023834 -96.7531509 164.4152069
111.9126587 -96.6123199 165.2003784
112.5341568 -96.4876556 165.9017334
128.6378174 -95.9256134 167.0401001
111.9490585 -97.3067017 164.9679565
112.5717239 -97.1761780 165.6931763
128.6795044 -96.6164627 166.8341522
111.9902954 -98.0142365 164.6782532
112.6092911 -97.8779907 165.4159088
128.7242432 -97.3126297 166.5723724
112.6631927 -98.5852509 165.0836334
113.2676086 -98.4675903 165.7486725
113.8828201 -98.3639221 166.3168335
127.2019653 -97.8765106 167.3764191
127.9669189 -97.9351044 166.8705292
128.7847900 -98.0240936 166.2194824
112.7235489 -99.3125534 164.6602936
113.3215942 -99.1877136 165.3642426
113.9319534 -99.0765839 165.9677582
127.2557373 -98.5820541 167.0332031
128.0287170 -98.6528168 166.4863586
113.3870163 -99.9200058 164.9012451
114.0010147 -99.8003922 165.5515900
114.6429443 -99.6912918 166.1260681
115.2942963 -99.5971832 166.6155243
125.7786713 -99.1986465 167.4894562
126.5529556 -99.2480316 167.0889740
127.3244781 -99.3057938 166.6011810
114.0690918 -100.5384979 165.0310059
114.7127991 -100.4229507 165.6496277
115.3632660 -100.3228073 166.1773987
125.8531418 -99.9248886 167.0457458
126.6231689 -99.9728241 166.6179199
114.7907486 -101.1748276 165.0715942
115.4416199 -101.0630112 165.6434631
116.0772552 -100.9720917 166.1090851
116.7278290 -100.8940735 166.5028534
124.4214325 -100.5967026 167.1675415
125.1705933 -100.6238785 166.8827820
125.9341431 -100.6649857 166.5110474
126.7225342 -100.7294464 166.0258789
116.1704788 -101.7301865 165.4940491
116.8208237 -101.6376953 165.9348602
124.5054779 -101.3455353 166.5940552
116.9217148 -102.4141464 165.2257538
117.5717773 -102.3362961 165.6074371
118.2211609 -102.2664642 165.9221954
118.8874435 -102.2075958 166.1719513
119.5885696 -102.1618729 166.3599701
123.1083832 -102.0716553 166.3647766
123.8448944 -102.0933075 166.1539459
124.6145401 -102.1201324 165.8779602
118.9970093 -102.9914703 165.4032745
119.6921692 -102.9374084 165.6120758
123.2274780 -102.8567734 165.5633087
123.9676285 -102.8780289 165.3403931
119.8250275 -103.7401733 164.6752625
120.5322266 -103.7150040 164.8090820
121.2346191 -103.6925964 164.8815613
121.9529953 -103.6767197 164.8695831
122.6676636 -103.6805420 164.7552185
123.3808060 -103.7095337 164.5604858
-112.1076736 102.4871521 172.6247559
-110.7562027 102.5187073 172.2524261
-114.6918106 100.9824600 174.0656586
-113.2912674 100.9561081 174.1450195
-111.9111252 100.9565582 174.0210571
-110.5562897 100.9840240 173.6815033
-109.2416840 101.0412903 173.1210938
-115.9841080 99.5532379 174.8327484
-114.5376511 99.5031738 175.0872345
-113.1430664 99.4811096 175.1372223
-111.7638550 99.4837646 175.0007019
-110.4147034 99.5105057 174.6733246
-109.0946350 99.5604019 174.1577301
-107.7832718 99.6408234 173.4132538
-117.3152466 98.1787796 175.1773376
-115.8669662 98.1103745 175.5970764
-114.4306259 98.0692825 175.8049164
-110.3080139 98.0751953 175.3776855
-108.9860077 98.1209564 174.8971558
-107.6680603 98.1934280 174.2046814
-106.4032135 98.2927780 173.3016052
-118.7183228 96.8557205 175.1338806
-117.2253342 96.7628784 175.7458191
-115.7857056 96.7006683 176.1224060
-114.3459778 96.6596451 176.3168335
-110.2348709 96.6717987 175.8670502
-108.9085236 96.7153015 175.3988953
-107.5913315 96.7813110 174.7443085
-106.3223419 96.8730621 173.8935242
-105.0617828 96.9977417 172.7718658
-118.6537857 95.4606018 175.5341797
-117.1666260 95.3757629 176.0995178
-115.7300415 95.3173752 176.4525757
-114.2941513 95.2810364 176.6269226
-107.5381165 95.3957443 175.0878143
-106.2655258 95.4811935 174.2692719
-105.0010910 95.5980225 173.2024841
-118.6155701 94.0904770 175.7411957
-117.1326065 94.0105286 176.2812347
-115.6948853 93.9546432 176.6206512
-114.2689209 93.9205246 176.7801208
-107.5096436 94.0320358 175.2587738
-106.2346268 94.1139984 174.4618530
-104.9674072 94.2247467 173.4261932
-103.7429504 94.3703995 172.0999756
-120.1313782 92.8508911 174.9879150
-118.6059570 92.7424316 175.7752075
-117.1240158 92.6647797 176.3045654
-104.9553375 92.8747101 173.4644165
-103.7257690 93.0150986 172.1653748
-120.1480484 91.5198517 174.8584595
-118.6219635 91.4135284 175.6438141
-117.1411972 91.3376770 176.1698456
-104.9694977 91.5445938 173.3318787
-103.7400970 91.6819382 172.0407410
-120.1860657 90.2098541 174.5476532
-118.6638412 90.1034088 175.3441162
-117.1773758 90.0273743 175.8860931
-107.5479660 90.0502319 174.8572083
-106.2712250 90.1283875 174.0619659
-105.0019150 90.2337952 173.0293579
-103.7786407 90.3712463 171.7172241
-118.7285156 88.8113098 174.8783722
-117.2395172 88.7338715 175.4432068
-107.6022110 88.7561340 174.4169922
-106.3271027 88.8360367 173.6027222
-105.0605011 88.9414978 172.5493164
-118.8256454 87.5392456 174.2174225
-117.3307037 87.4581299 174.8233032
-115.8775101 87.4030838 175.2027740
-114.4479675 87.3696136 175.3823700
-113.0555267 87.3562622 175.3853455
-111.6783600 87.3590927 175.2355194
-110.3244324 87.3808823 174.9349518
-108.9985199 87.4199677 174.4679871
-107.6793060 87.4791718 173.8104858
-106.4073105 87.5603027 172.9697571
-105.1525955 87.6698380 171.8728790
-117.4500961 86.2020645 174.0012207
-115.9948044 86.1441879 174.4149017
-114.5519409 86.1083450 174.6202393
-113.1607742 86.0935440 174.6391907
-111.7782974 86.0973282 174.4960022
-110.4302826 86.1191101 174.1826782
-109.1040726 86.1588821 173.6970215
-107.7868118 86.2209778 173.0118408
-106.5164719 86.3060150 172.1245117
-116.1399536 84.9061508 173.4023132
-114.6935501 84.8674316 173.6473083
-113.2966766 84.8517609 173.6883698
-111.9124680 84.8541718 173.5478516
-110.5614548 84.8763428 173.2216949
-109.2402191 84.9182739 172.7127075
-107.9228210 84.9850311 171.9783020
-114.8792038 83.6513443 172.3954773
-113.4756699 83.6314697 172.4632721
-112.0841217 83.6347198 172.3398743
-110.7301559 83.6582336 171.9934998
-109.4153671 83.7046509 171.4367065
-113.7127151 82.4501266 170.8688965
-112.3117371 82.4493561 170.7419434
-110.9604492 82.4769821 170.3632507
118.0955048 -83.2352219 163.3721466
119.4549561 -83.1540985 163.7360840
120.8572693 -83.1048584 163.8779297
116.5506744 -84.4587860 164.2788849
117.8958817 -84.3492126 164.8450928
119.2571716 -84.2720871 165.2004700
120.6530533 -84.2206421 165.3495941
122.0891266 -84.1976013 165.2901764
123.5348663 -84.2063141 165.0153961
115.0805283 -85.7452927 164.7216492
116.3965225 -85.6103745 165.4658813
117.7466888 -85.5045242 166.0047913
119.1086273 -85.4261780 166.3389130
120.4965591 -85.3748856 166.4942474
121.9239807 -85.3482742 166.4663391
123.3644485 -85.3479004 166.2497864
113.6623993 -87.0896606 164.7493591
114.9633942 -86.9235001 165.7015076
116.2771988 -86.7920990 166.4031677
117.6235962 -86.6881714 166.9161377
118.9907608 -86.6108932 167.2493896
120.3763275 -86.5568924 167.4111481
121.7985992 -86.5265198 167.4035339
123.2287292 -86.5231476 167.2194214
124.7123032 -86.5466614 166.8262024
113.5648575 -88.2904816 165.5601196
114.8694916 -88.1286697 166.4641418
116.1860962 -87.9993439 167.1436005
117.5333023 -87.8972397 167.6426086
118.8943939 -87.8179321 167.9729919
120.2833405 -87.7619019 168.1454468
121.6996689 -87.7304916 168.1510925
123.1229858 -87.7226334 167.9902496
124.5991669 -87.7413635 167.6374969
126.0940857 -87.7922668 167.0731201
112.2332458 -89.7121735 165.0528717
113.4953384 -89.5168762 166.1720886
114.7995224 -89.3569565 167.0511932
121.6264648 -88.9546814 168.7293701
123.0452347 -88.9444504 168.5884399
124.5163422 -88.9597092 168.2643127
126.0064087 -89.0054474 167.7358551
127.5397797 -89.0883484 166.9526978
112.1783447 -90.9614716 165.5117188
113.4453430 -90.7665863 166.6149597
114.7506714 -90.6068497 167.4768982
121.5746155 -90.1983795 169.1672821
122.9881439 -90.1859970 169.0384979
124.4547958 -90.1993713 168.7321777
125.9451981 -90.2428131 168.2210541
127.4706116 -90.3210754 167.4761200
112.1524200 -92.2348099 165.8009949
113.4201965 -92.0378647 166.9003601
114.7213058 -91.8769150 167.7594604
121.5421219 -91.4602432 169.4704132
122.9585037 -91.4472580 169.3446350
127.4277344 -91.5778809 167.8266602
129.0100708 -91.7029572 166.7745972
112.1463928 -93.5330200 165.9194336
113.4124146 -93.3318558 167.0299988
114.7149963 -93.1664276 167.9049072
121.5276642 -92.7429428 169.6300659
122.9436035 -92.7284698 169.5127258
127.4113541 -92.8578796 168.0153809
128.9933777 -92.9837189 166.9679871
112.1677704 -94.8564148 165.8697357
113.4223480 -94.6488190 167.0080566
114.7226563 -94.4793625 167.8979950
116.0431595 -94.3417206 168.5784760
117.3828278 -94.2317886 169.0831146
124.4112701 -94.0420837 169.2528992
125.8993378 -94.0836945 168.7662201
127.4196625 -94.1630249 168.0354919
113.4575806 -95.9913025 166.8224487
114.7548676 -95.8151245 167.7413330
116.0720139 -95.6718903 168.4461823
117.4109802 -95.5584412 168.9663086
124.4401398 -95.3659515 169.1422577
125.9298553 -95.4108582 168.6372833
127.4532013 -95.4948578 167.8828735
113.5138016 -97.3648300 166.4473572
114.8088150 -97.1767349 167.4237976
116.1219940 -97.0272369 168.1586304
117.4566345 -96.9098434 168.6985474
118.8067169 -96.8176270 169.0672607
120.2003479 -96.7525253 169.2710571
121.6073303 -96.7116165 169.3149414
123.0234375 -96.6999741 169.1854858
124.4911652 -96.7162552 168.8659363
125.9885941 -96.7663193 168.3330688
127.5173721 -96.8586884 167.5303955
114.8872299 -98.5713654 166.9083252
116.1988220 -98.4127045 167.6934509
117.5276489 -98.2893448 168.2620544
118.8764648 -98.1940460 168.6453705
120.2677307 -98.1264267 168.8585815
121.6796417 -98.0875778 168.8944702
123.0936661 -98.0742645 168.7550659
124.5703354 -98.0968552 168.4087067
126.0735626 -98.1538086 167.8287201
116.2998276 -99.8360596 167.0023041
117.6257324 -99.7024689 167.6174927
118.9757690 -99.6040268 168.0224609
120.3642807 -99.5321274 168.2511444
121.7806396 -99.4956818 168.2716827
123.1946564 -99.4862595 168.1134338
124.6832809 -99.5153656 167.7209167
117.7618942 -101.1663742 166.6917725
119.1058655 -101.0577698 167.1417236
120.5050125 -100.9847260 167.3792725
121.9172974 -100.9466171 167.3990479
123.3373795 -100.9461212 167.1957092
120.6922150 -102.4976959 166.1434937
122.1096725 -102.4625931 166.1383362
-112.3120651 97.3484268 176.0081482
-112.2094955 94.5871887 176.6321411
-109.5086060 94.6312866 176.0303955
-114.9830170 91.9318848 176.6441498
-112.1953583 91.9033585 176.6457672
-109.4930649 91.9456863 176.0495605
-106.8703842 92.0633545 174.8155212
-115.0556717 89.3120041 176.0848999
-112.2610016 89.2842560 176.0937042
-109.5602722 89.3258438 175.4938507
116.7671890 -89.8008118 168.1746826
119.4941483 -89.6401520 168.8383484
116.7094955 -92.3361511 168.7419891
119.4311295 -92.1695633 169.4202271
125.1557312 -92.1202850 168.8912354
119.4445648 -94.7756577 169.4774780
122.2545624 -94.6978531 169.5548401
