-104.2932587 149.8553009 -31.4281445
-103.3777695 149.8942413 -31.7677631
-102.9842606 149.9399567 -32.1016617
-107.1941452 149.3263397 -30.2299938
-106.7437668 149.2810364 -30.1672268
-104.5695419 149.2394257 -30.2123890
-104.1283951 149.2500305 -30.3307514
-103.7006073 149.2549438 -30.4648132
-103.2903366 149.2870636 -30.6710396
-102.8830261 149.3445129 -30.9195805
-102.0671463 149.4682465 -31.5083351
-108.0362854 148.8055115 -29.6911697
-100.7659531 149.0501251 -31.7771778
-108.8590240 148.3413086 -29.3779945
-108.4128723 148.2890015 -29.1922169
-107.9532471 148.2315063 -29.0280304
-100.7026520 148.4316406 -30.9340229
-108.7722092 147.7569733 -28.7321205
-101.4577255 147.7541962 -29.5322647
-101.0405426 147.8082886 -29.8642254
-109.1654510 147.2870178 -28.3942661
-108.6989059 147.2402802 -28.1838989
-101.3854141 147.2573547 -28.9880447
-109.5606003 146.8078003 -28.1026535
-101.3364410 146.7456512 -28.5035648
-100.9654541 146.7768097 -28.7249317
-98.9019928 147.0464478 -30.6369915
-98.4895935 147.1856079 -31.2228355
-111.4073334 146.5162201 -28.7427235
-110.9439621 146.4537506 -28.4372215
-110.4665527 146.3988647 -28.1430225
-109.9769974 146.3488464 -27.8708763
-109.5193253 146.3233490 -27.6594181
-101.2969055 146.2492828 -28.0930023
-100.8785095 146.2818756 -28.3594379
-100.4718323 146.3130646 -28.6452446
-100.0884552 146.3458862 -28.9440155
-99.6978226 146.3987732 -29.2953873
-99.2980499 146.4517975 -29.6803913
-98.8932800 146.5280914 -30.1267776
-98.4644852 146.6287231 -30.6330299
-98.0362625 146.7342529 -31.1565685
-111.3695831 146.0157928 -28.2923298
-111.7748795 145.5649719 -28.1787586
-111.3073959 145.5024414 -27.8633614
-97.1695023 145.8516083 -31.2042618
-97.1560898 145.3185120 -30.7324963
-113.1360168 144.7887268 -28.5325527
-97.1255112 144.8218994 -30.3534107
-96.7162399 144.9286194 -30.9024010
-96.3062897 144.5190887 -31.1325665
-113.0536041 143.8118134 -27.8878975
-96.3015366 144.0001831 -30.7573071
-113.9589844 142.5390930 -27.9883308
-95.4070663 142.7751160 -31.2381191
-113.9299927 142.0738678 -27.8019867
-95.4011917 142.2921906 -30.9858723
-113.9144211 141.6156769 -27.6525517
-95.3854218 141.8291626 -30.7892075
-114.8801880 141.3082886 -28.3767815
-114.3718109 141.2259674 -27.9311733
-113.8735123 141.1515656 -27.5050163
-95.3911057 141.3556061 -30.5994701
-94.9587708 141.4612274 -31.2510166
-114.8293762 140.8431396 -28.2248154
-114.7636185 139.4994354 -28.0149670
-94.5808334 139.7469482 -31.5550098
-94.1864471 139.8543701 -32.3001213
-94.5782928 139.3067322 -31.5306206
-94.1856384 139.4078979 -32.2410088
-94.5941544 138.8554840 -31.4637508
-114.8358688 135.6669617 -28.4937553
-114.8460159 135.2590942 -28.6612854
-94.6338501 135.4898834 -32.2793961
-96.2266312 134.7677612 -29.9737225
-95.8426895 134.8358765 -30.5002480
-95.4524612 134.9147186 -31.1123714
-95.0731430 134.9966125 -31.7534828
-94.6708755 135.0778656 -32.4605331
-96.2306061 134.3584747 -30.1718826
-97.8154602 133.7477417 -28.7246151
-114.0365143 133.1205902 -29.0075531
-99.5109329 132.7962341 -27.9418964
-99.0987625 132.8233643 -28.2109585
-114.5944672 132.7654572 -29.7423058
-114.1014862 132.7163849 -29.3287029
-99.5175323 132.3917694 -28.1927204
-114.1602859 132.3132782 -29.6475925
-113.6283417 132.2644196 -29.2196541
-113.1190186 132.2153473 -28.8326187
-99.5198364 131.9939880 -28.4624081
-113.1608276 131.8229218 -29.1737118
-99.4894791 131.6159210 -28.7547188
-113.7301559 131.4705200 -29.9344101
-113.2032013 131.4339905 -29.5276070
-100.3706360 131.1550903 -28.5688629
-113.2849808 131.0274963 -29.9396152
-112.8238983 130.5915070 -29.9589500
-112.3017960 130.5700836 -29.6034622
-101.3036118 130.3302612 -28.8049583
-100.8325653 130.3470612 -29.0268612
-112.3746414 130.1673584 -30.0508804
-101.3247223 129.9418793 -29.1778049
-111.9700165 129.7466888 -30.2293587
-111.4832458 129.7315674 -29.9400978
-101.3298416 129.5735321 -29.5601940
-111.5664978 129.3309326 -30.4616909
-111.1314163 128.9719391 -30.7223320
-110.6488190 128.9538879 -30.4638157
-111.2038040 128.6683502 -31.3107033
-110.7034912 128.6302490 -31.0430889
-111.2890396 128.2990875 -32.7399979
-110.8000870 128.2522583 -32.3180542
-110.3158646 128.1896667 -31.7605476
-109.8170242 128.1889648 -31.2375507
-110.4404831 127.8546371 -32.6878586
-109.1331863 127.3436356 -32.1917496
-102.5901871 127.3884125 -32.5657806
-102.0662231 127.3655701 -33.1052246
-102.6830521 127.0483475 -33.4110489
-107.9558182 126.6000366 -33.4123268
-107.4864120 126.5932617 -33.2976456
-107.0239868 126.5872650 -33.2252121
-106.5772552 126.5876846 -33.1864319
-104.4003830 126.6178741 -33.4807091
-103.9866562 126.6245422 -33.6194153
-103.5910110 126.6294250 -33.8351402
-103.1850128 126.6603165 -34.0671501
-102.7792435 126.6769409 -34.3754463
101.8462219 -48.5476685 50.9425926
99.3506775 -48.9444122 51.5709114
99.7597504 -48.9337387 51.7050591
100.1577148 -48.9303398 51.8195572
100.5505219 -48.9397049 51.9008675
101.7222595 -48.9141426 51.9061775
102.1376266 -48.8962936 51.8920021
102.5545502 -48.8873405 51.8389168
102.9711380 -48.8836479 51.7481155
103.3954315 -48.8651199 51.5825119
104.1337662 -49.1971741 52.1641273
97.3062668 -49.7163315 52.0913315
97.6751480 -49.6996307 52.3353844
98.0522461 -49.6924400 52.5528526
104.0434799 -49.5743179 52.9266663
104.4668579 -49.5702400 52.7398872
104.8998108 -49.5710335 52.5048065
105.3599319 -49.5643959 52.2043839
95.7536163 -50.1875496 51.3808670
105.7120056 -49.9152145 52.7368736
95.3797684 -50.5830345 51.7439117
95.7010269 -50.5404549 52.1152344
105.6326294 -50.2858887 53.4129562
106.0525589 -50.2755470 53.1312103
106.5002060 -50.2738380 52.8070297
94.9327927 -50.9540939 51.9535141
107.3080215 -50.6511955 52.7668991
93.4680023 -51.4618187 50.3039970
94.5080872 -51.3190880 52.1112862
94.8625641 -51.2867813 52.5912933
107.1958542 -51.0288582 53.4556961
107.9931946 -51.7408943 53.7675133
108.4672623 -51.7482643 53.3215675
93.2562332 -52.4700165 52.3188629
108.8619843 -52.1198883 53.4447212
108.7893677 -52.4756660 53.9679718
93.1506271 -53.1479263 53.3041458
108.7030563 -52.8430099 54.4797020
108.6358795 -53.2041969 54.9117813
109.1317368 -53.2031517 54.4640961
109.5990219 -53.2244301 54.0443230
109.5386734 -53.5813026 54.4242287
92.3383408 -54.2941322 53.5117722
109.4716034 -53.9511452 54.8146400
109.9717178 -53.9596329 54.3374481
110.4063034 -54.3564529 54.1904526
92.3010559 -55.0240211 54.1403694
110.3237839 -54.7305756 54.5447884
110.8623123 -54.7496758 53.9274101
110.2338562 -55.8047829 55.4469528
91.4858932 -56.5616493 54.1777763
110.1911087 -56.1693687 55.7329903
91.4744110 -56.9343376 54.3626785
91.0756531 -57.3482513 54.0225563
91.4777985 -57.3098030 54.5509605
111.1118622 -57.3181610 55.3351288
111.0667267 -57.6928291 55.5160484
111.0435867 -58.0654030 55.6655998
111.0193939 -58.4383583 55.7945251
90.6610184 -59.2740021 54.0948029
90.6615829 -59.6526909 54.1694984
90.6654587 -60.0320778 54.2330704
111.8972702 -59.6527939 54.9144974
112.4501877 -59.7061386 54.2040443
90.6670609 -60.4135361 54.2709045
111.8852692 -60.0303078 54.9973335
90.6589966 -60.7988510 54.2718887
111.9002533 -60.4091682 55.0339737
90.6523438 -61.1851006 54.2556305
111.9113464 -60.7902985 55.0406532
90.6532440 -61.5726547 54.2359161
111.9303131 -61.1758804 55.0188484
90.6566696 -61.9601898 54.2119637
111.9339294 -61.5600281 55.0055885
90.6519547 -62.3496933 54.1740112
91.0604095 -62.2854691 54.7443619
91.4178543 -62.2344513 55.2199287
110.9952316 -61.8548393 56.0916595
91.4331131 -62.6216049 55.1660881
111.0220108 -62.2471924 56.0265045
111.0373535 -62.6385574 55.9423218
111.0520020 -63.0318832 55.8412743
91.4462509 -64.6195679 54.5732040
91.8384781 -64.5541534 55.0636024
92.2147217 -64.4966507 55.5074577
110.1538925 -64.1282196 56.4005737
110.6341934 -64.1746140 55.9341736
92.2291412 -64.8978119 55.3445816
91.8460236 -65.3734360 54.6790161
92.2325592 -65.3056641 55.1624985
109.2834625 -64.8531494 56.8853836
109.7500153 -64.8979721 56.4916344
109.3137283 -65.2618942 56.6834221
92.2601089 -66.1393204 54.6946754
92.6325684 -66.0757828 55.1399574
93.0061417 -66.0165405 55.5503273
109.3348160 -65.6640015 56.4676552
93.0276260 -66.4269409 55.3041306
109.3611298 -66.0697327 56.2175102
92.6626129 -66.9131470 54.6178780
93.0512009 -66.8405609 55.0477676
108.5159836 -66.4153748 56.6725273
108.9559708 -66.4484253 56.3157082
109.4135208 -66.4895325 55.9227371
93.0543442 -67.2766266 54.7573013
108.5676346 -66.8395309 56.3851166
109.0045242 -66.8483353 56.0497551
94.2039108 -67.5409546 55.6727448
94.5947495 -67.4761124 56.0108528
108.5939026 -67.2448425 56.1326294
94.6206360 -67.8999329 55.7127380
94.6343002 -68.3352509 55.3795052
108.7177963 -68.1223526 55.2985840
108.7977524 -68.4523392 55.0172691
95.0588760 -69.1562500 54.9031143
95.4448090 -69.0836563 55.2208176
107.8972549 -68.8714828 55.1711197
108.3759155 -68.9410782 54.7258072
108.8524170 -69.0102310 54.2063332
95.4756470 -69.5412216 54.7675896
107.9632339 -69.3145599 54.6213188
108.4620895 -69.4114304 54.0870743
96.6703110 -69.7985001 55.2411423
97.0527115 -69.7735138 55.5047417
107.1034317 -69.6819153 54.8610115
107.5683746 -69.7367401 54.4517899
98.2955933 -70.5526047 55.1759262
98.6766891 -70.5268478 55.3594475
104.6849670 -70.4359436 55.3525124
105.1125488 -70.4584503 55.1549187
105.5357056 -70.4818192 54.9229202
105.9587936 -70.5108566 54.6424294
106.3646622 -70.5297470 54.3605232
106.8232269 -70.6010818 53.9706726
98.7443542 -70.9598618 54.8199463
104.7669678 -70.9014206 54.7578812
99.5765305 -71.3743057 54.4837723
99.9549408 -71.3522186 54.6124611
100.3327713 -71.3372040 54.7172890
100.7139511 -71.3208237 54.7903748
101.1008072 -71.3016968 54.8357239
103.9888306 -71.3215561 54.4368820
101.1696091 -71.7384338 54.1537933
101.2443008 -72.2588959 53.3202515
101.6332626 -72.2690201 53.3366966
102.0488815 -72.2840118 53.3209419
-149.1437836 -224.7815857 -162.6015320
-148.5574341 -224.7777405 -162.4949188
-149.2035980 -225.2314453 -162.3942719
-148.7181702 -225.2141571 -162.3466339
-107.2998199 148.4558716 -29.1885872
-106.4030838 148.4059448 -29.0637913
-105.5473404 148.4003754 -29.0251656
-104.6917114 148.4202576 -29.1267414
-103.8090439 148.4431458 -29.3408794
-102.9803619 148.4605713 -29.6561623
-102.1734009 148.5171356 -30.1111507
-101.3459930 148.6302032 -30.7530518
-108.0829468 147.4639282 -28.2451038
-107.1680908 147.4140472 -28.0299301
-106.2749634 147.3939972 -27.9256992
-105.4295502 147.3805847 -27.9112301
-104.5654526 147.3820496 -28.0127888
-103.6909943 147.4025879 -28.2127285
-102.8557434 147.4280243 -28.4950657
-102.0448914 147.4720459 -28.8892403
-108.8566589 146.5107422 -27.5900707
-107.9777374 146.4667206 -27.3291931
-107.0765533 146.4242859 -27.1487694
-106.1867752 146.3985596 -27.0662155
-105.3401566 146.3865356 -27.0819607
-104.4810181 146.3911438 -27.1826382
-103.6083679 146.3999634 -27.3539009
-102.7642136 146.4345245 -27.6189384
-101.9450607 146.4681396 -27.9664307
-110.6295776 145.6785583 -27.6452751
-109.6853409 145.5947723 -27.1726379
-108.7767029 145.5349731 -26.8331776
-107.8917313 145.4856567 -26.5968246
-101.8662872 145.4984894 -27.2488632
-101.0275879 145.5504456 -27.6902637
-100.2103882 145.6056671 -28.2131729
-99.4235840 145.6987000 -28.8569012
-98.6211548 145.7898560 -29.6384106
-97.7878189 145.9656067 -30.6422844
-112.4158630 144.9207611 -28.1428719
-111.4657822 144.7971802 -27.4711418
-110.5577087 144.7147522 -26.9620361
-109.6115265 144.6365356 -26.5418396
-108.7016602 144.5726929 -26.2295380
-107.8286819 144.5348206 -26.0312309
-101.8050232 144.5393677 -26.6659145
-100.9564362 144.5960388 -27.0787315
-100.1362000 144.6474457 -27.5573177
-99.3417664 144.7342224 -28.1504974
-98.5368271 144.8221436 -28.8796482
-97.7332611 144.9471436 -29.7978477
-112.3150787 143.9406738 -27.4642639
-111.3972092 143.8434601 -26.8786392
-110.4875946 143.7635803 -26.4207191
-109.5529251 143.6982727 -26.0424385
-101.7575531 143.6050415 -26.2130585
-100.9083252 143.6633453 -26.6134167
-100.0834579 143.7161713 -27.0714760
-99.2880402 143.7813568 -27.6107216
-98.4801407 143.8732452 -28.2989464
-97.6776505 143.9781952 -29.1323128
-96.9030762 144.1179810 -30.1045971
-113.2450638 143.1295929 -27.7029171
-112.2496719 142.9986572 -26.9648819
-111.3465652 142.9141846 -26.4318676
-110.4369125 142.8381348 -26.0022259
-109.4958267 142.7665710 -25.6413536
-101.7164001 142.6976318 -25.8719845
-100.8719330 142.7407227 -26.2462234
-100.0412064 142.7958679 -26.6979752
-99.2448425 142.8596344 -27.2140388
-98.4243698 142.9457703 -27.8577137
-97.6197205 143.0406189 -28.6240749
-96.8522491 143.1647034 -29.5466747
-96.0670929 143.3312073 -30.6459484
-113.1888657 142.1970520 -27.2955456
-98.3932419 142.0250549 -27.5130386
-97.5782623 142.1214294 -28.2506752
-96.8127060 142.2310028 -29.1028214
-96.0474167 142.3712921 -30.1406059
-113.1453857 141.2825623 -26.9855347
-98.3592377 141.1286316 -27.2794170
-97.5406723 141.2211914 -27.9879494
-96.7705688 141.3265533 -28.8044147
-96.0105743 141.4559021 -29.7929115
-114.0886383 140.5119934 -27.5512524
-113.1193848 140.3861847 -26.7728119
-96.7456970 140.4291077 -28.5937595
-95.9798737 140.5534210 -29.5470905
-95.1818008 140.7166748 -30.7105656
-114.0601501 139.6206818 -27.3971081
-113.1049576 139.5041809 -26.6522598
-96.7226410 139.5472412 -28.4745770
-95.9604797 139.6662140 -29.3945427
-95.1726913 139.8253784 -30.5586624
-115.0261765 138.8857574 -28.2055912
-114.0478058 138.7452850 -27.3271923
-113.0992737 138.6326294 -26.6139488
-95.1792145 138.9437866 -30.4821205
-115.0258942 138.0206909 -28.2243080
-114.0563660 137.8846741 -27.3650742
-113.0918961 137.7701111 -26.6467361
-95.1711578 138.0813293 -30.5129261
-94.3845444 138.2636719 -31.8692169
-114.0676041 137.0342560 -27.4811573
-113.1000671 136.9205933 -26.7621174
-95.1829758 137.2308502 -30.6292610
-94.3989639 137.4115906 -31.9985466
-114.0894699 136.1961975 -27.6846600
-113.1210098 136.0816345 -26.9562798
-95.1933060 136.3927155 -30.8525219
-114.1165771 135.3693390 -27.9649944
-113.1493988 135.2532806 -27.2235374
-98.3829880 135.1177063 -27.6090069
-97.5657501 135.1994781 -28.2839375
-96.7827301 135.2959137 -29.0406322
-96.0105515 135.4169312 -29.9800911
-95.2235641 135.5699158 -31.1670914
-115.1730652 134.6768646 -29.2285500
-114.1647263 134.5552521 -28.3444843
-113.1907425 134.4379730 -27.5830593
-98.4200897 134.2966919 -27.9292088
-97.5896912 134.3778534 -28.6138077
-96.7957687 134.4757690 -29.3877544
-114.2291870 133.7458038 -28.8165245
-113.2433014 133.6326294 -28.0336876
-112.2625580 133.5283203 -27.3623772
-111.3473358 133.4465942 -26.8705196
-100.0566788 133.3582916 -27.2617378
-99.2697449 133.4144135 -27.7467022
-98.4459534 133.4837494 -28.3365936
-113.2994080 132.8400269 -28.5607395
-112.3144226 132.7332153 -27.8702965
-111.4039154 132.6469574 -27.3607616
-100.1136551 132.5564728 -27.7089005
-112.3912811 131.9501190 -28.4835529
-111.4681931 131.8609619 -27.9298019
-110.5503998 131.7891541 -27.4938087
-109.6282730 131.7299500 -27.1517715
-105.2140808 131.6062622 -26.6260586
-104.3651276 131.6108856 -26.7193432
-101.8289948 131.6715240 -27.4083481
-100.9809265 131.7094727 -27.8005447
-100.1506195 131.7646484 -28.2374191
-112.4728699 131.1728821 -29.1845131
-111.5328293 131.0899353 -28.6007023
-110.6197281 131.0115356 -28.1412430
-109.6882172 130.9504395 -27.7648430
-105.2797699 130.8140717 -27.2041187
-104.4181595 130.8211975 -27.2990189
-101.8913574 130.8879547 -28.0040054
-101.0409927 130.9256744 -28.3959751
-111.6415787 130.3205261 -29.4145184
-110.6995544 130.2526398 -28.9020767
-109.7700882 130.1795502 -28.4978428
-108.8668365 130.1279907 -28.2068386
-107.9919739 130.0930481 -28.0078049
-101.9668655 130.1071167 -28.7046509
-110.8079834 129.4984436 -29.8144398
-109.8605194 129.4360809 -29.3602009
-108.9584961 129.3714600 -29.0354424
-108.0848389 129.3325653 -28.8098869
-102.0386047 129.3504791 -29.4818459
-109.9602432 128.7323303 -30.3934135
-109.0580215 128.6486206 -30.0105934
-108.1785889 128.5939026 -29.7557220
-107.2850189 128.5572662 -29.5912666
-106.3958511 128.5356140 -29.5247574
-103.7886505 128.5453796 -29.8382034
-102.9585648 128.5677338 -30.1086349
-102.1183929 128.6011200 -30.4419041
-109.1971130 127.9336777 -31.2125626
-108.3171616 127.8849030 -30.9227047
-107.3960953 127.8468094 -30.7029438
-106.5012894 127.8159027 -30.6043453
-103.9007416 127.8240967 -30.9125328
-103.0828552 127.8564301 -31.2037239
-102.2292862 127.8996429 -31.6280670
-108.5025482 127.1560287 -32.3539925
-107.5614929 127.1531906 -32.0782127
-106.6467590 127.1311646 -31.9453316
-105.7788315 127.1214371 -31.9312172
-104.9211349 127.1238937 -32.0429192
-104.0583801 127.1367340 -32.2928467
-103.2432709 127.1811752 -32.6191902
-105.9804535 126.4243851 -33.7062683
-105.1096725 126.4383240 -33.8101311
101.1937256 -48.7487106 51.4610672
98.6522675 -49.4910812 52.4478531
99.4412003 -49.4821243 52.7847900
100.2344894 -49.4533005 52.9885445
101.0078201 -49.4408035 53.0874863
101.8064270 -49.4298515 53.0830193
102.6225662 -49.4295845 52.9891014
103.4524384 -49.4098587 52.7787704
96.2609406 -50.3113518 52.2967072
97.0218658 -50.2620659 52.9285545
97.7803192 -50.2197418 53.4015808
98.5309296 -50.1787453 53.7443237
99.3143539 -50.1463966 54.0257492
103.3099518 -50.0961533 54.0962257
104.1284332 -50.1053391 53.8253746
104.9962616 -50.1206627 53.4440193
94.0239334 -51.2369080 50.9189949
95.4285278 -51.0641289 52.8681412
96.1526947 -50.9973030 53.5125656
96.9123535 -50.9427719 54.0463181
97.6725998 -50.8988647 54.4638252
98.4311142 -50.8581276 54.7758408
99.2097168 -50.8302841 55.0338135
103.1996918 -50.7678566 55.1379433
104.0132980 -50.7788048 54.9327660
104.8676147 -50.8021355 54.6228790
105.7193832 -50.8206978 54.1743126
106.5810852 -50.8370514 53.6137543
93.2045746 -51.9921761 51.0796661
93.8907318 -51.8958893 52.2386246
94.5991821 -51.8095131 53.1866493
95.3204346 -51.7432671 53.9067039
96.0558243 -51.6848526 54.4766998
104.7617188 -51.4801102 55.5580750
105.6097946 -51.5039902 55.1878815
106.4472961 -51.5374222 54.7107239
107.3396530 -51.5473366 54.0811958
93.7678986 -52.5769768 53.2951660
94.5103683 -52.5067291 54.1122437
95.2406921 -52.4402466 54.7480049
95.9817429 -52.3874550 55.2797775
104.6795959 -52.1796799 56.3422966
105.5186615 -52.1984673 56.0194168
106.3570099 -52.2208481 55.5846329
107.2190399 -52.2615166 55.0317459
108.1013184 -52.3070793 54.3511620
93.6960297 -53.2803612 54.1298218
94.4426956 -53.2127991 54.8662491
95.1726303 -53.1474571 55.4534760
95.9212418 -53.0992584 55.9622231
106.2751007 -52.9255638 56.3428268
107.1259689 -52.9580994 55.8512535
108.0177612 -52.9969749 55.2105026
92.8953857 -54.0641403 53.9885941
93.6353302 -53.9938049 54.8065948
94.3803101 -53.9241982 55.5013275
95.1196976 -53.8691368 56.0734024
95.8624649 -53.8192177 56.5448265
106.2111435 -53.6344376 56.9740944
107.0575409 -53.6610718 56.5275726
107.9248810 -53.7060547 55.9634209
108.8039093 -53.7435455 55.2507019
92.8546600 -54.7885933 54.6268845
93.5858536 -54.7136612 55.3944092
94.3324203 -54.6475487 56.0544701
107.8723984 -54.4090576 56.5632820
108.7241974 -54.4580154 55.9254990
109.6311569 -54.5085869 55.1123581
92.0857773 -55.5866737 54.3074036
92.8033905 -55.5117188 55.1415100
93.5376740 -55.4378319 55.8775139
94.2908478 -55.3732147 56.5086784
107.8163528 -55.1314926 57.0837402
108.6762238 -55.1698914 56.4776993
109.5536041 -55.2275467 55.7224312
110.5244370 -55.2827759 54.7416306
92.0533600 -56.3217125 54.7716789
92.7678680 -56.2415886 55.5811119
107.7658463 -55.8573647 57.5174828
108.6243591 -55.8942032 56.9413719
109.5034027 -55.9456253 56.2323570
92.0216446 -57.0574493 55.1397438
92.7368393 -56.9774323 55.9373779
107.7334290 -56.5893669 57.8672218
108.5906067 -56.6234016 57.3123550
109.4572372 -56.6735458 56.6461830
110.4031219 -56.7251740 55.8026848
91.2594757 -57.8864784 54.5092468
92.0001831 -57.7966690 55.4479408
92.7071838 -57.7172127 56.2188034
109.4234619 -57.4066963 56.9832153
110.3505707 -57.4633789 56.1467934
91.2405319 -58.6342926 54.7478027
91.9869537 -58.5423508 55.6967812
92.6977844 -58.4636574 56.4552841
109.4000397 -58.1454163 57.2491188
110.3012924 -58.2044067 56.4504128
91.2398224 -59.3874168 54.9299393
109.3838043 -58.8905106 57.4400253
110.2811737 -58.9481430 56.6600189
111.2070618 -59.0206375 55.6784515
112.1942825 -59.1163216 54.4311485
91.2362366 -60.1445541 55.0374298
109.3723907 -59.6414452 57.5727692
110.2695313 -59.6979408 56.7993126
111.1913452 -59.7735062 55.8110619
91.2313995 -60.9092560 55.0596161
91.9594574 -60.8132477 55.9897957
92.6791153 -60.7326126 56.7557259
109.3735733 -60.3985291 57.6324081
110.2786713 -60.4556313 56.8552132
111.1843567 -60.5299149 55.8896942
91.2322540 -61.6796570 55.0249901
91.9567490 -61.5829582 55.9508400
92.6748886 -61.5005875 56.7289276
109.3789520 -61.1614113 57.6275635
110.2816696 -61.2180405 56.8540306
111.1952591 -61.2948189 55.8810806
91.9767609 -62.3548088 55.8729362
92.6888809 -62.2718468 56.6583405
109.3946609 -61.9293137 57.5675430
110.2866211 -61.9859695 56.7908821
91.2314148 -63.2482414 54.7599907
91.9983902 -63.1345139 55.7257118
92.7137604 -63.0488358 56.5251389
109.4145126 -62.7033463 57.4406586
110.3092270 -62.7637253 56.6322021
92.0138550 -63.9247742 55.4990540
92.7417755 -63.8314667 56.3173828
107.7052765 -63.3947372 58.4511986
108.5650787 -63.4362259 57.9051285
109.4395905 -63.4855576 57.2318001
110.3542862 -63.5537796 56.3861427
92.7711792 -64.6228638 56.0391960
107.7338867 -64.1815186 58.2147293
108.5952682 -64.2206650 57.6488838
109.4736786 -64.2732162 56.9525757
92.8067474 -65.4219208 55.6917534
93.5406036 -65.3362961 56.4421997
94.2795715 -65.2655792 57.0980530
95.0127182 -65.1999054 57.6461143
95.7503128 -65.1445999 58.1044846
106.0618134 -64.9150238 58.7857437
106.9012299 -64.9369659 58.4035149
107.7732010 -64.9712677 57.9106750
108.6389160 -65.0183868 57.3053513
93.5874023 -66.1432190 56.0193443
94.3289261 -66.0643311 56.7153893
95.0528946 -65.9998016 57.2774124
95.7841339 -65.9460831 57.7479820
106.0959854 -65.7085190 58.4518013
106.9418106 -65.7330475 58.0500641
107.8200912 -65.7699585 57.5176964
108.6827774 -65.8182068 56.8819923
93.6269150 -66.9710388 55.5197983
94.3800201 -66.8734283 56.2519760
95.1006012 -66.8041077 56.8316231
95.8339767 -66.7435760 57.3399353
106.1555710 -66.5139923 58.0272484
106.9957733 -66.5395279 57.5986862
107.8785172 -66.5850220 57.0215645
95.1542130 -67.6250763 56.2946472
95.8921204 -67.5553207 56.8366356
106.2122574 -67.3224335 57.5195503
107.0547485 -67.3527832 57.0495605
107.9604416 -67.4145813 56.4225807
95.2176743 -68.4608307 55.6568909
95.9557037 -68.3806992 56.2113266
96.7232666 -68.3211288 56.7131348
97.4902267 -68.2701874 57.1342506
104.6364059 -68.1041336 57.5903015
105.4680176 -68.1234970 57.2762680
106.2895355 -68.1529160 56.8741455
107.1471863 -68.1892548 56.3441772
108.0483856 -68.2539520 55.6720657
96.0397491 -69.2174530 55.4519348
96.7932892 -69.1570892 55.9897156
97.5652466 -69.0936050 56.4661484
104.7099686 -68.9382706 56.9061966
105.5380936 -68.9622650 56.5471191
106.3758392 -68.9947357 56.0749626
107.2436066 -69.0358658 55.4660683
97.6590652 -69.9461975 55.6159401
98.4166718 -69.8995667 55.9866943
99.1859283 -69.8571625 56.2845497
99.9657745 -69.8209534 56.4981537
100.7219238 -69.8005524 56.6096535
101.5047379 -69.7833328 56.6599693
102.3260193 -69.7668457 56.6491623
103.1568375 -69.7691345 56.5353279
103.9781342 -69.7714233 56.3407898
104.8046951 -69.7795639 56.0515366
105.6442871 -69.8116074 55.6260605
106.4838867 -69.8586884 55.0720978
99.2906265 -70.7121506 55.3206329
100.0578461 -70.6870422 55.5337601
100.8141327 -70.6614075 55.6653862
101.5989685 -70.6361542 55.7240601
102.4307251 -70.6228333 55.6884079
103.2578659 -70.6240158 55.5430870
104.0894089 -70.6405792 55.3012047
101.7237701 -71.5201111 54.4937859
102.5656433 -71.5272369 54.4331131
103.4104919 -71.5509262 54.2511292
-106.5187988 144.9673920 -26.1531734
-104.8053589 144.9500427 -26.1931038
-103.0788269 144.9744263 -26.5296955
-108.1879578 143.1628265 -25.4879475
-106.4171753 143.1040497 -25.2680359
-104.6977005 143.0852661 -25.3151283
-102.9844818 143.1158752 -25.6532784
-111.7408752 141.5878448 -26.2172813
-109.9132233 141.4438171 -25.3987579
-108.1213684 141.3492889 -24.9249496
-106.3525696 141.2991943 -24.7399693
-104.6338348 141.2838593 -24.7984085
-102.9224548 141.3078613 -25.1219330
-101.2487717 141.3658447 -25.6849480
-99.5948029 141.4687958 -26.5396824
-111.6947784 139.8047791 -25.8661804
-109.8725052 139.6708069 -25.1029053
-108.0823059 139.5826569 -24.6599159
-106.3202057 139.5359344 -24.4957275
-104.6038055 139.5223541 -24.5603008
-102.8925171 139.5431824 -24.8708916
-101.2177887 139.6015930 -25.4269600
-99.5543594 139.6964417 -26.2435570
-97.9276123 139.8408508 -27.4024010
-111.6809692 138.0676575 -25.8200531
-109.8651886 137.9392090 -25.0850906
-108.0745850 137.8547058 -24.6552773
-106.3134766 137.8076172 -24.4893951
-104.5986557 137.7953186 -24.5619926
-102.8846436 137.8174438 -24.8736496
-101.2071075 137.8718414 -25.4158611
-99.5409470 137.9650879 -26.2275505
-97.9141541 138.1036682 -27.3552437
-96.3399658 138.3015900 -28.8969402
-111.7009735 136.3697510 -26.0541267
-109.8793640 136.2429504 -25.3159714
-108.0928955 136.1593933 -24.8844585
-106.3264160 136.1141968 -24.7235260
-104.6162720 136.1024475 -24.8014221
-102.8992004 136.1227112 -25.1040115
-101.2200394 136.1769104 -25.6453590
-99.5614471 136.2705841 -26.4675350
-97.9348373 136.4081421 -27.6021194
-96.3568039 136.6029968 -29.1391525
-111.7480316 134.7072601 -26.5472870
-109.9277496 134.5796967 -25.7890949
-108.1453400 134.4973602 -25.3576126
-106.3717651 134.4503784 -25.1830215
-104.6540070 134.4400787 -25.2652683
-102.9428101 134.4608154 -25.5776405
-101.2606888 134.5159760 -26.1250038
-99.6085663 134.6099243 -26.9629116
-110.0083923 132.9548340 -26.5631409
-108.2168732 132.8690796 -26.0904865
-106.4403152 132.8210144 -25.9005947
-104.7226791 132.8094788 -25.9745922
-103.0091629 132.8320160 -26.2952003
-101.3314209 132.8887329 -26.8672104
-108.3224792 131.2761536 -27.1127548
-106.5434265 131.2261963 -26.8996582
-103.1058121 131.2356873 -27.2932224
-106.6882324 129.6751709 -28.2488403
-104.9646149 129.6603546 -28.2999458
-103.2406769 129.6866455 -28.6468697
-105.1538925 128.1658020 -30.1326523
100.4389191 -50.4533348 54.7643433
102.0301132 -50.4293594 54.7886200
97.1645355 -51.9685593 55.5381508
98.6982727 -51.8993568 56.1329346
100.2674866 -51.8504219 56.4548683
101.8536682 -51.8252029 56.5165443
103.4720612 -51.8184547 56.3016739
97.0402527 -53.3952866 56.8412628
98.5753250 -53.3284836 57.3883247
100.1474457 -53.2799339 57.7050934
101.7255783 -53.2501450 57.7757034
103.3379517 -53.2427597 57.6090775
104.9967499 -53.2548676 57.1730118
95.4199295 -54.9299126 57.0302162
96.9487610 -54.8438339 57.8101997
98.4843674 -54.7771759 58.3312378
100.0581055 -54.7297058 58.6366348
101.6339264 -54.7002831 58.7173576
103.2431488 -54.6880417 58.5910568
104.8897400 -54.6963730 58.2026367
106.5454025 -54.7276993 57.5517578
93.8651352 -56.5059509 56.7570038
95.3594513 -56.3972588 57.7822800
96.8865662 -56.3097763 58.5262794
98.4217072 -56.2442398 59.0277557
99.9928284 -56.1961594 59.3299828
101.5717163 -56.1653595 59.4117813
103.1730804 -56.1523323 59.3013229
104.8135986 -56.1580505 58.9528580
106.4647980 -56.1847343 58.3536530
93.8199387 -57.9899826 57.2955780
95.3099518 -57.8805771 58.2844849
96.8457184 -57.7935524 59.0185699
98.3813934 -57.7267456 59.5157890
99.9478378 -57.6776886 59.8101654
101.5276642 -57.6463318 59.9030762
103.1294098 -57.6313400 59.7995033
104.7622070 -57.6360931 59.4748383
106.4109497 -57.6617470 58.9024544
108.1152039 -57.7146873 58.0224571
92.3209152 -59.6326866 56.2844315
93.7963562 -59.4915276 57.6088753
95.2860947 -59.3812408 58.5838165
96.8225403 -59.2927322 59.3106155
98.3596039 -59.2248688 59.8061409
99.9228210 -59.1742744 60.1078491
101.5031128 -59.1418915 60.2047997
103.1027985 -59.1268196 60.1048813
104.7325287 -59.1301765 59.7928925
106.3753891 -59.1551514 59.2414246
108.0878830 -59.2069016 58.3773575
93.7952652 -61.0117531 57.6983032
95.2875214 -60.8984070 58.6840782
96.8189011 -60.8077278 59.4146843
98.3555374 -60.7380180 59.9164124
99.9212265 -60.6867752 60.2159805
101.4941940 -60.6526947 60.3218651
103.0953064 -60.6374893 60.2230568
104.7312241 -60.6409912 59.9129906
106.3730621 -60.6665306 59.3655968
108.0777893 -60.7193184 58.5055542
93.8171692 -62.5513649 57.5781670
95.3019943 -62.4339333 58.5816612
96.8327332 -62.3402252 59.3305702
98.3744278 -62.2681236 59.8414230
99.9381943 -62.2146530 60.1509857
101.5137253 -62.1808929 60.2492409
103.1132355 -62.1655121 60.1522446
104.7500305 -62.1697235 59.8381805
106.3914185 -62.1966858 59.2807541
108.0992355 -62.2518425 58.4067230
93.8615494 -64.1139145 57.2108765
95.3383636 -63.9905319 58.2649002
96.8729401 -63.8909302 59.0483742
98.4121246 -63.8176079 59.5675659
99.9689713 -63.7617798 59.8852959
101.5456619 -63.7275848 59.9874878
103.1558380 -63.7119446 59.8879318
104.7870483 -63.7173882 59.5581970
106.4323578 -63.7477341 58.9758530
96.9316177 -65.4667816 58.5210075
98.4677048 -65.3885117 59.0810928
100.0299454 -65.3306503 59.4085197
101.6008224 -65.2959747 59.5116272
103.2166138 -65.2809448 59.3983078
104.8513947 -65.2879486 59.0477371
97.0197144 -67.0706406 57.7345428
98.5579529 -66.9849243 58.3366661
100.1141205 -66.9257355 58.6806717
101.6814728 -66.8892670 58.7866135
103.3077087 -66.8778534 58.6467400
104.9525223 -66.8912811 58.2489090
98.6738434 -68.6213379 57.2533188
100.2271881 -68.5555725 57.6341896
101.8008270 -68.5202026 57.7326279
103.4343643 -68.5098267 57.5703163
