97.3920593 81.6973572 -179.9936676
97.8560410 81.6844330 -179.8335571
98.3646240 81.6775665 -179.7646179
98.8644104 81.6735001 -179.7361908
99.3721695 81.6801910 -179.8654938
99.8753281 81.6838226 -179.9499054
100.3952484 81.6935425 -180.1242065
96.3308945 81.2153931 -179.2894440
96.8316422 81.1671753 -179.1016083
97.3238754 81.1334076 -178.9637146
97.8062210 81.1249619 -178.8905182
98.2880630 81.1290283 -178.8667603
98.7856903 81.1182098 -178.8499451
99.3014069 81.1076126 -178.8825378
99.8046951 81.1449203 -179.0073547
100.3138123 81.1653900 -179.0908661
100.8353348 81.1630707 -179.1390686
101.7973251 80.6454697 -178.7162476
102.3588257 80.6815414 -179.0354004
93.7796707 80.2209854 -179.1247864
94.2651978 80.1567764 -178.7536163
101.7097397 80.0306091 -177.9362183
102.2700729 80.0689850 -178.2013550
102.8271408 80.1106796 -178.5019836
103.3933487 80.1683884 -178.8819580
93.2734528 79.6626511 -178.7522888
103.8433762 79.6465912 -178.4685822
92.7438431 79.1667023 -178.5242462
93.2370682 79.1018066 -178.1083679
103.7498550 79.0522003 -177.7672424
104.2636032 79.0908203 -178.1071625
104.8240051 79.1442184 -178.5587769
92.2348022 78.6321716 -178.3157654
104.7216949 78.5916061 -177.9600677
105.2985306 78.6376953 -178.4318237
91.7145844 78.1568680 -178.2648773
92.2062225 78.1071167 -177.8128357
104.6547852 78.0117340 -177.3813019
105.2066116 78.0522919 -177.7874908
91.2235565 77.6433411 -178.2287140
105.7176743 77.5722809 -177.7799072
106.3315887 77.6397324 -178.3954468
106.9132080 77.6797409 -179.0215302
90.7370148 77.1485443 -178.2814789
91.1792679 77.1250076 -177.8169403
105.6717834 77.0349121 -177.3400574
106.2570038 77.0796814 -177.8749695
90.3204575 76.6488266 -178.3326874
106.7880859 76.6115112 -177.9071655
90.2345810 76.1403122 -177.9747467
106.7504883 76.0827332 -177.4944000
90.2053299 75.6249390 -177.6342316
106.6804962 75.5436478 -177.1241913
107.2743225 75.6045151 -177.6877136
90.1757202 75.1152191 -177.3427887
106.6470490 75.0259628 -176.8311157
107.2082596 75.0696182 -177.3321533
107.7437439 74.5977173 -177.5658264
107.7294006 74.0897903 -177.3409271
89.2294006 73.6451416 -177.6306305
88.7315216 73.1859283 -178.0313110
89.2181854 73.1410828 -177.4392242
88.1860275 72.7369232 -178.5605621
88.2241745 72.2210999 -178.3811493
88.1720810 71.7283859 -178.3477936
108.8251038 71.6367416 -177.8618622
88.1579819 71.2291107 -178.2917023
108.8135223 71.1350327 -177.7738647
88.1981125 70.7229538 -178.1911774
108.7734375 70.6281204 -177.6856689
88.2058411 70.2245636 -178.1623230
108.7900391 70.1362915 -177.6979065
88.2147827 69.7289810 -178.1700745
108.7969360 69.6426544 -177.7349243
88.2099838 69.2365570 -178.2268677
108.7986603 69.1503601 -177.7963104
88.1934586 68.7454224 -178.3279419
108.8105927 68.6592712 -177.8928833
88.2010880 68.2520599 -178.4355011
88.2205811 67.7612686 -178.5583954
88.2082062 67.2694473 -178.7440948
88.7458191 66.7607346 -178.3018036
89.2420120 66.7341156 -177.7261658
107.7022476 66.6629639 -177.3297729
108.3048553 66.6806030 -177.9459534
88.7724609 66.3482285 -178.4953003
107.7376556 66.1762695 -177.5741882
89.7615204 65.7541580 -177.6441956
90.2085876 65.7227554 -177.1774750
89.3255234 65.3436584 -178.4839172
89.8118210 65.2850342 -177.9327087
90.2274780 65.2396774 -177.4567871
89.8469925 64.7881393 -178.2174377
90.2721786 64.7685699 -177.7163391
106.7224426 64.6964188 -177.4523315
107.2977371 64.7089386 -177.9809418
89.8338318 64.2944336 -178.5697174
90.2939682 64.2899094 -178.0469818
106.7782440 64.2114639 -177.8456879
90.2776413 63.7737236 -178.4625702
106.8158569 63.7506104 -178.2663116
107.4062653 63.7397537 -178.8557892
90.2859268 63.2878494 -178.8426819
106.8730240 63.2662773 -178.7662964
90.7694168 62.7922745 -178.7739105
91.2479477 62.7902145 -178.3282776
105.7494659 62.7678947 -178.1672058
106.3577347 62.7680435 -178.7389069
91.2550049 62.2844200 -178.7892151
105.8179398 62.2832527 -178.7285614
91.7475357 61.7877350 -178.9308014
92.2673340 61.8035965 -178.4932251
104.7393723 61.7969398 -178.3127289
105.3156509 61.7939034 -178.8064423
105.9091415 61.7827911 -179.3723450
92.2944717 61.3065376 -179.0242615
104.8504333 61.2894402 -178.9881897
103.8404922 60.8168488 -178.8397217
104.3556519 60.8238831 -179.1904449
103.9119415 60.3144569 -179.5332336
92.9155273 59.8795700 -180.7714386
93.4026947 59.8895950 -180.3424377
93.8685608 59.9045334 -179.9772644
94.3645172 59.8903847 -179.6325836
99.8125992 59.8074646 -178.4607391
100.2735977 59.8589783 -178.5048065
101.3215408 59.8044167 -178.8757935
101.8560257 59.8298569 -179.0374908
102.3845367 59.8275032 -179.2760620
96.9468384 58.9533615 -180.1445923
97.4086990 58.9317818 -180.0802612
97.0312347 58.4250031 -181.2080078
97.4728928 58.4199486 -181.0638275
-150.9166107 -84.3637390 -170.0466919
-150.4238586 -84.3552551 -170.1261139
-149.9458313 -84.3611069 -170.1972198
-149.4803314 -84.3534775 -170.3140869
-148.9680634 -84.3662720 -170.4389496
-148.4675293 -84.3857346 -170.6372375
-147.9971313 -84.3997116 -170.9112091
-147.5498962 -84.4081497 -171.2534332
-147.0988617 -84.4304733 -171.5812225
-151.2796173 -84.8366547 -169.1204681
-150.7765961 -84.8427963 -169.1432190
-148.3708191 -84.8693466 -169.6770172
-147.9011383 -84.8721237 -169.9402771
-147.4441376 -84.8794632 -170.1997223
-153.2596893 -85.3021851 -168.7141724
-152.7323761 -85.3051910 -168.5709076
-151.1686096 -85.2940674 -168.3083191
-150.6701965 -85.2884216 -168.3231506
-148.2756348 -85.2925034 -168.8572083
-147.7869110 -85.3095932 -169.0622406
-147.3059387 -85.3301239 -169.2459564
-146.8445892 -85.3051682 -169.5045319
-146.3873138 -85.2979202 -169.8182373
-145.9258575 -85.3077393 -170.2308502
-145.4704132 -85.3554230 -170.6476288
-144.9988556 -85.3840332 -171.2145996
-146.2988892 -85.7808990 -169.0260010
-145.8446350 -85.8226166 -169.3497925
-144.4555206 -85.8611145 -170.7521210
-144.0247955 -85.9061279 -171.3725739
-155.1666870 -86.2988892 -168.0948792
-154.6073151 -86.2856674 -167.8392944
-146.2200470 -86.2449265 -168.2762604
-145.7681427 -86.2687225 -168.6044922
-144.3975372 -86.3349380 -169.8921204
-144.3015442 -86.7602005 -169.1712494
-143.8188934 -86.7589035 -169.5979919
-156.6543732 -87.3089218 -167.8228302
-156.0827179 -87.2834320 -167.4388428
-155.5366821 -87.2452545 -167.1185303
-144.2331543 -87.2230759 -168.5105591
-143.7736664 -87.2281418 -168.9512482
-143.3126831 -87.2326965 -169.4178619
-157.5341644 -88.3274307 -167.4204407
-142.2676544 -88.2210464 -169.2674713
-142.2472687 -88.6856766 -168.7716980
-158.6022949 -89.3319550 -167.3920898
-142.2378998 -89.1720200 -168.2879486
-141.7534485 -89.1931763 -168.8540344
-157.8669586 -89.7487946 -166.4592743
-157.3407135 -89.7139206 -166.0332489
-141.2507324 -89.7124786 -169.0857086
-157.3091125 -90.1735229 -165.6580811
-141.2296143 -90.1988678 -168.6283264
-158.9351349 -91.2617264 -166.2596588
-158.3231964 -91.2196579 -165.7807770
-140.2378387 -91.7103958 -168.8007660
-159.4530945 -92.2655945 -166.1963959
-140.2212982 -92.1968689 -168.5609283
-139.7736206 -92.2462311 -169.2175903
-159.4020081 -92.7537079 -165.9627838
-159.3752747 -93.2442169 -165.7811737
-140.1805573 -93.6616211 -167.9266205
-139.7160950 -93.7074127 -168.5603638
-139.2673187 -93.7245712 -169.0365601
-140.1494598 -94.1520157 -167.8156586
-139.7161407 -94.1941376 -168.4158173
-140.1262970 -94.6466827 -167.7184601
-140.1163788 -95.1421890 -167.6244659
-139.6722565 -95.1950684 -168.2250214
-159.9010468 -97.8157959 -165.7694244
-159.3062592 -97.7489243 -165.2669983
-140.1160736 -97.6669922 -167.6068878
-139.6563416 -97.7295227 -168.2256317
-140.1245575 -98.1884918 -167.6882782
-139.6923523 -98.2227936 -168.2189484
-140.1139679 -98.7160492 -167.8292389
-139.6556854 -98.7288742 -168.3073578
-159.3853149 -99.3175812 -165.7007141
-140.1283417 -99.2486725 -168.0111237
-139.6546631 -99.2363815 -168.4457550
-159.4372406 -99.8581238 -165.9274445
-158.8194885 -99.7747955 -165.3865356
-158.2300873 -99.7102051 -164.9081421
-140.1655273 -99.7793274 -168.2065430
-158.2927094 -100.2521133 -165.0932159
-157.2573547 -101.7421722 -165.0904236
-141.1996307 -101.7877960 -168.1237640
-157.8952332 -102.3675613 -165.8489227
-157.3235168 -102.3024368 -165.4236145
-156.8336029 -102.7996979 -165.3885956
-156.2686768 -102.7210541 -165.0641632
-142.1721649 -102.7608490 -167.7071228
-141.7220001 -102.8398285 -168.3164215
-156.3677979 -103.3219376 -165.5003510
-142.2256317 -103.3287354 -168.1770782
-155.9023132 -103.8349991 -165.6532593
-155.3161316 -103.7509155 -165.3358154
-143.1575775 -103.7831573 -167.6050568
-142.7165222 -103.8545151 -168.1472015
-155.4123688 -104.3352127 -165.8470001
-143.2243347 -104.3591843 -168.1432648
-155.5049438 -104.9258804 -166.4051971
-144.1489868 -104.8386536 -167.7794800
-143.7165985 -104.8751144 -168.2179565
-154.5749359 -106.0102234 -167.1307220
-154.0174408 -105.9463272 -166.8631744
-153.4857941 -105.8861618 -166.6534882
-152.9748230 -105.8348923 -166.4887848
-152.4425964 -105.7952652 -166.3260345
-151.9296417 -105.7900772 -166.2003479
-151.4167633 -105.7681656 -166.1251068
-146.1170959 -105.8493805 -167.4995422
-145.6590424 -105.9170837 -167.8616333
-153.6304016 -106.5212173 -167.4405060
-151.5308380 -106.3315964 -166.7996063
-151.5858917 -106.9955292 -167.6427612
-151.1227417 -106.9702530 -167.5536041
-150.6352692 -106.9891891 -167.5698242
-150.1618347 -106.9956055 -167.6276855
-149.6829224 -106.9393768 -167.6674652
-149.1904449 -106.9251862 -167.7614136
-148.6875763 -106.9374313 -167.8678741
-148.1950836 -106.9617310 -168.0113678
-147.7110291 -107.0327301 -168.2905579
-149.8209991 -107.6247711 -168.6692963
-149.3386688 -107.6231232 -168.7438354
95.0049744 80.3957672 -178.6772461
96.0029678 80.3383713 -178.1781006
96.9860992 80.3131866 -177.8538055
97.9422302 80.2918243 -177.6787567
98.9407730 80.2855225 -177.6773682
99.9615784 80.2995300 -177.8229675
100.9634705 80.3047791 -178.0184937
93.9581985 79.3357086 -177.9223480
94.9113693 79.2955017 -177.3513794
95.8965149 79.2783356 -176.9371033
96.8768616 79.2474899 -176.6337585
97.8319092 79.2375946 -176.4839478
98.8334427 79.2254257 -176.4550476
99.8598862 79.2247391 -176.5484467
100.8538971 79.2294617 -176.7478790
101.8879395 79.2275009 -177.0885468
102.9780731 79.2949066 -177.6645203
92.9399414 78.3290100 -177.4913635
93.8688507 78.2861481 -176.8594818
94.8325577 78.2388000 -176.3332825
95.8231201 78.2223282 -175.9656982
96.8035431 78.2027283 -175.7123871
97.7664185 78.1915970 -175.5735168
98.7730789 78.1849136 -175.5426025
99.7809601 78.1805420 -175.6098633
100.7705078 78.1932068 -175.7910767
101.8090363 78.1984482 -176.0804291
102.8740387 78.2139511 -176.5173035
103.9085312 78.2410507 -177.0985718
91.9206467 77.3260803 -177.3360443
92.8668823 77.2891312 -176.6065674
93.8026657 77.2489166 -176.0252228
100.7162628 77.1621704 -175.0337219
101.7325745 77.1679001 -175.2802582
102.7881927 77.1836472 -175.6522827
103.8310471 77.2072067 -176.1780701
104.8548126 77.2427216 -176.8637543
90.9200897 76.3520432 -177.4433899
91.8510208 76.2992630 -176.5896606
92.8160400 76.2511139 -175.8895721
93.7566528 76.2178040 -175.3618469
100.6617813 76.1321182 -174.4087067
101.6860886 76.1425018 -174.6399841
102.7365723 76.1573105 -174.9791260
103.7674103 76.1829147 -175.4478455
104.7991104 76.2147675 -176.0859985
105.8807373 76.2565613 -176.9252777
90.8731079 75.3260345 -176.7895203
91.8124237 75.2748871 -175.9890900
92.7824707 75.2263489 -175.3371277
93.7268066 75.1906357 -174.8499298
102.6892700 75.1416931 -174.4675903
103.7221680 75.1643448 -174.9081726
104.7474136 75.1958847 -175.4825439
105.8170700 75.2309036 -176.2514343
89.9207153 74.3637772 -177.2015991
90.8279266 74.3096542 -176.3009491
91.7839813 74.2563324 -175.5433044
92.7503815 74.2215729 -174.9498596
93.6851044 74.1941833 -174.4851074
102.6573334 74.1315842 -174.0797424
103.6890030 74.1604843 -174.5081329
104.7027969 74.1799164 -175.0262909
105.7783890 74.2202759 -175.7540283
106.8747330 74.2759933 -176.6712646
89.8918686 73.3550110 -176.7906647
90.8049698 73.2990417 -175.9402313
91.7546005 73.2550583 -175.2304230
92.7327118 73.2137299 -174.6390076
93.6638489 73.1872025 -174.1800842
100.5662766 73.1014862 -173.2466431
101.5946350 73.1165924 -173.4707031
102.6315536 73.1289444 -173.7893372
103.6597900 73.1539078 -174.1972351
104.6818008 73.1801758 -174.7009583
105.7549820 73.2169495 -175.3775177
106.8230743 73.2557678 -176.2281036
107.9595184 73.3325043 -177.2842560
88.9445190 72.4116211 -177.5538788
89.8788757 72.3460464 -176.5010986
90.7948303 72.2958527 -175.6897430
91.7480011 72.2494812 -174.9938965
92.7188187 72.2135162 -174.4163971
93.6625137 72.1833572 -173.9623108
100.5616989 72.1105804 -173.0776672
101.5807343 72.1205444 -173.2887268
102.6199417 72.1326523 -173.5884247
103.6392059 72.1532211 -173.9774323
104.6509705 72.1782837 -174.4665833
105.7272186 72.2125549 -175.1092224
106.8113632 72.2589417 -175.9494476
107.9124603 72.3197098 -176.9756927
88.9325638 71.4121399 -177.3767548
89.8682861 71.3486786 -176.3446198
104.6492920 71.1881714 -174.3470612
105.7151108 71.2212601 -174.9750061
106.8007050 71.2651062 -175.7963409
107.8854523 71.3221130 -176.8220215
88.9278183 70.4188614 -177.3073120
89.8612976 70.3579254 -176.2941589
104.6456909 70.2018890 -174.3166046
105.7212830 70.2342529 -174.9433899
106.8067245 70.2766876 -175.7423401
107.8764496 70.3296967 -176.7445984
88.9357605 69.4322281 -177.3447723
89.8568039 69.3722687 -176.3432159
90.7943878 69.3244629 -175.5266266
91.7393112 69.2836914 -174.8692322
98.5568314 69.1511154 -172.8617706
99.5748062 69.1497498 -172.8936462
100.5656738 69.1534119 -173.0004883
101.5860138 69.1617355 -173.2023315
106.8078384 69.2939529 -175.7869720
107.8879471 69.3481216 -176.8033295
88.9554291 68.4517975 -177.4830933
89.8857880 68.3917236 -176.4706726
90.7985687 68.3448334 -175.6847687
91.7514954 68.3047485 -175.0130310
98.5712128 68.1741562 -172.9794769
99.5741806 68.1729965 -173.0029602
100.5699921 68.1764679 -173.1194000
101.6005630 68.1852722 -173.3290253
106.8283463 68.3173523 -175.9628906
107.9179382 68.3720245 -177.0027008
88.9657745 67.4767151 -177.7606201
89.9051132 67.4185562 -176.7323608
90.8168640 67.3696289 -175.9255066
91.7673645 67.3284302 -175.2378540
104.6890564 67.2687531 -174.7458496
105.7690735 67.3043594 -175.4108582
106.8454590 67.3483582 -176.2388458
107.9601746 67.3978958 -177.3186951
89.9346313 66.4489059 -177.0857849
90.8423920 66.4010620 -176.2496948
91.7949829 66.3594208 -175.5417328
104.7291412 66.2984009 -175.0966492
105.8079147 66.3375244 -175.7890778
106.8884888 66.3861847 -176.6554413
90.8806381 65.4395447 -176.6889038
91.8254166 65.3943100 -175.9621582
92.8052521 65.3597488 -175.3576965
93.7510223 65.3329620 -174.8860931
100.6565247 65.2700272 -174.0123291
101.6727142 65.2804871 -174.2255554
102.7150497 65.2974091 -174.5529785
103.7323074 65.3181915 -174.9767761
104.7681274 65.3401184 -175.5443726
105.8589325 65.3768463 -176.2890320
106.9612503 65.4219513 -177.2189026
90.9325790 64.4842072 -177.2564087
91.8743439 64.4342499 -176.4909973
92.8378983 64.3962173 -175.8570709
93.7891846 64.3691559 -175.3529663
100.6993103 64.3128128 -174.4827118
101.7240829 64.3185120 -174.7273865
102.7708435 64.3301468 -175.0849304
103.7938156 64.3533630 -175.5321808
104.8107758 64.3895264 -176.1066284
105.9002533 64.4293976 -176.9051514
90.9733429 63.5155144 -177.9776917
91.9246445 63.4895096 -177.1440125
92.8880844 63.4456902 -176.4701233
93.8337402 63.4115295 -175.9564667
94.8048477 63.3872757 -175.5627594
95.7977676 63.3731079 -175.2455750
100.7527390 63.3537407 -175.0781708
101.7786331 63.3642578 -175.3351593
102.8160477 63.3862686 -175.7018280
103.8415375 63.4069481 -176.1975861
104.8829041 63.4278908 -176.8608093
105.9677124 63.4863968 -177.7059326
91.9812622 62.5341415 -177.9638519
92.9501648 62.4983444 -177.2658691
93.8943939 62.4677811 -176.6981659
94.8496246 62.4416275 -176.2762146
95.8488312 62.4200287 -175.9459534
100.8107300 62.4066238 -175.8029785
101.8444443 62.4087715 -176.0983124
102.8940430 62.4324265 -176.5133362
103.9230194 62.4590530 -177.0577087
104.9547424 62.5020180 -177.7514191
93.0173340 61.5517349 -178.2257080
93.9678650 61.5267220 -177.6110382
94.9225540 61.4979553 -177.1566315
95.9143829 61.4794769 -176.7981567
96.8897705 61.4662209 -176.5599365
97.8503418 61.4528008 -176.4450836
98.8684311 61.4537010 -176.4081726
99.8903503 61.4533043 -176.4917297
100.8875122 61.4603653 -176.6933594
101.9151459 61.4872894 -177.0032959
102.9862671 61.4948959 -177.5000916
104.0024796 61.5309525 -178.0820160
93.1045074 60.6147881 -179.4220276
94.0554047 60.6076431 -178.7481079
95.0084000 60.5507622 -178.2553101
95.9842911 60.5335045 -177.8436737
96.9612427 60.5211830 -177.5857697
97.9415588 60.5134239 -177.4645081
98.9483719 60.5121460 -177.4372406
99.9673843 60.5208893 -177.5485229
100.9730682 60.5415688 -177.7959747
102.0191040 60.5489273 -178.1683502
103.0860748 60.5638008 -178.6852875
97.0694275 59.6003723 -178.9052277
98.0382538 59.5984802 -178.7696838
99.0579300 59.6012001 -178.7290497
98.1616135 58.6700745 -180.4696808
99.1905823 58.6604614 -180.4929199
-152.0136719 -85.0616455 -168.8336029
-150.0155640 -85.0536957 -168.8332367
-149.0553436 -85.0769577 -168.9880219
-153.8765717 -86.0220566 -167.8804016
-152.8358154 -85.9989243 -167.5397339
-151.8036499 -85.9571152 -167.3612671
-150.7919464 -85.9388351 -167.3038788
-149.8205261 -85.9196167 -167.3981934
-148.8583679 -85.9289703 -167.5659790
-147.8858948 -85.9507446 -167.8864288
-146.9447327 -85.9810486 -168.2899933
-145.1220703 -86.0879211 -169.6006165
-154.7364197 -86.9852295 -167.0030365
-153.6902924 -86.9223328 -166.6252289
-152.6781006 -86.8845825 -166.3534393
-151.6527100 -86.8553848 -166.2040710
-150.6513977 -86.8348083 -166.1856842
-149.6804352 -86.8350677 -166.2479248
-148.7162018 -86.8286591 -166.4197083
-147.7253876 -86.8425598 -166.7067719
-146.7907867 -86.8613205 -167.0915375
-145.8682098 -86.8913574 -167.5879669
-144.9474182 -86.9587173 -168.2535553
-156.7861328 -88.0295029 -167.1513519
-155.6888123 -87.9506683 -166.4687653
-154.5888977 -87.8907318 -165.9338074
-153.5535889 -87.8379059 -165.5997009
-152.5497742 -87.7941513 -165.3834229
-151.5282440 -87.7766953 -165.2460480
-150.5274353 -87.7443695 -165.2481689
-147.6073914 -87.7589798 -165.7387848
-146.6634674 -87.7707596 -166.1117249
-145.7446747 -87.8096390 -166.5547180
-144.8112946 -87.8519974 -167.1805115
-143.8960266 -87.9118195 -167.9523773
-142.9993896 -87.9625320 -168.7911224
-157.7213440 -89.0419846 -166.9150696
-156.6127930 -88.9557037 -166.1161499
-155.5650024 -88.8675842 -165.5335999
-154.4835358 -88.8090363 -165.0793610
-153.4391327 -88.7636719 -164.7670593
-152.4389496 -88.7312927 -164.5572205
-151.4173889 -88.7093430 -164.4371033
-150.4109192 -88.6832428 -164.4459076
-147.4998169 -88.6909637 -164.9403229
-146.5613556 -88.7072372 -165.2833405
-145.6386261 -88.7359772 -165.7220612
-144.7042389 -88.7807693 -166.2984161
-143.7889709 -88.8363953 -167.0090790
-142.9199219 -88.8967972 -167.8171692
-156.5055847 -89.8781891 -165.3098450
-155.4474182 -89.8077240 -164.7650909
-154.3734283 -89.7549896 -164.3686066
-153.3562317 -89.6993866 -164.0983429
-152.3538513 -89.6723480 -163.8938751
-149.3610229 -89.6207581 -163.8817139
-148.3894348 -89.6270447 -164.0360107
-145.5497284 -89.6758804 -165.0615540
-144.6135559 -89.7165604 -165.6019897
-143.6913757 -89.7646484 -166.2605896
-142.8197632 -89.8314133 -167.0383301
-141.9486847 -89.9084625 -167.9889374
-157.5090790 -90.9053802 -165.3398285
-156.4322510 -90.8189163 -164.6708221
-155.3667450 -90.7548523 -164.1571350
-154.3034363 -90.7014389 -163.7859497
-153.2597046 -90.6604004 -163.5021820
-152.2739563 -90.6254120 -163.3367310
-149.2872009 -90.5832825 -163.3440247
-148.3267212 -90.5814362 -163.5132751
-145.4808807 -90.6324081 -164.5009766
-144.5330811 -90.6639557 -165.0343475
-143.6125336 -90.7120819 -165.6548309
-142.7353668 -90.7724609 -166.4029083
-141.8576355 -90.8518524 -167.3081360
-140.9375153 -90.9245224 -168.3829651
-158.5471344 -91.9573822 -165.5805359
-157.4301300 -91.8574829 -164.7796783
-156.3557281 -91.7782440 -164.1428833
-155.2967682 -91.7153702 -163.6646118
-154.2397766 -91.6618347 -163.3113403
-143.5555115 -91.6718597 -165.1562042
-142.6713409 -91.7268982 -165.8730927
-141.7906342 -91.8026886 -166.7292328
-140.8980103 -91.8876190 -167.7908173
-158.5017242 -92.9217300 -165.1549225
-157.3662720 -92.8224106 -164.3426208
-156.2949982 -92.7468948 -163.7434235
-155.2468567 -92.6863251 -163.2988281
-154.1996307 -92.6314240 -162.9561462
-143.5105286 -92.6422272 -164.7757568
-142.6233215 -92.6952438 -165.4657288
-141.7285004 -92.7664795 -166.3032379
-140.8436584 -92.8585663 -167.3441620
-139.9796295 -92.9524078 -168.5330658
-159.6218872 -94.0106888 -165.7951965
-158.4389954 -93.8978653 -164.8077087
-157.3273010 -93.8001099 -164.0330200
-156.2664337 -93.7258301 -163.4723816
-143.4688416 -93.6197968 -164.4990845
-142.5875244 -93.6729050 -165.1631165
-141.6891632 -93.7418442 -165.9902344
-140.8053894 -93.8316422 -167.0137177
-159.5834198 -94.9986877 -165.5608826
-158.4199371 -94.8842087 -164.5971985
-157.2857056 -94.7870255 -163.8160858
-156.2384033 -94.7129745 -163.2665100
-143.4525452 -94.6074753 -164.2930450
-142.5602417 -94.6595764 -164.9522705
-141.6660919 -94.7278748 -165.7766418
-140.7746429 -94.8186188 -166.8056030
-159.5651550 -95.9974213 -165.4391479
-158.3955078 -95.8802490 -164.4782104
-157.2849731 -95.7850876 -163.7160339
-156.2208862 -95.7098999 -163.1513672
-143.4358215 -95.6041031 -164.1845093
-142.5569763 -95.6537781 -164.8279419
-141.6441803 -95.7267075 -165.6736755
-140.7624512 -95.8142700 -166.6783142
-139.9028168 -95.9175262 -167.8138885
-159.5820007 -97.0132904 -165.4583435
-158.4122925 -96.8912201 -164.5022583
-157.2861938 -96.7923431 -163.7148895
-156.2236023 -96.7158432 -163.1360626
-143.4322052 -96.6119003 -164.1664276
-142.5416260 -96.6642151 -164.8299561
-141.6510468 -96.7297363 -165.6397400
-140.7660370 -96.8202667 -166.6568146
-139.8841095 -96.9325180 -167.8366547
-158.4334412 -97.9135590 -164.6194763
-157.3002319 -97.8109741 -163.8279419
-156.2426910 -97.7358932 -163.2290039
-155.1872711 -97.6671753 -162.7592163
-154.1202850 -97.6132660 -162.4105988
-147.1762238 -97.5015640 -162.4478302
-146.2349701 -97.5158539 -162.7522278
-141.6635742 -97.7480774 -165.7324066
-140.7683105 -97.8457184 -166.7950745
-158.4702606 -98.9509430 -164.8921204
-157.3334045 -98.8449860 -164.0679169
-156.2593384 -98.7618866 -163.4216156
-155.2185364 -98.6965027 -162.9413452
-154.1455688 -98.6366882 -162.5703278
-147.2016602 -98.5156555 -162.5656433
-146.2565918 -98.5424042 -162.8939819
-141.6864929 -98.7812805 -165.9532776
-140.8038177 -98.8794861 -167.0329895
-157.3913574 -99.8900604 -164.3939667
-156.3000641 -99.7979965 -163.7174988
-155.2494202 -99.7278137 -163.2061768
-154.1824646 -99.6726227 -162.8265686
-143.4946442 -99.6895142 -164.6754150
-142.6116943 -99.7466660 -165.3876648
-141.7416992 -99.8228989 -166.2860413
-140.8576355 -99.9298248 -167.4183197
-157.4713898 -100.9632263 -164.8316803
-156.3522644 -100.8463898 -164.1366882
-155.3132782 -100.7803192 -163.6116028
-154.2426605 -100.7232056 -163.2105408
-143.5474854 -100.7350006 -165.0550995
-142.6654510 -100.8052979 -165.8187714
-141.8003693 -100.8910904 -166.7811584
-140.9143677 -101.0107269 -167.9785614
-156.4532776 -101.9292603 -164.7214050
-155.3946533 -101.8438339 -164.1604919
-154.3177795 -101.7859879 -163.7175598
-153.2643280 -101.7320709 -163.3841248
-152.2693024 -101.6931305 -163.1816406
-147.3396149 -101.6473160 -163.5637512
-146.3950653 -101.6644897 -163.8861847
-145.4699707 -101.6944809 -164.3200989
-144.5309296 -101.7509079 -164.8980408
-143.6193237 -101.7974014 -165.5569153
-142.7488251 -101.8718796 -166.3618164
-141.8869781 -101.9636917 -167.3902283
-155.4925537 -102.9274445 -164.8451843
-154.3938904 -102.8476868 -164.3429565
-153.3614960 -102.8090515 -163.9939117
-152.3478241 -102.7633057 -163.7587738
-147.4149475 -102.7146759 -164.1191711
-146.4692688 -102.7467499 -164.4715576
-145.5477753 -102.7780685 -164.9266815
-144.6116638 -102.8253098 -165.5269318
-143.7071533 -102.8760071 -166.2339783
-142.8523407 -102.9595795 -167.1268158
-154.5187683 -103.9589691 -165.1962128
-153.4589386 -103.8914337 -164.7753601
-152.4458618 -103.8556061 -164.5085449
-151.4328003 -103.8236847 -164.3567657
-150.4211578 -103.8008270 -164.3186340
-147.5018311 -103.8069687 -164.8352203
-146.5627747 -103.8236847 -165.1894684
-145.6502380 -103.8549347 -165.6742401
-144.7291260 -103.9217072 -166.3499451
-143.8389282 -103.9949417 -167.1637268
-154.6797333 -105.1133194 -166.2587585
-153.5917053 -105.0092926 -165.7977142
-152.5815277 -104.9602203 -165.4796600
-151.5619659 -104.9318695 -165.2871094
-150.5458221 -104.9041672 -165.2201538
-147.6296234 -104.9149170 -165.7546997
-146.6887207 -104.9430847 -166.1571960
-145.7799530 -104.9947968 -166.7264404
-144.8679504 -105.0633545 -167.4470520
-150.7203674 -106.0395508 -166.4313660
-149.7421722 -106.0226135 -166.4694519
-148.7827148 -106.0295410 -166.6573944
-147.7938385 -106.0547104 -166.9822388
-146.8573608 -106.1066742 -167.4364014
95.2388840 76.6845856 -175.0776062
97.1912766 76.6482697 -174.6098633
99.1859512 76.6351471 -174.5323181
95.1670914 74.6512680 -174.1055908
97.1198120 74.6188507 -173.6648407
99.1147232 74.6053314 -173.5713959
101.1161575 74.6157227 -173.8304443
95.1268082 72.6466141 -173.5367584
97.0753250 72.6163406 -173.1269226
99.0715866 72.6051941 -173.0411377
91.2564697 70.7844391 -175.1886139
93.1795959 70.7125854 -174.0542297
95.1140976 70.6640167 -173.3178864
97.0682526 70.6341248 -172.9066162
99.0592499 70.6247406 -172.8363190
101.0634537 70.6309509 -173.0580139
103.1191788 70.6593094 -173.6457520
93.1927490 68.7455750 -174.1394653
95.1291504 68.6995773 -173.4133301
97.0796509 68.6719055 -173.0224762
103.1347580 68.6964645 -173.7523041
105.1981735 68.7475510 -174.7521820
93.2280731 66.7962952 -174.5840149
95.1675568 66.7521210 -173.8521118
97.1159973 66.7257614 -173.4327393
99.1107407 66.7160721 -173.3482819
101.1196213 66.7238998 -173.5933380
103.1707535 66.7517242 -174.1973572
95.2342529 64.8213196 -174.5846863
97.1797333 64.7928925 -174.1757813
99.1796494 64.7862701 -174.1040955
97.2740936 62.8797302 -175.3238831
99.2791901 62.8726196 -175.2684937
-149.0183411 -88.2131348 -165.0007782
-150.7954102 -90.1156845 -163.5316772
-146.9109497 -90.1178436 -164.1994781
-152.6828156 -92.0898285 -162.7890930
-150.6798706 -92.0434647 -162.6533508
-148.7324677 -92.0278320 -162.8084259
-146.7933350 -92.0455551 -163.3130035
-144.9226685 -92.0946350 -164.1089172
-154.6742554 -94.1319122 -162.7497711
-152.6155701 -94.0481796 -162.2525940
-150.6078491 -94.0023346 -162.1230469
-148.6612549 -93.9867096 -162.2807159
-146.7285156 -94.0041504 -162.7729797
-144.8550262 -94.0520248 -163.5466156
-154.6462555 -96.1226425 -162.5217133
-152.5885468 -96.0397339 -162.0429993
-150.5847778 -95.9925385 -161.9117279
-148.6415405 -95.9775543 -162.0760803
-146.7006683 -95.9957352 -162.5637970
-144.8331604 -96.0436096 -163.3381653
-152.6037750 -98.0651932 -162.1640625
-150.6019745 -98.0168915 -162.0173798
-148.6591187 -98.0019684 -162.1855164
-144.8481445 -98.0697937 -163.4585266
-143.0106201 -98.1642380 -164.6523743
-152.6764069 -100.1313248 -162.6484833
-150.6639709 -100.0792236 -162.4759521
-148.7206726 -100.0618057 -162.6213684
-146.7883606 -100.0813217 -163.1263123
-144.9183197 -100.1382523 -163.9611664
-150.7893066 -102.1876221 -163.3458557
-148.8370361 -102.1736984 -163.5036774
-149.0352325 -104.3502579 -164.9288940
