-157.1935272 -256.9206543 -177.0592041
-154.6925812 -256.9416809 -177.4799194
-159.1468048 -257.3406982 -176.4176025
-158.5946350 -257.2980957 -176.2406464
-158.0694885 -257.2739868 -176.1087646
-157.5526428 -257.2593689 -176.0536041
-157.0435638 -257.2548523 -176.0387726
-154.5641632 -257.2620850 -176.4830627
-154.0916138 -257.2707520 -176.6595154
-153.6186829 -257.3010864 -176.8867035
-153.1378632 -257.3482666 -177.2095337
-152.6408844 -257.4277649 -177.5239258
-152.1700134 -257.4835815 -177.9368286
-158.9650269 -257.6681519 -175.4735718
-159.3875275 -258.0372620 -174.7950897
-158.8560486 -257.9898987 -174.6406860
-150.6624756 -258.3645630 -177.2893982
-150.1963501 -258.4811707 -178.0496216
-160.9256592 -258.5653381 -174.7149506
-152.3465271 -258.3540649 -175.0013733
-151.8751221 -258.4159851 -175.3162842
-149.6304169 -258.8485107 -177.5826111
-161.3562012 -258.9647522 -174.2564545
-160.8210144 -258.8900757 -174.0083008
-152.2485352 -258.6741028 -174.2997742
-151.7749634 -258.7420959 -174.5649109
-149.5329742 -259.1730652 -176.6547089
-149.0714569 -259.2654114 -177.2533112
-162.8299866 -259.9675903 -173.9262085
-148.4370880 -260.0265808 -176.2591400
-148.3791046 -260.4037476 -175.6668396
-147.9318390 -260.5136108 -176.2849274
140.8267822 -251.6384583 -181.6415100
-163.7956696 -260.9060974 -173.4949951
-148.3361664 -260.7849731 -175.0692139
-147.8768463 -260.9003906 -175.6234436
-147.4033356 -261.0079041 -176.2071838
139.3101196 -252.1644745 -181.3984680
139.7713928 -252.0681915 -181.0874176
140.2441559 -252.0059814 -180.8479614
140.7183380 -251.9644012 -180.5972748
144.2028809 -251.7078705 -180.2178650
144.7509766 -251.6805420 -180.3410187
145.2977905 -251.6813507 -180.4781647
145.8416748 -251.6971283 -180.6392517
-147.3461761 -261.3775330 -175.6767731
137.9128876 -252.8895721 -182.2088928
138.3060913 -252.6983185 -181.5121613
138.7522888 -252.5710754 -180.8956299
147.3215942 -252.1202240 -180.4074402
-163.6576080 -261.6604614 -172.4876709
-147.2973022 -261.7580566 -175.1614990
-146.8338470 -261.8901978 -175.7859955
137.7377777 -253.1283112 -180.7388611
138.1809845 -252.9935303 -180.3919220
138.6492767 -252.8824463 -179.9717865
147.2249298 -252.4184570 -179.6976166
147.7916412 -252.4594421 -180.0006104
-146.3349457 -262.4248962 -175.9286804
146.0612946 -252.6834412 -178.4738312
146.5867310 -252.7184448 -178.6598816
148.2416687 -252.8205109 -179.5069580
148.7748871 -252.8894806 -179.8489685
-146.3070679 -262.8294067 -175.4628601
136.1482086 -254.0466614 -180.6247253
136.6327515 -253.9400024 -180.1048889
145.9829407 -253.0079041 -177.7626343
146.4855499 -253.0587006 -177.8752594
148.0664063 -253.1862793 -178.6808167
148.6868591 -253.2256165 -179.1021118
149.2739563 -253.2732697 -179.4839172
-164.6040192 -263.1056519 -172.0255280
-146.2704163 -263.2350159 -175.0618134
-145.8183899 -263.4044495 -175.8318787
-164.5536652 -263.5226135 -171.6736908
-146.2503662 -263.6461487 -174.6065979
-145.7823944 -263.7964172 -175.3206787
135.0989838 -255.0338287 -180.4715576
135.5967255 -254.8940735 -179.8343658
150.2082062 -254.0696869 -178.8694916
150.1118317 -254.4301147 -178.1966095
-145.2144470 -264.7826538 -175.2342834
134.5513153 -255.9197388 -179.8623199
150.0270691 -254.7813263 -177.6058655
-164.4328918 -264.8158875 -170.7740936
-145.1685486 -265.2160645 -174.9641266
134.5226593 -256.2889099 -179.3167877
-164.9700165 -265.3892822 -170.9383240
-164.4020844 -265.2660217 -170.5421448
-145.1958008 -265.6530457 -174.6012878
133.9985809 -256.8170471 -179.4409943
134.4678955 -256.6658630 -178.8611145
151.0630646 -255.6919708 -177.5162659
151.6820679 -255.8011627 -178.0709839
-145.1488495 -266.1106567 -174.4476166
-145.1500244 -266.5718689 -174.2608948
133.4668732 -257.7622070 -179.1828156
152.1437073 -256.6683655 -177.6396179
-145.0962219 -267.0549927 -174.1663971
133.4565582 -258.1679993 -178.7868347
152.0757141 -257.0498047 -177.1848602
-145.1010590 -267.5191040 -173.9884491
132.9556427 -258.7449951 -179.0853119
133.4437714 -258.5722351 -178.4322205
152.0063171 -257.4476318 -176.7490997
152.6313019 -257.5467529 -177.2912903
-145.0951233 -267.9927368 -173.8399048
132.8996582 -259.1649780 -178.8076172
133.3842316 -258.9874878 -178.1489868
151.9465942 -257.8494568 -176.3436890
-145.0805969 -268.4750977 -173.7376251
133.3468018 -259.4055481 -177.8521576
151.9186249 -258.2415771 -176.0122833
152.5317078 -258.3425598 -176.5219421
-145.0564117 -268.9722900 -173.6880188
133.3458252 -259.8272095 -177.5586700
153.0068512 -258.9047241 -176.7705383
153.7475281 -259.1010132 -177.6293488
-145.0514221 -269.4802856 -173.6730652
132.8709259 -260.4381104 -177.9333954
133.3527832 -260.2639771 -177.3196259
153.0299225 -259.3372498 -176.5618591
-145.0644379 -269.9934998 -173.6899261
152.9562378 -259.7539978 -176.2403412
-145.0753174 -270.5156555 -173.7356262
152.9618683 -260.1877441 -176.0319366
153.5940094 -260.3208923 -176.6297302
-164.8981781 -270.7557068 -169.9643707
-164.2739410 -270.5991211 -169.5178680
132.3773499 -262.5217590 -178.2211761
-164.3494415 -271.6847839 -169.6790161
-164.4029999 -272.7911682 -170.0109863
-146.9152069 -272.5971985 -171.7068634
-146.5142670 -272.7104187 -172.2709656
-146.0731964 -272.8914795 -172.9789276
-145.6112366 -273.0996704 -173.7514648
-164.4115448 -273.3236694 -170.1799622
-146.9561157 -273.1187439 -171.8512878
-146.5236511 -273.2986755 -172.5203400
-146.0805054 -273.5047302 -173.2661133
-163.9402161 -273.8310852 -170.0878296
-163.3380432 -273.6703796 -169.6437836
-147.8412628 -273.4502869 -171.0219421
-147.3908539 -273.5727234 -171.5101624
-146.9594421 -273.7225647 -172.0966797
-146.5324707 -273.8905029 -172.7963104
-146.0869141 -274.1136475 -173.5839233
-147.8677368 -274.0328064 -171.2582397
-147.4066925 -274.0928650 -171.6861572
-162.2869263 -274.5999146 -169.3718567
-147.8966522 -274.6629639 -171.6150360
152.9076385 -264.4157715 -175.1825714
-147.9714508 -275.2668762 -171.9928589
-147.5166168 -275.4425049 -172.6042328
133.2949371 -266.0524902 -176.7134857
152.9150848 -264.9183655 -175.2159424
-161.8340302 -275.6990356 -169.7098541
-161.2729492 -275.5793152 -169.4352264
-148.9310760 -275.6061401 -171.3355713
-148.4676361 -275.7373047 -171.8590240
-148.0112610 -275.9076843 -172.4380798
133.2761230 -266.6113586 -176.8912811
133.7553711 -266.4039001 -176.2592316
134.2173615 -266.2270813 -175.6912537
152.9521484 -265.4409790 -175.2969055
-161.3650208 -276.2257996 -169.8308563
-148.9720154 -276.2324524 -171.7699432
134.2362366 -266.7526550 -175.8037262
152.9656830 -265.9467773 -175.3673706
-160.8603363 -276.7472229 -169.9554291
-160.3125153 -276.6365051 -169.7199707
-159.7839203 -276.5354614 -169.5179443
-159.2365417 -276.4461670 -169.3175964
-149.0410767 -276.9326782 -172.2992859
134.2696991 -267.2819824 -175.9616089
133.7710571 -268.0696106 -176.8130341
134.2410126 -267.8828735 -176.2075348
-158.8056793 -277.7103271 -170.1430359
-158.3151703 -277.6227112 -169.9774475
-151.0084686 -277.7872620 -171.6141510
-150.5668488 -277.9154053 -172.0182343
134.7157135 -268.2702942 -175.8769531
135.2170410 -268.0759583 -175.3233032
151.8622589 -267.2931824 -174.7488708
-158.4299927 -278.3710938 -170.5846100
-151.0592499 -278.5516663 -172.2960510
135.2138519 -268.6528320 -175.5384216
151.9349670 -267.8746948 -174.9838104
-156.9761353 -278.8778992 -170.9088287
-156.4648438 -278.8313904 -170.9152985
-153.9597015 -278.8234253 -171.2927704
135.7347717 -269.0637512 -175.3470001
136.2099152 -268.9045410 -174.9424591
136.6505432 -268.7176819 -174.5465240
137.1447906 -268.5879211 -174.1158142
137.6371460 -268.4886780 -173.7865448
138.0940094 -268.3927917 -173.4516449
141.4127808 -267.9215393 -172.0653534
141.9116974 -267.8769531 -171.9647980
142.4122314 -267.8735657 -171.9016724
142.9026031 -267.8238525 -171.8449402
143.3919678 -267.7766724 -171.8073425
143.9028931 -267.7604675 -171.7989197
144.4193420 -267.7392883 -171.8084259
144.9303741 -267.7311096 -171.8432922
145.4421387 -267.7454834 -171.9109497
145.9456024 -267.7460022 -171.9980316
146.4555664 -267.7563171 -172.1105957
146.9849091 -267.7837830 -172.2594147
147.4980011 -267.8014221 -172.4280853
148.0348969 -267.8439026 -172.6410370
148.5771179 -267.8855286 -172.8843994
149.1435089 -267.9564209 -173.1749420
149.6971588 -268.0346069 -173.4841919
-156.5988464 -279.6492615 -171.7510223
-154.0826874 -279.6674500 -172.1647644
135.7784576 -269.6542664 -175.6818848
136.2004242 -269.4514771 -175.2988739
-156.3639526 -257.0783691 -176.5952911
-155.3627930 -257.0862122 -176.7827759
-158.1551056 -257.7628784 -174.9295197
-157.1434021 -257.7113953 -174.8199921
-156.1319885 -257.6801453 -174.8828430
-155.1402893 -257.6988220 -175.0345154
-154.1733704 -257.7318726 -175.3334656
-153.2188416 -257.8103638 -175.7599487
-152.2662354 -257.9240417 -176.3770447
-151.3421021 -258.0464478 -177.1122131
-160.0576172 -258.6154785 -174.0180511
-158.9736023 -258.4954834 -173.6660461
-157.9714813 -258.4074097 -173.5178528
-156.9432983 -258.3524170 -173.4095764
-155.9174500 -258.3308411 -173.4273224
-154.9260712 -258.3358459 -173.6151123
-153.9709473 -258.3744507 -173.8927002
-153.0169525 -258.4421082 -174.2685852
-151.1544495 -258.6961670 -175.4353180
-150.2809601 -258.8859863 -176.2824402
-162.0077515 -259.6312561 -173.6947937
-160.9371338 -259.4477844 -173.1573639
-159.8661804 -259.3044739 -172.7323914
-158.8117981 -259.1950073 -172.4557190
-157.8006744 -259.1093750 -172.3128815
-156.7838440 -259.0676270 -172.2324524
-155.7727661 -259.0364990 -172.2957611
-152.8576202 -259.1422119 -173.0677338
-151.9058228 -259.2282104 -173.5513306
-150.9748840 -259.3468323 -174.1319580
-150.0791321 -259.5159912 -174.8308105
-149.1735229 -259.7161255 -175.7883453
-162.9832764 -260.5579529 -173.2408600
-161.8488464 -260.3468933 -172.5467682
-160.7771912 -260.1737976 -172.0235596
-159.7233887 -260.0412292 -171.6657410
-158.6694946 -259.9464111 -171.4241333
-157.6483917 -259.8773804 -171.2946472
-156.6512146 -259.8263855 -171.2630463
-155.6288147 -259.8092651 -171.3059387
-152.7301941 -259.8928223 -172.0711823
-151.7669525 -259.9750671 -172.5066528
-150.8346252 -260.0697632 -173.0538940
-149.9243469 -260.2278748 -173.6739197
-149.0205078 -260.4223633 -174.5907135
141.4996948 -251.7111206 -180.8680725
142.5077057 -251.6385803 -180.7184906
143.5184326 -251.5717468 -180.7145081
-162.8172607 -261.3057861 -172.1622620
-161.7151642 -261.1013184 -171.5468445
-160.6620178 -260.9424744 -171.0988617
-159.5896606 -260.8272095 -170.7646484
-158.5538788 -260.7284546 -170.5503387
-157.5273743 -260.6641235 -170.4170990
-156.5317230 -260.6193848 -170.3954163
-155.5156555 -260.6010132 -170.4553223
-154.5371094 -260.6060791 -170.6210175
-153.5712738 -260.6324463 -170.8835297
-152.6063232 -260.6908569 -171.1968079
-151.6524353 -260.7648315 -171.6071472
-150.7255096 -260.8648071 -172.1269836
-149.8072510 -260.9960632 -172.7644043
-148.9048615 -261.1795959 -173.5655365
-148.0169373 -261.3973083 -174.5575867
139.3903656 -252.5775909 -179.9738770
140.3578949 -252.4235382 -179.5323639
141.3207855 -252.3155365 -179.2276306
142.3245392 -252.2381439 -179.0920105
143.3197327 -252.1930847 -179.0227051
144.3293152 -252.1692810 -179.0854950
145.3882141 -252.1907959 -179.2844391
146.4767761 -252.2175903 -179.7069092
-163.8238068 -262.3154907 -172.0118866
-162.7086487 -262.0906982 -171.2983704
-161.5900879 -261.9030762 -170.7067566
-160.5472565 -261.7578125 -170.3106842
-159.5075989 -261.6376953 -170.0196533
-158.4516602 -261.5484619 -169.7990570
-157.4373474 -261.4813538 -169.6856689
-156.4331512 -261.4395142 -169.6700897
-155.4238892 -261.4233704 -169.7419739
-154.4362793 -261.4344482 -169.8938751
-153.4769287 -261.4645081 -170.1253510
-152.5093079 -261.5073242 -170.4595642
-151.5591431 -261.5805054 -170.8658295
-150.6311340 -261.6752625 -171.3654633
-149.7070313 -261.8003235 -171.9746246
-148.7931824 -261.9689331 -172.7075195
-147.9071350 -262.1743774 -173.6095734
-147.0285034 -262.4234009 -174.6870117
137.3705750 -253.6106262 -179.8152771
138.2900085 -253.3833618 -179.1492462
139.2524109 -253.2068939 -178.5988617
140.2012482 -253.0652618 -178.2117767
141.1804657 -252.9619293 -177.9161835
142.1664429 -252.8777008 -177.7487183
143.1681213 -252.8272858 -177.6649323
144.1835022 -252.8017273 -177.7320404
145.2256165 -252.8161774 -177.9015350
147.3296204 -252.9376831 -178.6320801
-163.7031403 -263.1343384 -171.2345428
-162.5831299 -262.9115601 -170.5378113
-161.5075073 -262.7349243 -170.0210419
-160.4601135 -262.5982971 -169.6333160
-159.3995056 -262.4882507 -169.3344727
-150.5417786 -262.5195923 -170.6837006
-149.6163330 -262.6392212 -171.2809753
-148.6822052 -262.7905884 -172.0162811
-147.7931366 -262.9826965 -172.8579712
-146.9286041 -263.2225952 -173.8639984
136.3209076 -254.5136566 -179.3889160
137.2258301 -254.2709808 -178.6125641
138.1626434 -254.0701599 -177.9932404
139.1316223 -253.9056244 -177.4930115
140.0902863 -253.7741394 -177.1031799
141.0499725 -253.6561432 -176.8414307
142.0472412 -253.5784607 -176.6406708
143.0566254 -253.5264893 -176.5655670
144.0589447 -253.4913788 -176.6067047
145.0895386 -253.4959412 -176.7094421
146.1298370 -253.5218201 -176.9516754
147.1712952 -253.5905151 -177.3339233
148.2585602 -253.7023315 -177.9128113
149.3832092 -253.8122253 -178.6251984
-164.7766418 -264.2255249 -171.3979797
-163.6225433 -263.9828796 -170.5953979
-162.5181885 -263.7678528 -169.9362488
-161.4218140 -263.5984192 -169.4291840
-160.3785553 -263.4601440 -169.0556030
-159.3303680 -263.3504639 -168.7792053
-150.4637909 -263.3782043 -170.1186523
-149.5448914 -263.4986572 -170.6915894
-148.6181030 -263.6471863 -171.3842773
-147.7173615 -263.8278198 -172.1827393
-146.8449402 -264.0523071 -173.1521301
-145.9441223 -264.3422852 -174.3907623
135.2775421 -255.5096741 -179.3016968
136.2013092 -255.2251434 -178.3251343
137.1170197 -254.9978638 -177.5816345
138.0689545 -254.8050537 -176.9920197
139.0294495 -254.6487732 -176.5259705
139.9831238 -254.5127258 -176.1615143
140.9624023 -254.4177551 -175.8568726
141.9548035 -254.3326111 -175.6878662
142.9420166 -254.2734680 -175.6344147
143.9566956 -254.2380066 -175.6453552
144.9918213 -254.2297058 -175.7338104
146.0283051 -254.2480469 -175.9523010
147.0736389 -254.2969513 -176.3004303
148.1217957 -254.3916016 -176.7582092
149.2179718 -254.5165405 -177.3691406
-163.5539703 -264.8621826 -170.0755310
-148.5609741 -264.5297241 -170.8670197
-147.6479797 -264.7095947 -171.6874237
-146.7708435 -264.9312744 -172.6492004
-145.8914490 -265.2024536 -173.8024597
135.1764374 -256.2515869 -178.3127747
136.0991364 -255.9777985 -177.4186707
137.0306091 -255.7592010 -176.6993256
137.9886017 -255.5778961 -176.1217346
144.8862762 -255.0017090 -174.9040680
145.9310913 -255.0162659 -175.0758209
146.9592285 -255.0502625 -175.3765259
148.0093384 -255.1256256 -175.7947540
149.1054840 -255.2398376 -176.3715363
150.2345123 -255.3703003 -177.1009827
-164.6184387 -266.0028381 -170.4017944
-163.4927673 -265.7633972 -169.6405029
-148.5016174 -265.4392090 -170.4747009
-147.6070251 -265.6144104 -171.2560120
-146.7307892 -265.8263550 -172.1793365
-145.8513184 -266.0985718 -173.3330841
134.1931152 -257.3233337 -178.4848175
135.0909424 -257.0213623 -177.4868774
136.0303802 -256.7626953 -176.6315002
136.9441528 -256.5578308 -175.9721069
137.8996582 -256.3754883 -175.4222260
144.8114929 -255.8019714 -174.1727905
145.8573456 -255.8021545 -174.3371887
146.8705139 -255.8388062 -174.5857697
147.9189301 -255.9001312 -174.9811859
149.0041809 -256.0034180 -175.5060730
150.0974426 -256.1473389 -176.1721344
151.2250366 -256.3294678 -177.0325470
-164.5666809 -266.9252014 -170.0440979
-163.4428101 -266.6869202 -169.2893524
-162.3492432 -266.4842834 -168.6750488
-161.2680359 -266.3197021 -168.2021484
-160.2216339 -266.1908569 -167.8571777
-159.1807556 -266.0876770 -167.6108856
-150.3205261 -266.1169434 -168.9398651
-149.3974762 -266.2278442 -169.4835510
-146.6796570 -266.7546082 -171.8483582
-145.8051147 -267.0371704 -173.0354156
134.1183472 -258.1278992 -177.7660522
135.0367889 -257.8290100 -176.7568665
135.9514160 -257.5774841 -175.9692383
136.8888702 -257.3754272 -175.3287354
137.8485260 -257.2005310 -174.7877655
142.7304382 -256.6788635 -173.4750977
143.7284241 -256.6374512 -173.4796906
146.7969513 -256.6506958 -173.9358826
147.8438110 -256.7093811 -174.3031464
148.9342499 -256.7945862 -174.7901917
150.0172577 -256.9266357 -175.4066467
151.1321716 -257.1055908 -176.2273712
-164.5614624 -267.8884888 -169.8283081
-163.4122925 -267.6410522 -169.0584412
-162.3285217 -267.4437256 -168.4572296
-161.2204132 -267.2717896 -167.9660950
-160.1907043 -267.1436157 -167.6221008
-159.1473389 -267.0357056 -167.3595428
-150.3050690 -267.0675964 -168.6949615
-149.3810425 -267.1756287 -169.2293396
-146.6625366 -267.7015991 -171.5794067
-145.7895050 -267.9851074 -172.7652588
134.0623169 -258.9519043 -177.1399231
134.9761810 -258.6591187 -176.1633911
135.9075928 -258.4207153 -175.3851013
136.8454132 -258.2218018 -174.7583160
137.7816162 -258.0427856 -174.2586365
142.6705627 -257.5230713 -172.9380035
143.6655273 -257.4806519 -172.9266052
146.7415314 -257.4904480 -173.3918457
147.7850647 -257.5435181 -173.7166748
148.8611450 -257.6215820 -174.1560669
149.9432678 -257.7346497 -174.7432861
151.0334778 -257.9016113 -175.4855042
-164.5496216 -268.8747559 -169.7080383
-163.4060822 -268.6261597 -168.9417877
-158.1011047 -267.9222412 -167.0186615
-157.0785522 -267.8609619 -166.9356689
-156.0927124 -267.8254089 -166.9363403
-155.0885773 -267.8116760 -167.0197449
-150.2768707 -268.0468750 -168.5452118
-149.3606415 -268.1511536 -169.0772400
-146.6437531 -268.6822510 -171.4508972
-145.7650909 -268.9668274 -172.6318207
134.0167542 -259.8123169 -176.6369934
142.6230927 -258.3854980 -172.4811707
143.6267548 -258.3433838 -172.4651947
144.6473846 -258.3242493 -172.5298157
145.6678772 -258.3236389 -172.6725464
148.8147278 -258.4674072 -173.6323547
149.8755188 -258.5733643 -174.1682129
150.9816437 -258.7298279 -174.9019470
152.1174622 -258.9317322 -175.8127899
-164.5547791 -269.8950806 -169.6987915
-163.4168396 -269.6398621 -168.9211121
-158.0926208 -268.9169617 -166.9481506
-157.0888062 -268.8627014 -166.8704681
-156.0936584 -268.8253784 -166.8738403
-155.0903015 -268.8124695 -166.9472809
-150.2795410 -269.0350647 -168.4487762
-149.3517609 -269.1446533 -169.0048218
-146.6376953 -269.6947327 -171.4285583
-145.7721100 -269.9857788 -172.6310730
133.0806122 -261.0361328 -177.4036865
133.9745483 -260.7088623 -176.2926788
142.5882263 -259.2735596 -172.0966644
143.5900879 -259.2297363 -172.0852966
144.6087036 -259.2070618 -172.1349792
145.6198120 -259.2030029 -172.2484436
148.7726746 -259.3389893 -173.2094879
149.8387146 -259.4416504 -173.7331848
150.9402313 -259.5891113 -174.4337616
152.0699921 -259.7893982 -175.3295441
-163.4398346 -270.6768188 -168.9819946
-162.3121948 -270.4521484 -168.3094330
-161.2237396 -270.2781982 -167.7986450
-160.1711578 -270.1342468 -167.4152985
-159.1296997 -270.0215454 -167.1320953
-158.0949860 -269.9332581 -166.9475403
-157.0904236 -269.8763123 -166.8638916
-156.0948486 -269.8344727 -166.8576660
-155.0894165 -269.8169861 -166.9273071
-154.0928497 -269.8149414 -167.0640869
-153.1278687 -269.8367615 -167.2762299
-150.2883301 -270.0433044 -168.4470825
-149.3555145 -270.1741943 -169.0368042
-148.4369507 -270.3214722 -169.7268524
-147.5198517 -270.5156555 -170.5524292
-146.6509094 -270.7382813 -171.5320892
-145.7708740 -271.0565491 -172.7898407
133.0735016 -261.9621887 -177.1545105
133.9548340 -261.6218567 -176.0046234
134.8659363 -261.3368835 -175.0686646
135.8031616 -261.0953674 -174.2995911
142.5623322 -260.1760254 -171.8011780
143.5581360 -260.1331177 -171.7767944
144.5775757 -260.1070557 -171.8200378
145.5934753 -260.0995483 -171.9323730
146.6157532 -260.1187134 -172.1434021
147.6588135 -260.1630249 -172.4496460
148.7259064 -260.2341919 -172.8612061
149.8164063 -260.3339844 -173.3848267
150.9024811 -260.4716187 -174.0441284
152.0218964 -260.6624146 -174.9031067
153.2249908 -260.9136047 -176.0112000
-163.4627686 -271.7418213 -169.1647034
-162.3379059 -271.5143127 -168.4795837
-161.2457275 -271.3308716 -167.9310913
-160.1957855 -271.1823425 -167.5215454
-159.1496277 -271.0616455 -167.2209320
-158.1074829 -270.9665833 -167.0253601
-157.0971222 -270.9050293 -166.9296417
-156.0993652 -270.8635254 -166.9163361
-155.0989838 -270.8502808 -166.9889526
-154.1164398 -270.8471985 -167.1215668
-153.1495972 -270.8702393 -167.3419189
-150.3052216 -271.0943604 -168.5553741
-149.3817139 -271.2230225 -169.1516724
-148.4597473 -271.3698120 -169.8487396
-147.5557098 -271.5734253 -170.7058258
-146.6886292 -271.8182678 -171.7451477
-145.8186951 -272.1325073 -173.0287170
133.0620880 -262.8916931 -176.9241943
133.9493561 -262.5532227 -175.7931213
134.8688507 -262.2606812 -174.8288574
135.8026581 -262.0195313 -174.0642853
142.5392761 -261.0982056 -171.5682373
143.5389709 -261.0525513 -171.5339355
144.5491333 -261.0253906 -171.5724487
145.5830231 -261.0209045 -171.6954651
146.5962524 -261.0377808 -171.8960571
147.6303864 -261.0759277 -172.1838531
148.7006531 -261.1458740 -172.5878296
149.7695007 -261.2404785 -173.0866852
150.8683167 -261.3755493 -173.7376709
151.9894409 -261.5621948 -174.5848236
153.1975403 -261.8181763 -175.6894836
-163.5469208 -272.8660278 -169.5282898
-162.3843994 -272.6069336 -168.7750092
-161.2844238 -272.4095154 -168.1714935
-160.2251587 -272.2454834 -167.7152557
-159.1980286 -272.1324463 -167.4132080
-158.1454773 -272.0384216 -167.2156067
-157.1365051 -271.9743042 -167.1104584
-156.1265564 -271.9253540 -167.0886841
-155.1243286 -271.9140930 -167.1594086
-150.3395996 -272.1647034 -168.7575073
-149.4152222 -272.3005676 -169.3645325
-148.4878998 -272.4590149 -170.0960999
-147.5850830 -272.6690369 -170.9919434
133.0499573 -263.8633423 -176.8488770
133.9469299 -263.5213928 -175.7152710
134.8657837 -263.2187500 -174.7223969
135.7924347 -262.9727478 -173.9349670
136.7126007 -262.7701416 -173.3090668
137.6719971 -262.5884399 -172.7721252
148.6841888 -262.0780640 -172.3965149
149.7612152 -262.1718750 -172.8844757
150.8570709 -262.3070984 -173.5408325
151.9886169 -262.4996033 -174.4076233
153.1794281 -262.7527466 -175.4931641
-162.4623566 -273.7437134 -169.1486969
-161.3505707 -273.5270996 -168.5451965
-160.2904053 -273.3635559 -168.0701752
-159.2366028 -273.2284851 -167.7231293
-158.2052155 -273.1358032 -167.5066681
-157.1849976 -273.0643311 -167.3848114
-156.1767883 -273.0180969 -167.3559418
-155.1751556 -272.9999084 -167.4246216
-150.3837891 -273.2663269 -169.0567322
-149.4699554 -273.3926697 -169.6737061
-148.5451050 -273.5789490 -170.4653473
133.0271149 -264.8677979 -176.8759003
133.9559631 -264.5080872 -175.7124481
134.8567657 -264.2115784 -174.7315826
135.7930908 -263.9520264 -173.9047089
136.7206116 -263.7375488 -173.2416382
137.6709900 -263.5523682 -172.6959229
148.6944580 -263.0367737 -172.2937927
149.7524109 -263.1245422 -172.7738342
150.8677521 -263.2720032 -173.4571381
151.9961243 -263.4671936 -174.3340454
153.1820526 -263.7256165 -175.4401398
-161.4319153 -274.6911621 -169.0551605
-160.3682861 -274.5089111 -168.5715637
-159.3091888 -274.3752441 -168.1866760
-158.2680969 -274.2674561 -167.9197388
-157.2495270 -274.1865234 -167.7808838
-156.2532654 -274.1434326 -167.7503510
-155.2417297 -274.1275635 -167.8173218
-154.2565918 -274.1394958 -167.9695740
-153.2804260 -274.1537170 -168.1901398
-152.3187866 -274.2109680 -168.5172119
-151.3625641 -274.2851868 -168.9462128
-150.4481812 -274.3927917 -169.4682312
-149.5336914 -274.5518799 -170.1643372
-148.6168976 -274.7674561 -171.0505524
133.9662476 -265.5289917 -175.8295135
134.8999329 -265.2037964 -174.7879639
135.8109436 -264.9521790 -173.9583588
136.7338867 -264.7294312 -173.2680054
137.6618805 -264.5520630 -172.7190704
142.5350647 -263.9649048 -171.2596130
143.5257721 -263.9234619 -171.2209473
144.5485077 -263.8834839 -171.2412109
145.5690002 -263.8855286 -171.3529358
148.6978455 -264.0103149 -172.2681427
149.7691040 -264.1110535 -172.7779388
150.8591461 -264.2480469 -173.4444885
151.9832764 -264.4461975 -174.3384094
-160.4836578 -275.7298584 -169.2450409
-159.3933716 -275.5508423 -168.8078461
-158.3435059 -275.4281921 -168.4942932
-157.3344269 -275.3590393 -168.3304138
-156.3370056 -275.3023987 -168.2706604
-155.3138275 -275.2850342 -168.3237610
-154.3281860 -275.2846680 -168.4602966
-153.3593140 -275.3051758 -168.6950989
-152.3951569 -275.3771362 -169.0583191
-151.4502106 -275.4729004 -169.5204773
-150.5385895 -275.5904846 -170.1015930
-149.6415100 -275.7534180 -170.8553467
134.9253082 -266.2494507 -174.9903107
135.8300934 -265.9856567 -174.1251526
136.7529755 -265.7483521 -173.3895264
137.7000427 -265.5504150 -172.7939148
142.5550385 -264.9656372 -171.3187408
143.5477600 -264.9173279 -171.2676849
144.5605927 -264.8817749 -171.2827759
145.5837708 -264.8791809 -171.4037170
148.7142944 -265.0172729 -172.3381042
149.7971344 -265.1230774 -172.8791199
150.8897705 -265.2721863 -173.5838318
152.0282288 -265.4811707 -174.4996338
-158.4655151 -276.6672363 -169.3080292
-157.4375458 -276.5754395 -169.0884552
-156.4229126 -276.5119019 -168.9814758
-155.4119873 -276.4760132 -168.9948730
-154.4153442 -276.4843445 -169.1444092
-153.4634094 -276.5403748 -169.4373627
-152.4991150 -276.5888062 -169.8100281
-151.5567017 -276.7042236 -170.3384857
-150.6647644 -276.8565063 -171.0046082
-149.7675781 -277.0444946 -171.8123474
134.9716644 -267.3174133 -175.2851868
135.8924561 -267.0277405 -174.3611755
136.7939606 -266.7955933 -173.6141968
137.7422333 -266.5864258 -172.9826965
138.6853790 -266.4199829 -172.4916687
139.6402130 -266.2727356 -172.1040192
140.5992737 -266.1588135 -171.8125916
141.5898132 -266.0642700 -171.5948639
142.5764771 -265.9818420 -171.4538269
143.5704956 -265.9270935 -171.3889618
144.5894165 -265.8997192 -171.4202271
145.6123199 -265.8992310 -171.5383301
146.6301270 -265.9103394 -171.7380219
147.6736450 -265.9620667 -172.0592957
148.7346649 -266.0340576 -172.4847717
149.8226929 -266.1583252 -173.0656891
150.9425049 -266.3264771 -173.8242035
152.0713806 -266.5173340 -174.7186890
-157.5921631 -277.8974915 -170.0928497
-156.5885010 -277.8211975 -169.9892426
-155.5621033 -277.7637329 -169.9932098
-154.5655212 -277.7692566 -170.1378326
-153.6088257 -277.8405762 -170.4444275
-152.6496124 -277.9039307 -170.8245697
-151.7158661 -278.0500183 -171.4266663
135.9459991 -268.1071472 -174.7164154
136.8553314 -267.8634644 -173.9577179
137.7944183 -267.6429443 -173.2955017
138.7423401 -267.4599609 -172.7546692
139.6894836 -267.3205566 -172.3504028
140.6394653 -267.2098083 -172.0505371
141.6327362 -267.0996094 -171.8134766
142.6142273 -267.0281982 -171.6729736
143.6056976 -266.9733276 -171.6118317
144.6346893 -266.9436035 -171.6379242
145.6475525 -266.9301453 -171.7498016
146.6696472 -266.9552612 -171.9679871
147.7159729 -267.0068359 -172.2989044
148.7954407 -267.0947266 -172.7599945
149.8791809 -267.2113037 -173.3497925
150.9899445 -267.3833618 -174.1201935
-155.7679443 -279.2297363 -171.3961639
-154.7438965 -279.2018433 -171.5143127
138.7903442 -268.5603333 -173.1401062
139.7171021 -268.4238281 -172.7068481
140.6903076 -268.2739563 -172.3516846
-154.2371521 -259.4436646 -172.0928497
-157.8193970 -262.8001099 -168.8255615
-155.8068237 -262.7232971 -168.7985077
-153.8427429 -262.7317505 -169.1112823
-151.9136353 -262.8246460 -169.7311707
-161.8727875 -265.0213623 -168.9791260
-159.7680969 -264.7524414 -168.2458649
-157.7035828 -264.5890808 -167.9105835
-155.6983032 -264.5115967 -167.8936462
-153.7288666 -264.5150146 -168.1749878
-151.7989960 -264.6040649 -168.7745667
-149.9223938 -264.7844238 -169.7202759
139.3849487 -255.7598572 -175.1567688
141.3291321 -255.5515289 -174.6428528
143.3205872 -255.4353180 -174.4624329
-157.6240234 -266.4496155 -167.2742004
-155.6207275 -266.3731689 -167.2600403
-153.6522827 -266.3800964 -167.5561523
-151.7250061 -266.4687500 -168.1547699
-147.9986572 -266.9299622 -170.4059448
139.2569275 -257.4131470 -173.9204102
141.2058105 -257.2030029 -173.3888092
145.2333984 -257.0435486 -173.3417664
-161.7617493 -268.8374023 -168.0433197
-159.6455688 -268.5585938 -167.2900543
-153.6105347 -268.3199463 -167.2245178
-151.6927185 -268.4104004 -167.8289490
-147.9669189 -268.8909302 -170.1298065
135.3809204 -259.8570557 -175.1513519
137.2586670 -259.4474792 -173.8724823
139.1744385 -259.1492920 -173.0180969
141.1130524 -258.9370728 -172.4907227
147.1886139 -258.8076782 -172.8413849
-151.7032471 -270.4424744 -167.8271942
137.2068787 -261.2691345 -173.3000793
139.1162567 -260.9650879 -172.4327393
141.0581055 -260.7496948 -171.8974304
-153.6871185 -272.4705200 -167.5509949
-151.7647705 -272.5733032 -168.1896057
139.1047363 -262.8510742 -172.1184692
141.0449829 -262.6293030 -171.5671082
143.0274658 -262.4906006 -171.3242645
145.0558167 -262.4333191 -171.3896179
147.1031189 -262.4669189 -171.7944946
139.1183167 -264.8164063 -172.1022034
141.0587006 -264.5876465 -171.5297852
147.1098938 -264.4142456 -171.7289734
