-249.2044983 155.5038757 134.2057648
-248.7983856 155.4927673 134.2225952
-247.7500610 155.5021820 134.0682526
-247.4160309 155.5135956 133.9754639
-247.0907135 155.5382690 133.8147888
-246.7528076 155.5648193 133.6430664
-246.4189606 155.5928192 133.4642334
-246.0978241 155.6276855 133.2510986
-245.7941132 155.6681824 133.0105438
-245.5110016 155.7125854 132.7517395
-245.2430115 155.7708893 132.4223328
-244.9816132 155.8434143 132.0198975
-249.3735199 155.0244141 134.9574585
-248.9782715 155.0034485 134.9591370
-248.5882721 154.9919586 134.9629059
-248.2143707 154.9968109 134.9259186
-247.8845215 154.9974670 134.8657074
-247.5594025 155.0034332 134.7697906
-247.2117615 155.0081024 134.6614227
-246.8819733 155.0305939 134.5208588
-246.5554047 155.0554657 134.3662720
-246.2140503 155.0821228 134.1889496
-245.8890228 155.1059113 134.0023956
-245.5831146 155.1473389 133.7724762
-245.2914429 155.1993561 133.5128326
-245.0068512 155.2401581 133.2633972
-244.7147827 155.3213043 132.9492645
-243.6721954 155.0492859 132.5513611
-243.4912109 154.5033569 133.2359467
-243.2115326 154.6100464 132.8854370
-252.0501251 153.7248535 135.8294830
-251.6847229 153.8717041 135.6504211
-250.3948059 153.6357574 136.4206543
-251.8709259 153.2631531 136.4658051
-250.6668854 153.2233124 136.7767792
-250.2622223 153.2031097 136.8533783
-242.1072083 153.8366089 132.8726501
-241.8325653 153.9476624 132.3990021
-241.4387054 153.5531006 132.4493713
-241.3344421 153.0821381 132.9021912
-241.0684509 153.1989288 132.4221497
-252.3423157 152.0674438 137.3659973
-240.7018433 152.8220978 132.4098816
-252.6478729 151.6701508 137.5490265
-252.2565155 151.6465302 137.6756287
-240.6091614 152.3329163 132.8493195
-240.3811951 152.4176025 132.4041901
-240.1628113 152.5300446 131.8469849
-239.9316101 152.6788940 131.1666412
-239.5873260 152.3484192 130.9634857
-253.8077545 150.9803619 137.5421753
-239.4903564 151.8342285 131.4948273
-239.2651215 152.0138397 130.7606354
-238.8300018 151.2264099 130.9888153
-254.4172821 149.8358917 137.8862915
-254.7888794 149.4873199 137.8744507
-254.3366394 149.4221344 138.1000061
-238.6567688 150.3347168 131.7276154
-238.4326935 150.4672241 131.1066284
-238.5981903 149.8952942 132.0228729
-255.1378021 148.7528229 138.0109711
-238.5292969 149.4897308 132.2605133
-238.2992249 149.6053009 131.6928253
-238.0714722 149.7339630 131.0749969
-255.5094147 148.0262604 138.0481873
-255.0198669 147.9571991 138.3015442
-255.4655914 147.6377106 138.1732330
-254.9714050 147.5692902 138.4253082
-237.4864807 148.7587280 130.3500519
-254.9663544 147.1986237 138.5070343
-237.4567719 148.3235931 130.6279449
-237.4026947 147.9349518 130.7628326
-237.3687897 147.5428162 130.8985748
-237.1404572 147.6889801 130.1449432
-256.2851257 146.2458191 137.9374237
-255.8012238 146.1777496 138.2257538
-236.8601379 146.6475220 129.7849579
-257.1636047 145.2610321 137.4245148
-256.7042542 145.1979980 137.7262726
-256.2407837 145.1358032 138.0275574
-255.7719421 145.0750885 138.3189392
-236.8506165 146.2635956 129.8667755
-236.8372345 145.8870697 129.9248199
-236.8300323 145.5087433 129.9791412
-236.8191986 145.1429443 129.9830627
-236.8190460 144.7764587 129.9887238
-257.1936951 143.4662781 137.3338623
-256.7130127 143.4024048 137.6401215
-236.8297729 144.4090881 129.9967651
-256.7543335 143.0521240 137.5799561
-236.8311157 144.0543823 129.9327087
-255.8292389 142.5859070 138.0724487
-236.8550873 143.6961975 129.8905487
-255.8602295 142.2413177 137.9794464
-236.8797455 143.3471069 129.8028412
-255.8918915 141.8990326 137.8680573
-236.9080505 143.0003967 129.6986389
-256.3952026 141.6081543 137.4904785
-255.9357452 141.5587769 137.7415466
-236.9337311 142.6586914 129.5657043
-256.4608459 141.2688293 137.3488922
-255.9553986 141.2173004 137.6255035
-236.9644318 142.3155518 129.4302368
-256.0119934 140.8808136 137.4788971
-256.0556030 140.5451050 137.3233185
-256.1330261 140.2093353 137.1375885
-237.5811005 140.7511444 130.1219940
-256.2669067 139.5604858 136.7006378
-237.6340332 140.4243164 129.8819580
-256.3316956 139.2356415 136.4741974
-255.8184052 139.1991577 136.7521973
-255.3404083 139.1507263 137.0086212
-237.6958008 140.1002197 129.6267548
-255.8968811 138.8917084 136.4730225
-255.4232025 138.8354340 136.7537994
-256.5365906 138.6181641 135.7320862
-256.0376282 138.5472412 136.1298981
-255.5463104 138.4964142 136.4667969
-238.2811279 139.2691193 130.3543243
-238.0516968 139.3581543 129.7145844
-238.3585358 138.9518738 130.0619354
-254.7791901 137.7645264 136.4661407
-238.4333191 138.6367798 129.7283630
-254.8731995 137.4445190 136.1791534
-239.0560303 137.8527374 130.1681213
-239.1533203 137.5433807 129.7613373
-254.3339386 136.4565887 135.5433655
-254.8968658 136.1748505 134.9597321
-254.4240265 136.1571045 135.1841583
-239.3971710 136.9586639 128.8720551
-254.5662689 135.8490753 134.7823486
-239.9747467 136.5177917 129.5457916
-239.7459869 136.5939026 128.9420013
-240.1126404 136.2188873 129.0112152
-254.4047241 135.2093658 134.1175995
-253.9369202 135.1833038 134.3424072
-253.4819641 135.1573639 134.5466461
-253.0612030 135.1345673 134.7116852
-240.7212830 135.7861328 129.6700745
-240.4855957 135.8556824 129.0820923
-253.1823425 134.8445129 134.2641907
-240.8680420 135.4934845 129.0980835
-253.3544922 134.5493774 133.7493744
-241.4756927 135.0756226 129.5327759
-241.2436523 135.1356659 129.0200195
-253.5475006 134.2507935 133.1981964
-252.0267944 133.8381805 133.3264618
-251.5900269 133.8370972 133.4406891
-251.1759338 133.8245087 133.5275269
-250.7639771 133.8181305 133.6129761
-250.3791199 133.8031464 133.6622620
-249.9995422 133.7882385 133.6851501
-249.6276093 133.7782288 133.6851501
-249.2611694 133.7745819 133.6701355
-248.8906097 133.7764587 133.6424255
-248.5260315 133.7709808 133.5882263
-248.1759491 133.7692871 133.5319214
-247.8245239 133.7823944 133.4901581
-247.4699402 133.7897797 133.4268036
-247.1111450 133.8159332 133.3663177
-246.7320709 133.8314514 133.2466888
-246.4069061 133.8166504 133.0600128
-246.0798645 133.8522491 132.8943634
-242.3109894 134.3911743 129.2530060
-247.5668945 133.5382233 133.1002808
-246.2323151 133.5364380 132.3746338
-243.7166138 133.5865936 129.5818024
-245.3786163 -143.4420166 141.1544952
-245.1453400 -143.4934540 140.9599762
-243.9575195 -143.7526703 139.5149231
-243.6801605 -143.7729645 139.0365295
-251.4590454 -143.5397186 143.1497650
-251.0325317 -143.5188293 143.2409058
-250.6447449 -143.5007019 143.2853088
-250.2644958 -143.4958496 143.3105927
-249.9201355 -143.5086517 143.3107605
-248.0706787 -143.4863739 143.0509796
-247.7448425 -143.4983978 143.0284576
-247.4049835 -143.4994049 142.9333801
-247.0826874 -143.5036774 142.8057098
-246.7579193 -143.5113068 142.6434174
-246.4279327 -143.5377960 142.4871674
-246.1092682 -143.5627594 142.3056946
-245.7846069 -143.6052704 142.1235657
-245.4909821 -143.6367645 141.8737335
-245.1901550 -143.6993866 141.6629944
-244.8904572 -143.7781982 141.4980164
-244.0463867 -143.9162292 140.4955597
-243.7754822 -143.9654541 140.1355438
-243.5013123 -144.0189667 139.7716522
-243.2417450 -144.0727386 139.3344269
-242.9867554 -144.1451874 138.8701935
-252.4649048 -143.8853455 143.4384613
-242.3221283 -144.5569000 138.5635834
-252.2600098 -144.1433868 144.0416718
-248.8927002 -143.9872131 144.2893982
-248.5378571 -143.9878845 144.2298584
-242.1439209 -144.7930756 139.2873230
-253.2286224 -144.7769775 144.5817871
-252.8081055 -144.7247314 144.7555237
-241.3235626 -145.4410095 139.5348969
-241.0916595 -145.5250854 138.9925690
-241.1839905 -145.7003174 140.0826874
-254.6520538 -145.4741211 144.8027802
-254.2196808 -145.4285736 145.0133514
-241.0470428 -145.9590302 140.6296997
-240.7806396 -146.0191650 140.1284637
-254.9464569 -145.7992401 145.0304565
-240.4268494 -146.3784027 140.1378021
-254.8075867 -146.0775604 145.4672852
-240.3314667 -146.6594391 140.5876617
-240.0984497 -146.7509308 140.0447388
-239.8701782 -146.8510590 139.4862061
-255.4839172 -146.7357483 145.7954865
-239.1967468 -147.6362152 139.1055145
-239.1059875 -147.9293365 139.5713501
-238.8945007 -148.0451508 138.8710785
-255.2756348 -147.3122253 146.4901733
-239.0222778 -148.2114563 140.0132294
-255.9903107 -148.0149841 146.6390686
-238.3078156 -149.3069153 139.8060760
-238.0892792 -149.4407196 139.0584869
-255.8271942 -148.6171722 147.1983185
-238.2376709 -149.6013641 140.1495972
-256.1817627 -148.9959869 147.1991577
-255.7225647 -148.9264679 147.4790955
-238.1403198 -149.9010162 140.4037018
-256.1125488 -149.3061523 147.4227600
-255.6624298 -149.2223816 147.7181091
-238.0877838 -150.2015533 140.7192688
-237.8722839 -150.3276825 140.0535583
-237.6633301 -150.4704132 139.3069153
-255.5828247 -149.5306854 147.9658203
-255.5068207 -149.8369904 148.1950531
-237.4099731 -151.6988068 140.3596649
-254.9411621 -150.7388306 148.9212799
-254.5003204 -150.6934204 149.0893250
-237.3847504 -152.0224915 140.5585632
-254.4602814 -151.0178833 149.2386169
-237.3383484 -152.3556671 140.6815338
-254.4254913 -151.3478546 149.3719940
-237.3097992 -152.6854095 140.8334961
-254.3866730 -151.6793823 149.4973907
-237.2867584 -153.0200500 140.9650574
-254.3460693 -152.0112000 149.6177063
-237.2146149 -155.4812775 141.3093567
-237.2190857 -155.8483887 141.2865601
-237.2255249 -156.2306976 141.2177734
-237.2396240 -156.6106262 141.1525116
-237.8137512 -158.2543640 141.9422150
-237.8548279 -158.6742401 141.7360382
-254.4770203 -158.5235748 149.4554138
-238.8645782 -159.3636627 143.5560150
-238.6397095 -159.4906769 142.9882355
-238.4281464 -159.6261444 142.3757172
-254.5339355 -158.9256134 149.2964478
-238.9206543 -159.7854919 143.3317108
-254.5524750 -159.3090057 149.1454315
-239.4438019 -159.9724579 144.1362762
-239.2119751 -160.0879211 143.6359100
-255.1450348 -159.8280792 148.7057037
-254.6490936 -159.7348938 148.9537048
-239.5153961 -160.3834686 143.9163361
-253.8409119 -160.0135193 149.1383362
-239.5852356 -160.8218689 143.6347046
-254.3621216 -160.5027313 148.7509613
-253.9084167 -160.4292297 148.9339142
-253.9878845 -160.8541260 148.7142639
-240.2230377 -161.4850159 143.9767456
-240.3164978 -161.9369049 143.6432800
-253.7693787 -161.6755524 148.3247528
-253.3259125 -161.5850830 148.5006714
-253.4567261 -162.0523834 148.1797333
-252.5605774 -163.2648621 147.5726013
-252.1130676 -163.1895294 147.7269897
-242.4162292 -163.6498413 144.2840424
-242.1671295 -163.7445526 143.8684387
-241.9252167 -163.8691101 143.4014587
-251.5780334 -164.0712738 147.0809937
-251.1822357 -164.0089722 147.1887817
-250.7804871 -163.9594574 147.2721252
-244.3113098 -164.1620636 145.3646545
-244.0278168 -164.2471008 145.0556641
-243.7536621 -164.3240662 144.7323608
-243.4853516 -164.4009094 144.3801270
-243.2248993 -164.4816742 144.0103455
-242.9704132 -164.6171875 143.5589905
-244.4648285 -164.6711884 144.8381958
-250.3667297 -164.9408417 146.2941284
-249.9432373 -164.8756714 146.3618774
-249.5705566 -164.8451385 146.3756714
-245.8444672 -164.9528503 145.2911377
-245.5315857 -165.0357056 145.0271912
-245.2270813 -165.0882111 144.7919312
-244.9337006 -165.1398773 144.5470428
-249.7728424 -165.4086304 145.7605286
-246.0300293 -165.5166473 144.6557312
-250.0335999 154.3136902 135.7701416
-249.2854462 154.2787170 135.8433685
-248.5384979 154.2698975 135.8047791
-247.8178711 154.2819061 135.7006531
-247.1506195 154.3007355 135.5411072
-246.4752197 154.3392181 135.2834015
-245.8013763 154.3856659 134.9564667
-245.1815491 154.4532013 134.5412292
-244.5900116 154.5218201 134.0606537
-243.9993286 154.6463318 133.4370117
-249.7455902 153.3948059 136.7224426
-243.7005615 153.6922913 134.4948425
-243.1285095 153.8171692 133.8667603
-242.5720215 153.9373169 133.2295532
-251.9084778 152.6585541 137.0058899
-251.1042938 152.6013794 137.2328796
-250.2897491 152.5555420 137.3918457
-249.5253448 152.5350952 137.4584656
-243.4629974 152.8255920 135.2992096
-242.8807373 152.9115295 134.7432709
-242.3392944 153.0267487 134.1101379
-241.7928619 153.1618652 133.3504181
-251.6965942 151.8033905 137.7071686
-250.9062500 151.7562103 137.8908997
-243.2657013 151.9711609 135.9619446
-242.6803589 152.0592346 135.4360046
-242.1204071 152.1570282 134.8450012
-241.5765381 152.2717896 134.1455536
-241.0453644 152.4300690 133.3086243
-253.1797180 151.1111145 137.7041779
-252.3138428 151.0260315 138.0397949
-251.5192108 150.9635010 138.2745056
-250.7442627 150.9277649 138.4178162
-243.1157837 151.1469269 136.4863281
-242.5167847 151.2390442 135.9739532
-241.9492188 151.3214264 135.4303589
-241.3895874 151.4389648 134.7638245
-240.8501740 151.5621338 134.0171051
-240.3492279 151.7080688 133.1851044
-239.8908691 151.8801422 132.1921387
-253.8817444 150.3709717 137.8435059
-253.0234070 150.2856140 138.2135468
-252.1757507 150.2159271 138.5106506
-241.8102875 150.5034790 135.9098511
-241.2300262 150.6102905 135.2852936
-240.6763306 150.7311401 134.5907593
-240.1644897 150.8648224 133.8142853
-239.6870117 151.0225983 132.8867493
-239.2290344 151.2219849 131.7867889
-253.7431030 149.5628052 138.2873688
-252.8748932 149.4755554 138.6422729
-252.0440369 149.4171600 138.8996429
-241.6939087 149.7110138 136.2918854
-241.1088562 149.8126678 135.7035675
-240.5410919 149.9207611 135.0371094
-240.0131531 150.0483093 134.2986145
-239.5235901 150.1909485 133.4492645
-239.0508118 150.3774414 132.4139709
-254.4717255 148.8574066 138.2643890
-253.6235657 148.7683868 138.6509247
-240.4311981 149.1338806 135.3845673
-239.8946228 149.2509155 134.6875610
-239.3887024 149.3908081 133.8732300
-238.9087830 149.5505676 132.9166718
-254.3767090 148.0783691 138.5624084
-253.5398254 147.9985199 138.9258728
-240.3502197 148.3480225 135.6813965
-239.8034515 148.4635162 135.0053101
-239.2858276 148.5986328 134.2231140
-238.7897339 148.7529449 133.3112183
-238.3397217 148.9312286 132.3056183
-237.8954163 149.1552429 131.1176147
-254.2977600 147.3102875 138.7896729
-253.4661102 147.2324219 139.1374969
-239.2041626 147.8223724 134.4928284
-238.6892548 147.9750061 133.6091614
-238.2323151 148.1376801 132.6535950
-237.8064880 148.3397522 131.5210419
-256.0699768 146.7733765 137.9695892
-255.1379395 146.6554413 138.5069733
-254.2410126 146.5581665 138.9529877
-253.4139557 146.4830322 139.2849731
-239.1459808 147.0594482 134.6918030
-238.6199646 147.2074890 133.8329468
-238.1464539 147.3659668 132.9113159
-237.7245483 147.5472870 131.8480530
-255.0952454 145.9091949 138.6345215
-238.0885315 146.6071777 133.0880890
-237.6556091 146.7818756 132.0617676
-237.2234192 147.0195007 130.7469482
-255.0665283 145.1739807 138.6991119
-238.0547180 145.8565369 133.2120819
-237.6061401 146.0303955 132.2000732
-237.1838226 146.2500916 130.9397278
-256.9136963 144.6823273 137.5858002
-255.9841614 144.5587921 138.1783447
-255.0626678 144.4501190 138.6980286
-238.0300751 145.1243896 133.2527161
-237.5808411 145.2895203 132.2781982
-237.1634979 145.4980316 131.0649109
-256.9354553 143.9673004 137.5420227
-256.0075378 143.8462219 138.1235657
-255.0744934 143.7369080 138.6436462
-238.0350342 144.3963165 133.2569122
-237.5699768 144.5638733 132.2724762
-237.1483765 144.7681732 131.0783539
-256.0189209 143.1372070 138.0425720
-255.1020660 143.0336609 138.5372162
-237.1626892 144.0466309 131.0458069
-255.1464539 142.3387299 138.3818054
-237.1881409 143.3458557 130.8975983
-255.2004700 141.6525574 138.1805267
-237.2385101 142.6551819 130.6832581
-255.2804565 140.9752808 137.9204407
-237.3092499 141.9707031 130.4379578
-255.3705292 140.3082428 137.6022797
-254.4895782 140.2190094 138.0246582
-253.6616669 140.1472168 138.3532867
-238.2712097 140.9261169 132.3535309
-237.8258514 141.0941315 131.3532562
-237.3888550 141.3017883 130.0697021
-255.4890594 139.6547394 137.2112732
-254.6021271 139.5627289 137.6535339
-253.7531433 139.4859009 138.0091248
-238.3716125 140.2644043 131.9784851
-237.9340515 140.4381104 130.9380188
-254.7223511 138.9178314 137.2270355
-253.8721466 138.8340912 137.6075439
-239.4972229 139.3304443 133.3028870
-238.9669952 139.4637756 132.4608612
-238.4950867 139.6150360 131.5478973
-238.0639038 139.7921295 130.4566040
-254.8849945 138.2693024 136.7437592
-254.0033417 138.1955261 137.1493225
-239.6201782 138.6824951 132.8480682
-239.1021576 138.8215485 131.9881592
-238.6397247 138.9797211 131.0119019
-254.1777649 137.5574799 136.6015930
-253.3132629 137.4915161 136.9449310
-252.4735718 137.4301910 137.2128448
-240.8420105 137.8252411 133.7412720
-240.2934418 137.9262238 133.0715790
-239.7712708 138.0472107 132.3211365
-239.2617798 138.1921692 131.4056702
-238.8117065 138.3560181 130.4146576
-254.3598480 136.9330597 135.9964294
-253.4859772 136.8718262 136.3550873
-252.6506042 136.8030396 136.6476135
-240.9956055 137.1917725 133.1857300
-240.4605560 137.3026123 132.5099335
-239.9456635 137.4257965 131.7068634
-239.4490051 137.5818024 130.7454071
-253.7049713 136.2627563 135.6600342
-252.8421936 136.1931458 135.9993439
-252.0482178 136.1358032 136.2386475
-251.2567749 136.0978241 136.4036560
-250.4663391 136.0660400 136.4898834
-249.7077332 136.0486145 136.5295715
-242.3362732 136.3880310 133.7998962
-241.7440033 136.4743042 133.2253876
-241.1758270 136.5754700 132.5596466
-240.6435089 136.6874084 131.8182220
-240.1528168 136.8241272 130.9843750
-239.6678925 136.9896545 129.9506836
-253.9418488 135.6619873 134.8904877
-253.0706940 135.5984039 135.2554321
-252.2509155 135.5398102 135.5350342
-251.4609833 135.4939880 135.7227020
-250.6794891 135.4573212 135.8262634
-249.9067841 135.4326172 135.8864136
-242.5249786 135.7775879 133.1390533
-241.9400940 135.8660889 132.5226746
-241.3836212 135.9735870 131.8191681
-240.8710785 136.0971069 131.0410004
-240.3966980 136.2456665 130.1175537
-252.5124969 134.9549713 134.6943970
-251.7118225 134.9000854 134.9152679
-250.8924561 134.8624725 135.0787201
-250.1272125 134.8356934 135.1677704
-249.3919373 134.8165436 135.1773224
-248.6439209 134.8162231 135.1301270
-247.9153748 134.8202820 135.0345154
-247.2218475 134.8325806 134.8932495
-246.5270996 134.8551331 134.6919708
-245.8374023 134.8896332 134.4394531
-245.1812592 134.9239807 134.1315308
-244.5521240 134.9762268 133.7876892
-243.9138184 135.0314026 133.3511963
-243.3178558 135.0987549 132.8896179
-242.7421570 135.1774902 132.3568420
-242.1800537 135.2765198 131.7185059
-241.6370544 135.3932495 130.9653931
-241.1383362 135.5298157 130.1042633
-252.8177795 134.3683167 133.7390137
-251.9710541 134.3245544 134.0375824
-251.1551361 134.2841797 134.2115326
-250.3763123 134.2514038 134.3158722
-249.6350250 134.2373657 134.3589783
-248.8879852 134.2313232 134.3227692
-248.1553345 134.2332001 134.2285919
-247.4597015 134.2403412 134.0891418
-246.7500763 134.2619171 133.9011230
-246.0571136 134.2928162 133.6370087
-245.4088898 134.3390961 133.3194122
-244.7909851 134.3882446 132.9522705
-244.1553345 134.4538422 132.5171509
-243.5600739 134.5240784 132.0131073
-243.0095367 134.6061401 131.4483643
-242.4605713 134.7126770 130.7549438
-241.9341125 134.8396759 129.9387665
-245.6905518 133.7487335 132.3796692
-245.0737610 133.8121185 131.9977417
-244.4501953 133.8774719 131.5168610
-243.8614197 133.9606934 130.9804077
-243.3121338 134.0573883 130.3570251
-242.7888336 134.1642303 129.5881500
-252.1122437 -143.4706573 142.7104187
-251.7747345 -143.9696808 143.8984985
-251.0029449 -143.9192810 144.0326385
-250.2326050 -143.8929749 144.0902863
-248.0727234 -143.8704224 143.8803711
-247.3652344 -143.8860779 143.7010803
-246.6979523 -143.9099884 143.4486694
-246.0403900 -143.9572601 143.1393738
-245.4048615 -144.0228882 142.7695007
-244.8143311 -144.0890503 142.3216553
-244.2275391 -144.1730804 141.8166046
-243.6466064 -144.2925415 141.2238464
-243.1112976 -144.4203339 140.5661163
-242.6089020 -144.5572815 139.7325134
-252.2458191 -144.5344086 144.7278137
-251.4544678 -144.4772034 144.9193726
-249.2407074 -144.3860016 144.9873047
-248.5201111 -144.3867340 144.9108887
-247.8065643 -144.3909607 144.7614899
-247.1141205 -144.4098816 144.5791931
-245.1359100 -144.5442200 143.6834564
-244.5380859 -144.6088104 143.2764740
-243.9450531 -144.6892090 142.8105164
-243.3547058 -144.7884521 142.2438965
-242.8097534 -144.9003601 141.6078949
-242.2975159 -145.0455017 140.9061737
-241.7833252 -145.1930542 139.9909668
-253.6464233 -145.2297363 145.0741425
-252.7932129 -145.1370544 145.3907471
-251.9946747 -145.0582275 145.6029510
-251.2154236 -145.0070648 145.7449951
-249.0011902 -144.9343262 145.7885590
-248.2980804 -144.9328766 145.6875916
-247.5813599 -144.9462891 145.5442657
-246.8945160 -144.9610291 145.3526001
-244.9229126 -145.0857086 144.4675751
-244.3176727 -145.1472321 144.0826569
-243.7037659 -145.2262573 143.6320801
-243.1144714 -145.3200989 143.1064453
-242.5516510 -145.4278564 142.5194397
-242.0202332 -145.5559845 141.8609009
-241.5015869 -145.7136841 141.0492859
-254.2331543 -145.8623352 145.5592499
-253.3962402 -145.7612610 145.9124298
-252.5620728 -145.6795959 146.1859894
-243.5019379 -145.7963409 144.3749695
-242.9010010 -145.8771210 143.8524170
-242.3272705 -145.9824371 143.3088684
-241.7809601 -146.0968323 142.6656494
-241.2489319 -146.2435303 141.9116821
-240.7455750 -146.4044189 141.0835114
-254.8580780 -146.5175781 145.9435120
-254.0071411 -146.4118347 146.3338623
-253.1818390 -146.3212128 146.6470032
-252.3651428 -146.2454834 146.8749542
-243.3186646 -146.3715820 144.9931030
-242.7171021 -146.4601593 144.5103912
-242.1368256 -146.5543365 143.9802551
-241.5823059 -146.6656189 143.3861237
-241.0346222 -146.7994995 142.6624756
-240.5277252 -146.9557648 141.8771667
-240.0586853 -147.1338959 140.9704742
-239.5961304 -147.3370972 139.8338928
-254.6362762 -147.0846252 146.6640167
-253.8061829 -146.9802246 147.0156860
-252.9823914 -146.9009094 147.3017731
-252.1779480 -146.8323975 147.5031586
-240.8460999 -147.3807678 143.3040314
-240.3273010 -147.5239563 142.5538483
-239.8509827 -147.6939697 141.7132263
-239.3970337 -147.9026184 140.6819153
-255.3497162 -147.7818298 146.8456726
-254.4491882 -147.6673737 147.2862854
-253.6200104 -147.5690460 147.6194916
-252.8303528 -147.4924316 147.8605957
-252.0164032 -147.4300995 148.0474854
-240.6944885 -147.9793854 143.8728027
-240.1638489 -148.1171722 143.1397095
-239.6744232 -148.2730713 142.3348389
-239.2117615 -148.4713135 141.3627319
-238.7673645 -148.6972046 140.2182159
-255.1753387 -148.3773499 147.4210815
-239.5207367 -148.8765259 142.8921051
-239.0420532 -149.0627441 141.9636688
-238.5988312 -149.2801971 140.8869171
-255.0275574 -148.9853210 147.9222870
-239.3896790 -149.4918518 143.3675690
-238.8970490 -149.6691589 142.4724121
-238.4400635 -149.8830109 141.4305115
-254.8968811 -149.6072540 148.3686218
-254.0273743 -149.5059814 148.7132263
-253.2222290 -149.4222260 148.9807739
-238.3116760 -150.4985657 141.9088287
-237.8838043 -150.7285004 140.7560425
-254.7770081 -150.2363892 148.7548218
-253.9212341 -150.1426086 149.0768433
-253.1275940 -150.0624695 149.3307800
-238.2060089 -151.1317749 142.3078156
-237.7705841 -151.3571625 141.1960144
-253.8296509 -150.7899323 149.3915863
-253.0301666 -150.7114258 149.6387939
-238.1182251 -151.7821350 142.6162720
-237.6880798 -152.0063171 141.5285339
-253.7672882 -151.4491882 149.6473389
-252.9523010 -151.3713989 149.8926697
-238.0504456 -152.4454346 142.8828430
-237.6213379 -152.6674194 141.8106232
-253.7050629 -152.1165619 149.8695831
-252.9053040 -152.0421906 150.0971985
-237.9945374 -153.1228027 143.0800934
-237.5714417 -153.3405762 142.0311737
-237.1489716 -153.6140594 140.7191467
-253.6546631 -152.7942200 150.0444641
-252.8533783 -152.7225037 150.2579803
-237.9563904 -153.8105621 143.2313232
-237.5313721 -154.0335083 142.1607666
-237.1297913 -154.3081055 140.8623199
-237.9385986 -154.5125122 143.3225098
-237.5146484 -154.7392273 142.2371521
-237.1137390 -155.0177002 140.9317627
-237.9399109 -155.2289429 143.3499908
-237.5202332 -155.4563599 142.2588654
-237.9555359 -155.9606628 143.3071289
-237.5422211 -156.1995697 142.1796112
-237.9941559 -156.7053986 143.2099609
-237.5871887 -156.9508820 142.0613403
-241.1613159 -156.5265198 147.6437683
-240.5970612 -156.6346436 147.0893707
-238.9875793 -157.0642700 144.9697418
-238.4998779 -157.2496643 144.0771332
-238.0536041 -157.4656525 143.0425262
-237.6458740 -157.7344055 141.8259125
-241.1949463 -157.2798615 147.5249023
-240.6354370 -157.3911438 146.9530487
-239.0463409 -157.8268738 144.7900848
-238.5704498 -158.0206451 143.8644867
-238.1356964 -158.2570801 142.7618713
-253.7537537 -157.8549957 149.9057007
-252.9346771 -157.7625122 150.1800842
-252.1429443 -157.6905975 150.3881073
-251.3572540 -157.6357117 150.5348053
-240.1429138 -158.2846375 146.1095428
-239.6174011 -158.4316406 145.3740845
-239.1257172 -158.6100311 144.5331116
-238.6657715 -158.8145294 143.5572052
-238.2392578 -159.0722961 142.3843536
-253.8338470 -158.6298218 149.6451721
-253.0159760 -158.5379333 149.9427490
-252.2209473 -158.4606628 150.1714783
-251.4296570 -158.3996582 150.3351898
-240.2311707 -159.0581665 145.8653259
-239.7055054 -159.2305145 145.0683441
-239.2357025 -159.4064178 144.2044067
-253.9452515 -159.4260712 149.3310852
-253.1103210 -159.3230591 149.6487427
-252.3050842 -159.2400513 149.9034271
-251.5091553 -159.1736755 150.0883179
-242.5911865 -159.3895721 147.9167633
-241.9893036 -159.4831848 147.4142456
-241.4250488 -159.5944366 146.8576965
-240.8797302 -159.7205963 146.2377319
-240.3359222 -159.8680115 145.5086060
-239.8331604 -160.0346985 144.6957703
-253.2384644 -160.1304626 149.2824554
-252.4220428 -160.0409088 149.5607147
-251.6065063 -159.9645691 149.7726135
-242.6921539 -160.1732635 147.6114960
-242.0939026 -160.2774200 147.0794373
-241.5367737 -160.4036865 146.4882965
-241.0035706 -160.5255127 145.8510437
-240.4703522 -160.6918640 145.0651245
-239.9817810 -160.8785858 144.1945343
-253.3837433 -160.9618225 148.8369141
-252.5632019 -160.8632355 149.1216888
-251.7540283 -160.7898865 149.3527374
-242.8181458 -161.0035706 147.1949463
-242.2292328 -161.1097412 146.6397552
-241.6770172 -161.2396545 146.0274048
-241.1535187 -161.3682251 145.3564148
-240.6378479 -161.5521851 144.5044861
-252.7499390 -161.7149048 148.5768127
-251.9048462 -161.6176300 148.8535919
-242.9713440 -161.8343048 146.7037659
-242.3962402 -161.9576721 146.1152649
-241.8529358 -162.0813904 145.4771729
-241.3471985 -162.2341003 144.7362366
-240.8429260 -162.4419403 143.8279419
-252.9917297 -162.6298523 147.9024353
-252.1165771 -162.4939575 148.2241516
-251.3003845 -162.4081116 148.4498901
-250.5362244 -162.3605347 148.5805664
-249.7749481 -162.3202362 148.6498260
-249.0145874 -162.2900238 148.6613159
-244.3372498 -162.5121765 147.0816193
-243.7460938 -162.5966187 146.6324921
-243.1605530 -162.7062378 146.0878296
-242.6007996 -162.8321686 145.4608307
-242.0841827 -162.9745789 144.7529297
-241.5919189 -163.1689606 143.9096680
-251.5596924 -163.3420868 147.6982574
-250.7537079 -163.2457581 147.8709717
-249.9912567 -163.2046204 147.9564972
-249.2360840 -163.1768188 147.9867249
-244.5534363 -163.4142456 146.3648682
-243.9729919 -163.4968719 145.8906555
-243.4027863 -163.6128387 145.3010559
-242.8639679 -163.7590942 144.6041107
-250.2704468 -164.1535645 147.1046143
-249.5018158 -164.0930634 147.1537476
-248.7714081 -164.0648804 147.1451874
-248.0663147 -164.0791473 147.0366364
-247.3631134 -164.0900879 146.8807220
-246.6944885 -164.1149902 146.6610565
-246.0706482 -164.1670532 146.3591766
-245.4363861 -164.2341614 145.9717407
-244.8273163 -164.3365936 145.4881134
-249.1218262 -165.0923767 146.0553131
-248.4108124 -165.0822601 145.9791565
-247.6965637 -165.0878601 145.8313599
-247.0376892 -165.1314697 145.5737152
-246.4198456 -165.1942596 145.2458344
-248.5394897 152.9476471 137.0791473
-247.1154785 152.9647675 136.8463135
-245.7768097 153.0308228 136.3644104
-244.4990692 153.1450195 135.6382904
-249.6555176 151.2984009 138.2689209
-248.1888428 151.2760468 138.2352600
-246.7726135 151.2960205 137.9889069
-245.4234314 151.3585205 137.5316467
-244.1323547 151.4543762 136.8793335
-250.9425507 149.7481384 138.9534607
-249.4082642 149.6961060 139.0839081
-247.9501190 149.6817627 139.0111542
-246.5365753 149.7030182 138.7570190
-245.1849518 149.7579956 138.3095551
-243.8823395 149.8529053 137.6847076
-242.6334839 149.9890900 136.8444061
-252.3211670 148.2804871 139.2120361
-250.7662048 148.1972961 139.5221558
-249.2330322 148.1490326 139.6203003
-247.7862091 148.1419678 139.5216370
-246.3776093 148.1657715 139.2547913
-245.0243225 148.2196198 138.8205261
-243.7138672 148.3063965 138.2211609
-242.4508209 148.4294739 137.4286652
-241.2660217 148.5868530 136.4506531
-252.2015991 146.7687073 139.5804138
-250.6518555 146.6900940 139.8551025
-249.1248779 146.6472168 139.9324646
-247.6829071 146.6403809 139.8286438
-246.2743378 146.6630859 139.5614014
-244.9192810 146.7167969 139.1318359
-243.6111450 146.8035583 138.5372925
-242.3402405 146.9192352 137.7714539
-241.1451569 147.0679321 136.8367920
-239.9810333 147.2644958 135.6512451
-253.7812042 145.4124756 139.2444458
-252.1430969 145.2934875 139.7429810
-250.6018677 145.2212830 139.9935150
-246.2314911 145.2001190 139.6788025
-244.8741302 145.2528992 139.2555084
-243.5599060 145.3335266 138.6747437
-242.2861938 145.4450073 137.9273682
-241.0819397 145.5872345 137.0187988
-239.9114075 145.7761536 135.8629913
-238.8269043 146.0134583 134.4388733
-253.7802582 143.9723511 139.2248230
-252.1430969 143.8568115 139.7087708
-250.5978546 143.7847443 139.9589081
-246.2277679 143.7640686 139.6434021
-244.8702240 143.8135071 139.2292786
-243.5564728 143.8947754 138.6469574
-242.2761536 144.0040894 137.9080505
-241.0727997 144.1403656 137.0259857
-239.8947754 144.3211365 135.8948669
-238.8009338 144.5507813 134.5034790
-253.8289490 142.5639343 139.0226440
-252.1872864 142.4484863 139.5146027
-250.6499634 142.3793640 139.7536621
-249.1278992 142.3415833 139.8179932
-247.6818237 142.3347321 139.7142944
-246.2791290 142.3576965 139.4459991
-244.9189606 142.4066772 139.0336456
-243.6037140 142.4845276 138.4641571
-242.3215637 142.5916443 137.7314301
-241.1143799 142.7285461 136.8365021
-239.9299622 142.9047241 135.7229309
-238.8341064 143.1272278 134.3548889
-237.8349152 143.4129639 132.6392670
-253.9461060 141.1906128 138.6250153
-252.2939148 141.0729370 139.1334229
-250.7496033 141.0010071 139.3923645
-249.2229156 140.9630585 139.4619293
-247.7808380 140.9553528 139.3612366
-246.3733368 140.9764557 139.1018066
-245.0105286 141.0263367 138.6879425
-243.6958923 141.1009521 138.1255035
-242.4112244 141.2069397 137.3932495
-241.1977234 141.3420105 136.5026550
-240.0210266 141.5180359 135.3789673
-238.9262543 141.7386780 134.0101013
-237.9312286 142.0230408 132.2853088
-252.4579926 139.7298737 138.5641632
-250.9042816 139.6533813 138.8498993
-249.3688049 139.6103821 138.9480286
-247.9171295 139.6026611 138.8587341
-246.5084991 139.6214142 138.6035004
-245.1465302 139.6694183 138.1921082
-243.8244324 139.7444458 137.6338806
-242.5470428 139.8497772 136.8931885
-241.3428345 139.9850311 135.9892731
-240.1681976 140.1631470 134.8478088
-239.0772247 140.3870239 133.4459534
-252.6846924 138.4186707 137.8013458
-251.1144562 138.3352051 138.1303101
-249.5715637 138.2886658 138.2500916
-248.1146393 138.2778168 138.1739655
-246.7008057 138.2951050 137.9285278
-245.3337555 138.3416748 137.5276642
-244.0214996 138.4178772 136.9506531
-242.7350769 138.5235596 136.2073212
-241.5365295 138.6606445 135.2904053
-240.3686066 138.8415070 134.1123657
-251.3933716 137.0513763 137.1925049
-249.8363953 137.0007019 137.3481293
-248.3749084 136.9851837 137.2911682
-246.9483032 136.9990845 137.0696716
-245.5792694 137.0448761 136.6646423
-244.2619171 137.1209717 136.0866241
-242.9855499 137.2297516 135.3240356
-241.7946167 137.3710480 134.3690796
-248.7046204 135.7292023 136.1873016
-247.2662659 135.7398987 135.9769287
-245.8943481 135.7845612 135.5666351
-244.5788574 135.8642120 134.9786377
-243.3138123 135.9744720 134.1723022
-250.2047424 -144.6880951 145.4212494
-246.0006866 -144.7391663 144.5850830
-251.2865906 -145.8806763 146.7536316
-249.7795715 -145.8156433 146.8537903
-248.3536682 -145.7974091 146.7391663
-246.9456177 -145.8184814 146.4422607
-245.6113281 -145.8789368 145.9708252
-244.3303680 -145.9801331 145.3075867
-250.9363403 -147.0591278 147.9447327
-249.4490814 -147.0057068 147.9839478
-248.0335999 -146.9944611 147.8437042
-246.6355438 -147.0180969 147.5286713
-245.3039551 -147.0774231 147.0613556
-244.0209351 -147.1749878 146.4167480
-242.7854156 -147.3153687 145.5935669
-241.6142273 -147.5001526 144.5472107
-253.8162537 -148.5283203 148.2089539
-252.2095032 -148.3827820 148.6622620
-250.6641846 -148.2895813 148.8771362
-249.1891022 -148.2451172 148.8859253
-247.7766724 -148.2352905 148.7244568
-246.3891602 -148.2613220 148.4025116
-245.0575409 -148.3213196 147.9411621
-243.7702179 -148.4202881 147.2966919
-242.5345306 -148.5536804 146.4969635
-241.3532867 -148.7328186 145.5013123
-240.2286835 -148.9682007 144.2345123
-251.9891510 -149.6477356 149.4277802
-250.4510498 -149.5626831 149.6064758
-248.9846191 -149.5212555 149.5929718
-247.5756683 -149.5138550 149.4293976
-246.1895447 -149.5416260 149.1038361
-244.8657532 -149.6034546 148.6318817
-243.5731812 -149.7017365 147.9935150
-242.3390808 -149.8349304 147.2050171
-241.1484375 -150.0073853 146.2384033
-240.0117493 -150.2373962 145.0152893
-238.9771118 -150.5278168 143.5215759
-251.8246613 -150.9519653 150.0103455
-250.2951660 -150.8714447 150.1653748
-248.8280334 -150.8319702 150.1393585
-247.4244385 -150.8266296 149.9646149
-246.0385132 -150.8562012 149.6366577
-244.7135925 -150.9176331 149.1687012
-243.4278717 -151.0153809 148.5385132
-242.1871033 -151.1492462 147.7499695
-240.9960938 -151.3227539 146.7879944
-239.8624573 -151.5502319 145.5830841
-238.8115997 -151.8334961 144.1383057
-251.7131348 -152.2957153 150.4093018
-250.1901550 -152.2152252 150.5611267
-248.7178345 -152.1755219 150.5345764
-247.3154602 -152.1703491 150.3623352
-245.9376373 -152.2031708 150.0193176
-244.6117096 -152.2667694 149.5439606
-243.3231659 -152.3644104 148.9194641
-242.0859680 -152.5015411 148.1221924
-240.9024353 -152.6769104 147.1581573
-239.7612915 -152.9033661 145.9678497
-238.7108459 -153.1899414 144.5174866
-253.2175903 -153.7979889 150.3119202
-251.6497040 -153.6727905 150.6556396
-250.1277008 -153.5921936 150.8072815
-248.6582947 -153.5541229 150.7725067
-247.2565155 -153.5502167 150.5935669
-245.8775635 -153.5838470 150.2506409
-244.5544128 -153.6467896 149.7780609
-243.2670135 -153.7461243 149.1524811
-242.0365448 -153.8853455 148.3498840
-240.8513794 -154.0634766 147.3808289
-239.7112122 -154.2966003 146.1719666
-238.6692200 -154.5877991 144.7125092
-253.2124023 -155.2179260 150.3804779
-251.6365662 -155.0867615 150.7417603
-250.1141968 -155.0040588 150.8972626
-248.6467743 -154.9673767 150.8597717
-247.2387390 -154.9613800 150.6868134
-245.8635101 -154.9948120 150.3456421
-244.5428772 -155.0606384 149.8649292
-243.2562408 -155.1636810 149.2259827
-242.0281982 -155.3082275 148.4097290
-240.8507385 -155.4917755 147.4245911
-239.7195587 -155.7333984 146.1861877
-238.6877289 -156.0359039 144.6874695
-253.2633667 -156.6802368 150.2625885
-251.6814880 -156.5436554 150.6482086
-250.1500549 -156.4557343 150.8217621
-248.6806335 -156.4143982 150.8009949
-247.2755737 -156.4100037 150.6177368
-245.8971558 -156.4448700 150.2768402
-244.5785828 -156.5105896 149.7941284
-243.3001404 -156.6198730 149.1386871
-242.0721741 -156.7669678 148.3105164
-239.7864227 -157.2151947 146.0090485
-250.2452545 -157.9509735 150.5640869
-248.7663422 -157.9042053 150.5590210
-247.3625946 -157.8996735 150.3857880
-245.9820709 -157.9309998 150.0485687
-244.6693878 -158.0056000 149.5463409
-243.3971558 -158.1154938 148.8791504
-242.1757965 -158.2747040 148.0166321
-241.0163879 -158.4759827 146.9596100
-250.4102631 -159.4975281 150.0885162
-248.9225769 -159.4464722 150.1102600
-247.5056458 -159.4372253 149.9526520
-246.1286621 -159.4719238 149.6053467
-244.8250732 -159.5473022 149.0933685
-243.5512695 -159.6688690 148.3925476
-250.6638336 -161.1197052 149.3238068
-249.1531677 -161.0525818 149.4013977
-247.7313232 -161.0372314 149.2654114
-246.3532867 -161.0744934 148.9232330
-245.0513000 -161.1529999 148.3926544
-243.7871094 -161.2852478 147.6479340
-248.0617371 -162.7267761 148.2280273
-246.6778259 -162.7618256 147.8861694
-245.3904114 -162.8535156 147.3157959
-248.3572845 144.4624634 139.9794006
