261.0768433 177.6805115 71.7198792
261.4587402 177.6716919 71.8205872
259.3578796 177.2513580 72.0256271
258.5000305 176.8597260 72.3081207
258.8294678 176.7818146 72.5247498
259.1649780 176.7082062 72.7228622
259.5144653 176.6639404 72.8913193
259.8840027 176.6233826 73.0518112
262.6307983 176.5694427 73.3052979
263.0574341 176.5680542 73.2688980
263.4941101 176.6038055 73.1822052
257.4468994 176.6073914 72.0050125
257.6882935 176.4764862 72.3916016
264.1560364 176.1391296 73.5712662
256.8635864 176.1209259 72.3602753
257.1949768 176.0344696 72.6869049
257.5234985 175.9608612 72.9855194
263.9810791 175.6238708 74.1076279
264.4057312 175.6359558 73.9933701
264.8832092 175.6812744 73.7836304
265.4004211 175.7610321 73.5055923
256.0699158 175.8396149 72.2362213
265.6875916 175.3109894 73.8651733
255.3381500 175.5291290 72.0534973
255.6396027 175.4434967 72.3929214
255.9471283 175.3652954 72.7173386
265.5171204 174.8016357 74.3758011
265.9997864 174.8824005 74.1441422
254.5087738 174.7924500 72.1584549
266.1830444 173.9934845 74.7840881
267.0620728 173.6705170 74.5927429
253.7194824 174.1004333 72.0728531
266.9182739 173.1947479 74.9608307
267.4461365 173.2829437 74.6572571
252.9985504 173.4130249 71.8823013
267.7471313 172.4639282 74.9722366
268.2778015 172.5454865 74.6023788
267.6288757 172.0136414 75.2750854
252.1202393 173.0191498 70.6836319
252.3004303 172.8541870 71.3812485
267.5401917 171.5941162 75.5456772
268.1194153 171.7001648 75.1968689
251.9582520 172.4512787 71.2617493
252.2093658 172.3558044 71.7808533
251.8594818 172.0474854 71.5553818
252.1302948 171.9383850 72.0598984
268.4385071 170.9295349 75.3754425
251.5129547 171.7657623 71.2745514
268.3291016 170.4949036 75.5898590
251.1711884 171.4879303 70.9572906
251.4463501 171.3517303 71.4955673
268.2807007 170.1039734 75.7406693
269.2546387 169.4756470 75.2806168
250.7586517 170.3764496 71.0557785
269.1872864 169.0767212 75.4048386
250.7227325 169.9727631 71.2165527
269.1540833 168.6920319 75.5001984
250.0698395 168.6648712 70.5980911
250.0433350 168.2877502 70.6606445
250.0354767 167.9029541 70.7367325
250.0249176 167.5311127 70.7697601
249.7463074 167.2852020 70.2261963
250.0284576 167.1549530 70.8096848
249.5164642 165.2416992 69.5086060
249.5333862 164.8896027 69.4325790
269.2169495 163.3425598 75.1226959
269.7586365 163.4091644 74.7317581
249.5285492 164.5458679 69.3100357
250.1108093 163.9542389 70.4037399
250.1467590 163.6121979 70.2903671
250.3085785 162.2661743 69.6745605
250.3649597 161.9452972 69.4644775
268.7011719 160.6470337 74.1751251
250.4253540 161.6242371 69.2228546
268.7952576 160.3326721 73.8898315
250.1922913 161.4153442 68.3472366
250.4829407 161.3017731 68.9838028
250.5858765 160.6570282 68.4222870
250.8666534 160.5580444 68.9894791
251.1358643 160.4617157 69.4870071
267.0093384 159.2189331 74.3100357
267.5201111 159.2606964 74.0116730
268.0492249 159.3074799 73.6680145
251.2003174 160.1383057 69.2223129
267.1395874 158.9088287 73.9640808
267.2434998 158.6101074 73.6212921
267.7330322 158.6447906 73.3500977
251.3460388 159.5170898 68.5361481
267.3480835 158.3082886 73.2658691
251.7098083 159.1184692 68.7464371
252.0162964 159.0355072 69.2623825
265.5722351 157.8809509 73.8206024
266.0269165 157.9024200 73.6278534
266.4729309 157.9663239 73.4540787
252.0984192 158.7274475 68.8930588
265.6879578 157.5797882 73.4567719
252.1923218 158.4164276 68.4819412
252.5028534 158.3556824 68.9712448
252.8030701 158.2798462 69.4186935
265.7945251 157.2898865 73.0968170
252.6162262 158.1038055 68.5319977
252.9304657 158.0123901 69.0243073
252.8226318 157.7947693 67.8157196
253.0555420 157.6941681 68.4878769
253.3173065 157.6207886 69.0515442
253.5842590 157.5259247 69.4440384
265.0851135 156.6756592 72.6487732
253.6984406 157.2369537 68.9856110
265.2126465 156.3862000 72.1788940
253.8159637 156.9506836 68.5260468
264.4404907 156.0890961 72.0306778
264.8941650 156.0948181 71.8642426
253.9258881 156.6478729 67.9882278
264.5821533 155.8089294 71.5279694
254.3385162 156.2904968 67.8027802
254.6443939 156.2304535 68.2596588
263.8544006 155.5116882 71.2931137
264.3106384 155.5046997 71.1201248
264.0448608 155.2162170 70.7197571
255.5655518 155.5378265 67.8095474
256.5799255 154.9037933 67.1306763
256.9042053 154.8592682 67.4743271
257.2178955 154.8074646 67.7401733
260.4068909 154.5229645 69.2591324
260.8077087 154.5011749 69.3098221
261.1858215 154.5070190 69.4031448
260.6146240 154.2686768 68.5171432
260.9575806 154.2365417 68.5691757
260.0523071 154.0481567 67.5112686
260.4573364 154.0196228 67.5291595
115.5448303 171.6161194 -189.8203583
116.0529404 171.5544128 -189.6386108
116.5489655 171.5055084 -189.4917450
117.0585251 171.5195618 -189.4255219
117.5853958 171.4791107 -189.3392487
118.0776215 171.4578094 -189.3153687
118.5913315 171.4936981 -189.3942413
119.1203003 171.5121460 -189.5146332
119.6445389 171.5265656 -189.6287537
120.1622543 171.5174713 -189.7366791
120.6855240 171.5510864 -189.9233246
114.0602798 171.1352234 -189.8668671
120.6043549 170.9239655 -189.2742310
113.0345154 170.6068878 -189.8435822
113.5280075 170.5355682 -189.5450592
114.0113297 170.5095825 -189.3089142
120.5288239 170.2994690 -188.6839447
120.4623337 169.7586823 -188.2231445
111.5242004 169.6479340 -189.9133759
111.9890137 169.5657349 -189.5257721
111.0294876 169.1472473 -189.8846588
120.3833008 168.6349640 -187.3382416
110.9875717 168.5916138 -189.4953613
120.3496094 168.1128082 -187.0469971
109.9839325 167.6293793 -189.6559296
119.1699600 166.4437256 -186.0576935
119.1728821 165.9109344 -185.8482819
108.9490814 166.1827850 -189.8131104
108.9601593 165.6329041 -189.5659180
107.9573593 163.2137451 -189.9344177
118.1316605 162.3721924 -185.1725464
107.9598312 162.7055206 -189.8835907
118.1398544 161.8722687 -185.1681366
107.9546890 162.2036896 -189.8648224
107.9768829 161.6974335 -189.8446350
107.9754639 161.2020569 -189.8725128
107.9674988 160.7097778 -189.9200745
119.2169113 159.4129639 -185.4620972
119.1573181 158.9345245 -185.5724945
119.1436157 158.4674072 -185.7055206
119.7634811 158.4528503 -185.7912598
119.1549072 157.9949799 -185.8724670
119.7109451 157.9914246 -185.9684601
120.3420486 157.9955292 -186.1106415
108.9738312 158.1513214 -189.5849915
120.2665405 157.5377197 -186.2919006
120.7877502 157.5525665 -186.4471741
108.9743729 157.6706238 -189.7942505
120.2593079 157.0728149 -186.4819183
120.7606049 157.0466309 -186.6268311
121.3572464 157.0247955 -186.7836609
122.4398804 156.6538849 -187.2765503
122.4421844 156.1823425 -187.5496979
123.0040436 156.2068939 -187.7927399
123.5464554 156.2461700 -188.0706940
124.1004791 156.2835693 -188.3968964
124.6691513 156.3120575 -188.7638245
109.9923401 156.1427612 -189.7120667
110.9899979 155.1187744 -189.6072845
124.6488800 154.9849701 -189.7485199
111.9489365 154.1260223 -189.7684937
122.6184158 153.9512024 -189.2789459
123.1684189 153.9662018 -189.5553741
123.6843567 154.0091400 -189.8546143
122.6786575 153.5087738 -189.7235413
113.5203552 153.1254120 -189.8526917
114.0454865 153.0841064 -189.6573944
120.6055679 152.9943848 -189.3941956
121.1581650 153.0053864 -189.5633698
121.6782074 153.0396881 -189.7280884
122.2129211 153.0460205 -189.9551849
120.6520996 152.5405731 -189.8692627
116.6307144 152.0915680 -189.9423523
117.1222763 152.0865936 -189.9050140
117.6114807 152.0794220 -189.8923187
118.0756302 152.0842743 -189.8970490
118.5710907 152.0603790 -189.9548645
260.5433655 176.8424377 72.8533249
261.2930908 176.8053589 73.0028915
262.1024475 176.8126831 73.0284729
258.0910339 176.1354523 73.0550079
258.7550659 176.0270844 73.4631577
259.4675903 175.9488678 73.7804337
260.2040710 175.8801575 74.0073090
260.9582825 175.8344574 74.1365433
261.7535706 175.8018341 74.1864929
262.5635376 175.7887268 74.1528168
263.4158936 175.8273926 74.0056305
256.4849548 175.4696198 72.9625015
257.1484985 175.3290100 73.5349197
257.8198853 175.2211151 73.9880600
258.4964600 175.1279449 74.3502426
259.2133179 175.0491638 74.6465149
259.9568787 174.9764709 74.8779449
260.7064819 174.9301300 75.0165024
261.4946899 174.9062347 75.0700455
262.3024292 174.8785400 75.0627060
263.1272583 174.8846436 74.9523544
263.9584961 174.8931580 74.7765961
264.8915405 174.9662628 74.4263458
255.0161285 174.8702850 72.5248566
255.6213989 174.7096863 73.1983414
256.2489929 174.5679932 73.7930756
258.2932739 174.2534332 75.0558701
259.0241394 174.1785889 75.3402557
264.6226196 174.0502319 75.2846146
265.5308228 174.1246338 74.9199295
254.2079163 174.1623840 72.5253448
254.8087158 173.9917755 73.2644119
255.4138336 173.8503571 73.8815460
256.0617371 173.7174377 74.4294662
258.1301575 173.4083405 75.6323853
258.8543701 173.3363190 75.8920822
264.4329224 173.2068481 75.9253311
265.3244629 173.2499695 75.6048203
266.2415466 173.3387451 75.1787415
253.4462280 173.4933929 72.3567581
254.0268402 173.3031006 73.1725464
254.6318359 173.1411743 73.8666687
264.2769470 172.3713379 76.4564743
265.1564941 172.4133911 76.1786499
266.0322266 172.4637451 75.8115845
267.0043640 172.5669556 75.2996063
252.7362366 172.8232117 72.0919571
253.2808990 172.6357574 72.9497375
253.8690491 172.4716339 73.6916504
254.4973755 172.3127594 74.3507080
264.1550598 171.5712585 76.8794861
265.0166016 171.5980377 76.6447449
265.9010010 171.6519470 76.3025436
266.8305054 171.7215729 75.8401566
252.5747986 171.9983978 72.6138306
253.1424408 171.8189392 73.4131851
253.7457428 171.6597900 74.1101913
254.3917847 171.5130920 74.7317581
265.7752075 170.8468323 76.7061768
266.7001343 170.9107208 76.2749329
267.7002563 171.0200195 75.7213898
251.8914337 171.3869781 72.1422043
252.4576416 171.1852875 73.0424194
253.0328217 171.0191650 73.7827301
253.6510620 170.8647614 74.4512634
254.2998505 170.7273712 75.0390015
265.6848755 170.0659790 77.0014954
266.6075745 170.1269531 76.6067505
267.5625916 170.2101440 76.0985413
251.2303772 170.8028564 71.5482178
251.7888336 170.5796967 72.5348587
252.3561096 170.3973389 73.3626633
252.9465942 170.2280884 74.0900040
267.4898682 169.4399261 76.3602829
268.4728394 169.5544739 75.7626266
251.1426086 170.0011444 71.8885269
251.7085876 169.7928162 72.8282166
252.2861328 169.6187744 73.6218491
252.8869934 169.4531555 74.3256531
267.4178467 168.6736755 76.5741806
268.3854980 168.7772675 75.9828873
250.5343170 169.4498291 71.1364288
251.0748291 169.2245483 72.1379776
251.6383820 169.0299377 73.0249481
267.3688965 167.9218445 76.7283173
268.3314209 168.0218811 76.1478424
269.3700256 168.1600037 75.4355850
250.4875031 168.6707611 71.3587646
251.0110626 168.4660950 72.3054352
251.5914459 168.2709351 73.1791916
267.3442383 167.1884766 76.8066635
268.2911987 167.2793579 76.2548370
269.3150635 167.4065552 75.5559082
250.4516907 167.9112854 71.5117722
269.3114624 166.6799927 75.5864563
250.4209137 167.1737366 71.5694427
269.3086548 165.9599304 75.5695343
249.8827515 166.6700439 70.5312805
250.4175720 166.4407196 71.5921783
269.3256836 165.2536469 75.4868698
249.8873596 165.9467773 70.4989700
250.4273224 165.7211609 71.5517502
269.3683167 164.5611572 75.3359680
249.9223328 165.2329254 70.4194336
250.4496613 165.0133514 71.4503708
267.4688721 163.6684570 76.3717728
268.4030151 163.7602081 75.8271179
269.4338989 163.8806152 75.1180496
249.9552460 164.5308838 70.2765808
250.4881592 164.3150940 71.3030396
267.5333557 162.9941101 76.1295242
268.4820557 163.0889130 75.5664139
250.5398560 163.6266327 71.0997849
265.7523804 162.2023468 76.6676483
266.6564941 162.2556610 76.3140717
267.6166382 162.3319397 75.8242340
268.5839539 162.4272919 75.2446747
250.0463257 163.1605072 69.7852097
250.6079559 162.9499512 70.8370590
265.8448181 161.5431519 76.3475876
266.7646484 161.5987549 75.9653778
267.7119751 161.6809387 75.4671860
268.6828613 161.7785339 74.8685684
250.6948242 162.2851410 70.5018005
251.2464600 162.0964813 71.3964462
251.8406067 161.9214478 72.2197495
265.9522705 160.8914032 75.9727173
266.8789978 160.9546814 75.5702515
267.8422852 161.0408630 75.0385284
268.8332825 161.1445618 74.3936234
250.8065186 161.6355133 70.1050186
251.3463593 161.4420776 71.0117416
251.9370422 161.2622223 71.8610458
266.0745239 160.2509308 75.5503235
267.0140686 160.3187256 75.1126251
267.9917603 160.4152832 74.5385284
250.9206543 160.9920959 69.6393738
251.4678802 160.7974701 70.5809021
252.0461731 160.6159363 71.4399033
262.7614441 159.5099792 75.9753723
263.5729370 159.5180054 75.8576355
264.4506531 159.5377197 75.6647797
265.3268738 159.5733032 75.4100418
266.2053528 159.6229858 75.0689392
267.1617126 159.6968842 74.5860367
268.1559448 159.7957611 73.9710007
251.6051178 160.1629181 70.0873871
252.1853333 159.9805298 70.9681244
262.8870544 158.8790894 75.5128784
263.7167358 158.8842468 75.3668442
264.5914612 158.9129486 75.1574631
265.4798584 158.9487152 74.8646545
266.3610535 159.0089417 74.4998932
251.7501831 159.5402374 69.4870148
252.3311005 159.3611755 70.4005127
252.9193420 159.1939392 71.1808853
253.5170288 159.0539551 71.8382416
263.0334473 158.2594147 74.9840469
263.8669128 158.2723999 74.8196030
264.7500610 158.2995605 74.5685654
265.6345825 158.3504333 74.2550430
266.5550537 158.4095764 73.8385239
252.5012054 158.7554932 69.7484436
253.0866852 158.5856781 70.5503235
253.6809692 158.4378052 71.2443390
263.2097778 157.6396179 74.3641357
264.0432129 157.6657104 74.1857681
264.9392700 157.6978912 73.8998795
253.2841797 158.0027161 69.8378448
253.8552551 157.8396454 70.5505066
261.7534790 157.0404663 73.8663635
262.5790100 157.0426941 73.8144531
263.3959961 157.0548706 73.6877136
264.2298584 157.0775909 73.4792480
265.1406860 157.1201019 73.1854477
254.0676880 157.2630157 69.7680054
261.9548950 156.4586945 73.1540680
262.7937317 156.4578400 73.0525665
263.6254883 156.4716492 72.8759079
264.4739380 156.5013275 72.6332855
254.3089600 156.6973877 68.8520432
254.9244537 156.5564880 69.5847702
255.5763855 156.4177094 70.2041168
259.0466309 155.9954987 72.0361176
259.8032837 155.9528656 72.2123566
260.5939636 155.9167023 72.3186646
261.3786621 155.8964081 72.3527679
262.1957397 155.8905640 72.3093338
263.0388794 155.8956299 72.1698761
263.8826294 155.9224091 71.9636841
255.1848145 155.9918365 68.5436096
255.8422699 155.8767395 69.2211609
259.2893372 155.4350586 71.1449890
260.0533447 155.3903046 71.2937775
260.8530273 155.3623962 71.3788376
261.6531067 155.3434448 71.3785782
262.4732971 155.3370361 71.3274918
263.3235474 155.3526001 71.1854553
256.1493530 155.3362579 68.0136414
256.8040771 155.2385254 68.6338196
257.4648438 155.1363373 69.1379776
258.1560059 155.0402222 69.5325699
258.8630066 154.9713135 69.8525848
259.5852051 154.9128265 70.0630341
260.3506775 154.8709412 70.2086487
261.1528625 154.8480530 70.2786407
261.9575500 154.8479614 70.3008423
257.8229065 154.6118469 67.7738647
258.5154114 154.5318146 68.2059937
259.2162170 154.4661865 68.5175323
259.9379883 154.4244995 68.7506104
114.7514572 170.7322845 -189.2231903
115.7213287 170.6552124 -188.8752747
116.7326202 170.5969696 -188.6353455
117.7573547 170.5608826 -188.5184326
118.7553253 170.5354919 -188.5499115
119.7838440 170.5655823 -188.7652588
112.7271347 169.7669373 -189.2687988
113.7079620 169.6637421 -188.6912384
114.6647415 169.5697327 -188.2252808
115.6283112 169.5101776 -187.9192047
116.6347122 169.4776306 -187.7241211
117.6783066 169.4393311 -187.6098328
118.6696625 169.4311676 -187.6455383
119.6658859 169.4554138 -187.8268738
111.6990204 168.7593842 -189.1067047
112.6407547 168.6424255 -188.4281769
113.6267853 168.5422821 -187.8723450
114.5863495 168.4778290 -187.4843445
115.5534973 168.4234161 -187.2051697
118.5804214 168.3191833 -186.9145508
119.5620422 168.3258972 -187.0459290
110.7117538 167.7933502 -189.1640472
111.6347046 167.6552887 -188.3965759
112.5803223 167.5483704 -187.7755127
113.5677948 167.4577637 -187.2689819
114.5246429 167.3915710 -186.9015808
115.5089417 167.3372192 -186.6207886
118.5119324 167.2491150 -186.3618622
119.4888687 167.2624512 -186.4743805
109.7142563 166.8505096 -189.4435730
110.6640625 166.6926575 -188.5534515
111.5786972 166.5875854 -187.8640747
112.5324097 166.4843292 -187.2882233
113.5167694 166.4090271 -186.8233337
114.4940033 166.3280945 -186.4427643
115.4716339 166.2661896 -186.1597900
118.4506531 166.2012177 -185.9286957
109.6813507 165.7757111 -188.9542236
110.6184540 165.6374207 -188.1111145
111.5546570 165.5234222 -187.4497528
112.5022125 165.4333649 -186.9202423
113.4910583 165.3564453 -186.4766235
114.4655991 165.2852783 -186.1151123
115.4406662 165.2354736 -185.8453064
118.4061890 165.1600342 -185.5891113
108.7073669 164.8859406 -189.5473633
109.6500168 164.7269287 -188.5912628
110.5902863 164.5997620 -187.7927856
111.5139771 164.4980316 -187.1803589
116.4654846 164.1638031 -185.4538574
117.4423370 164.1433258 -185.3851013
118.4101181 164.1219482 -185.3444366
108.6755981 163.8539886 -189.2944031
109.6280670 163.6946106 -188.3547363
110.5810165 163.5664673 -187.5828094
111.5124664 163.4666138 -186.9825134
116.4475937 163.1578827 -185.3300018
117.4156952 163.1328430 -185.2561340
118.4386292 163.1112976 -185.2092896
108.6805496 162.8294525 -189.1481628
109.6120758 162.6894379 -188.2631531
116.4441223 162.1578064 -185.2816772
117.4102325 162.1320496 -185.2044678
108.6867981 161.8284302 -189.1167145
109.6132050 161.6906433 -188.2510529
116.4497910 161.1692657 -185.3028870
117.4203262 161.1473389 -185.2420349
118.4221420 161.1301880 -185.2027893
108.6858368 160.8423004 -189.1836700
109.6379013 160.7025452 -188.3074493
116.4440918 160.1928101 -185.4136353
117.4306641 160.1707458 -185.3521729
118.3890305 160.1505127 -185.3114319
108.6935959 159.8661194 -189.3308716
109.6517181 159.7310486 -188.4729919
116.4623718 159.2263489 -185.5857239
117.4572525 159.2021179 -185.5203552
118.3963318 159.1884460 -185.4994049
108.7089005 158.8993835 -189.5745850
109.6830826 158.7723694 -188.7212219
110.6199417 158.6566162 -188.0087128
111.5351181 158.5597687 -187.4263611
112.4899750 158.4782257 -186.9360657
113.4883270 158.4055023 -186.5428925
118.4379501 158.2317657 -185.7645569
109.6980896 157.8240509 -189.0977783
110.6467438 157.7126770 -188.3763428
111.5661697 157.6129150 -187.7699127
112.5227966 157.5306549 -187.2601929
113.5257263 157.4605255 -186.8551331
118.4789200 157.2898712 -186.1065674
119.4505463 157.2911682 -186.2104492
109.7394867 156.8820190 -189.5264282
110.6937256 156.7777100 -188.8089294
111.6087875 156.6803894 -188.1981201
112.5538025 156.5982819 -187.6977844
113.5612946 156.5192719 -187.2794647
118.5269394 156.3505096 -186.5371399
119.5128860 156.3591919 -186.6354980
120.5475311 156.3766174 -186.8449097
121.6061707 156.4015045 -187.1318359
110.7224503 155.8424225 -189.3328400
111.6611557 155.7622375 -188.7292023
112.5967331 155.6725006 -188.2382202
113.6156006 155.5991364 -187.7821655
118.5723801 155.4288940 -187.0412292
119.5808487 155.4317932 -187.1627655
120.6243591 155.4542694 -187.3691254
121.6635284 155.4754791 -187.6820374
122.7082825 155.5306396 -188.0883636
123.8084488 155.5960388 -188.6896515
124.9007187 155.6754913 -189.4104767
111.6916733 154.8353577 -189.3691101
112.6606445 154.7706299 -188.8500977
113.6765747 154.6984100 -188.3950958
114.6858063 154.6301117 -188.0554657
115.6627502 154.5859222 -187.8284760
116.6565018 154.5440674 -187.7045593
117.6483078 154.5292969 -187.6333008
118.6258240 154.5294495 -187.6543274
119.6550674 154.5231323 -187.7990875
120.7122192 154.5492096 -188.0164642
121.7536316 154.5761108 -188.3470154
122.7872009 154.6330872 -188.7804871
123.8710556 154.6971436 -189.4156952
112.7062531 153.8513947 -189.5992584
113.7402039 153.7898254 -189.1533661
114.7504730 153.7397461 -188.7814178
115.7372971 153.6958618 -188.5344391
116.7266083 153.6604309 -188.4059601
117.7062759 153.6312866 -188.3567352
118.6843567 153.6254272 -188.3919983
119.7217789 153.6411438 -188.5350494
120.8082809 153.6592102 -188.8093567
121.8655090 153.6928711 -189.1786652
114.8211288 152.8333893 -189.5977173
115.8237762 152.7951050 -189.3700867
116.8058853 152.7688141 -189.2418365
117.7768326 152.7636719 -189.1797333
118.7526474 152.7503967 -189.2413788
119.7974930 152.7507629 -189.4197998
257.1790466 173.9704742 74.8068237
260.0550232 173.6738434 75.8880615
261.6112671 173.6091309 76.0387421
263.2399597 173.5964813 75.9179993
255.5256958 172.5344543 74.9174042
256.8952942 172.3201294 75.7848816
258.3034973 172.1578674 76.4016647
259.7888489 172.0445709 76.7896576
261.3341675 171.9714355 76.9682541
262.9474182 171.9508057 76.9011765
255.3205566 170.9431763 75.6274033
256.7063599 170.7409210 76.4378433
258.1215210 170.5850525 77.0258179
259.6060181 170.4768219 77.3921661
261.1566772 170.4026794 77.5765991
262.7557068 170.3769226 77.5386276
264.4318237 170.4010315 77.2524872
253.8698578 169.6359558 75.1039276
255.1881104 169.3983612 76.0946732
256.5822449 169.2120361 76.8538971
258.0049133 169.0645142 77.4061508
259.4913635 168.9547729 77.7764282
261.0382080 168.8836823 77.9590149
262.6360474 168.8569336 77.9259415
264.3069458 168.8755798 77.6665039
266.0446167 168.9488220 77.1359940
252.5174866 168.4039001 74.1988678
253.7868652 168.1290283 75.3929291
255.1120911 167.9052734 76.3387451
256.5135803 167.7202301 77.0786057
257.9377441 167.5824890 77.6080856
259.4329529 167.4739075 77.9723969
260.9756470 167.4066162 78.1430435
262.5733948 167.3784637 78.1118164
264.2463379 167.3943329 77.8686447
265.9711914 167.4608765 77.3728638
251.2668762 167.2489777 72.8848724
252.4728394 166.9256287 74.3401794
253.7556458 166.6599579 75.4984131
255.0863800 166.4459686 76.4061966
256.4925232 166.2704468 77.1183853
257.9217529 166.1325378 77.6406708
259.4220276 166.0301514 77.9886627
260.9679871 165.9620514 78.1579437
262.5669250 165.9348145 78.1290359
264.2334595 165.9507599 77.8821259
265.9603577 166.0151062 77.3915100
267.8164368 166.1519623 76.5355148
251.2621613 165.8001709 72.8661957
252.4794006 165.4850464 74.2893066
253.7682343 165.2292633 75.4158325
255.1095428 165.0191803 76.3094864
256.5216675 164.8481750 77.0057220
257.9534912 164.7156067 77.5116501
259.4553223 164.6151733 77.8526688
261.0106201 164.5521851 78.0047302
262.6068726 164.5258636 77.9698944
264.2773438 164.5431976 77.7157822
266.0041504 164.6075745 77.2237549
267.8621216 164.7442932 76.3625183
251.3158722 164.3882446 72.6550751
252.5375671 164.0786133 74.0681381
253.8289032 163.8292999 75.1716843
255.1772919 163.6238861 76.0538635
256.5915527 163.4572296 76.7360153
258.0292358 163.3281555 77.2287064
259.5325928 163.2299042 77.5655365
261.0879822 163.1697693 77.7056122
262.6909180 163.1462860 77.6589050
264.3663330 163.1660767 77.3889313
266.0979004 163.2349091 76.8739700
251.4225159 163.0149689 72.2423630
252.6421204 162.7093353 73.6451263
253.9349213 162.4598389 74.7634125
255.2828064 162.2584534 75.6397705
256.7040405 162.0938110 76.3208771
258.1456909 161.9674835 76.8050079
259.6575928 161.8731537 77.1208344
261.2164612 161.8162994 77.2506409
262.8230896 161.7975159 77.1811600
264.5083008 161.8229980 76.8809128
252.8013458 161.3709106 73.0600662
254.0909424 161.1232300 74.1830597
255.4398804 160.9221802 75.0641098
256.8605652 160.7586517 75.7366409
258.3056641 160.6368408 76.2164001
259.8272095 160.5463715 76.5168533
261.3899231 160.4942322 76.6223145
263.0034180 160.4807892 76.5253296
264.6988220 160.5141907 76.1872253
253.0133514 160.0700378 72.2555389
254.2983704 159.8204956 73.4046402
255.6462402 159.6175537 74.3027420
257.0634155 159.4563446 74.9858246
258.5151978 159.3365479 75.4516754
260.0430298 159.2510376 75.7305603
261.6177063 159.2039185 75.8123932
254.5682220 158.5556946 72.4121704
255.9142303 158.3511353 73.3355331
257.3279419 158.1896973 74.0219803
258.7795410 158.0721283 74.4853821
260.3131714 157.9914551 74.7497406
261.9028320 157.9527740 74.7862625
254.9190979 157.3443604 71.1183777
256.2524719 157.1320343 72.0974197
257.6644897 156.9686737 72.7874756
259.1192017 156.8541107 73.2554932
260.6619263 156.7767639 73.4879150
256.6965942 155.9794617 70.4719162
258.0942993 155.8087921 71.2208328
117.0768127 167.8148651 -186.6593933
116.9915543 165.6988068 -185.7918854
112.9617691 163.8560028 -186.3661041
114.9333801 163.7262878 -185.6779480
111.0315399 162.0172119 -187.2038727
112.9513397 161.8439331 -186.2031860
114.9206924 161.7230225 -185.5558777
111.0459442 160.0517426 -187.3760376
112.9613647 159.8842926 -186.3913269
114.9427414 159.7658997 -185.7520447
114.9938049 157.8519592 -186.2660675
117.0041046 157.7847290 -185.9770813
115.0775681 155.9794769 -187.0882874
117.0795135 155.9148407 -186.8108215
