220.8575287 124.7955627 -89.4038544
221.3043518 124.7888794 -89.3826828
218.8061523 124.2779694 -88.8829575
219.2635498 124.2660065 -88.7531433
219.7092743 124.2466125 -88.6427155
220.1639252 124.1782150 -88.5114517
220.6376648 124.1793900 -88.4942398
221.0896149 124.1914597 -88.4747391
221.5435486 124.1997604 -88.4507294
222.0161591 124.2119827 -88.4768066
222.4916687 124.2002869 -88.4934769
216.5968781 123.9649124 -89.5414810
223.3508759 123.7159576 -88.0737381
223.8652649 123.7283173 -88.2412567
216.4542389 123.3589554 -88.7319565
223.1699219 123.1033859 -87.3161392
223.6706543 123.1272354 -87.4468002
224.1741943 123.1878281 -87.6081161
215.5150452 122.9248657 -88.7508469
215.0158081 122.4925537 -88.6211700
215.4182281 122.4066620 -88.1767883
214.2151947 122.0341187 -88.9034348
214.5386047 122.0092850 -88.4772720
225.9243469 121.7433777 -86.8836288
226.4982452 121.8011093 -87.2547226
214.0913696 121.5234756 -88.3444519
214.4502563 121.4798355 -87.9060287
225.7699280 121.1964035 -86.3576965
226.3231812 121.2468033 -86.6814575
226.9020538 121.3282928 -87.0570145
213.5940857 121.0848923 -88.3052673
212.7221985 120.7607727 -88.8692474
213.1022034 120.6936035 -88.3765488
213.4981995 120.6164093 -87.8814392
227.7708740 120.3976212 -86.8356857
227.6895447 119.9121246 -86.4572678
211.8344574 119.9242630 -89.1384277
227.5570526 119.3824997 -86.0392303
228.1725922 119.4658585 -86.4717865
211.7672729 119.4196472 -88.7604752
211.3545837 119.0071640 -88.9814987
211.7106171 118.9270554 -88.4231262
210.9349518 118.6102982 -89.2998505
228.5044250 118.0650864 -85.9195862
210.5235291 118.2097855 -89.6448135
210.8862305 118.1241531 -89.0173340
228.4137726 117.5609894 -85.6604767
210.0595245 117.3501129 -89.8225632
210.0251465 116.8748856 -89.6007156
209.9966736 116.4070587 -89.4185410
229.4880371 115.8264542 -85.9058304
229.4736023 115.3729935 -85.8098907
229.4297485 114.9130478 -85.6998520
229.4141083 114.4605713 -85.6298676
229.4277496 114.0170059 -85.6032181
229.3889923 113.5671234 -85.5557938
208.8485413 113.9253998 -91.0506287
209.2109070 113.8329697 -90.2628326
229.3825378 113.1250305 -85.5490952
208.8423309 113.4784470 -91.0366592
209.1937714 113.3897018 -90.2802277
229.4005890 112.6833878 -85.5779037
209.2176666 112.9401398 -90.2448807
229.3817139 112.2432098 -85.5993271
229.4411163 111.8092117 -85.6931915
208.8825989 111.7028885 -91.1685410
209.2419891 111.6190643 -90.4074478
209.3064423 109.8939133 -91.0680542
209.6610107 109.8184586 -90.3421326
210.0406647 109.7503662 -89.6527023
228.4444427 109.1728210 -85.7464371
229.0434113 109.2064590 -86.1732788
210.0688629 109.3263779 -89.8521576
228.5092621 108.7539673 -85.9864883
210.1156616 108.9068298 -90.1042557
209.7671661 108.5479507 -91.1099854
210.1398163 108.4786606 -90.4039688
223.4512329 107.2989426 -84.2565842
223.9418793 107.3129807 -84.3889313
224.4530792 107.3193130 -84.5413742
224.9708862 107.3235626 -84.6960754
225.4994354 107.3380051 -84.8894272
226.0083618 107.3623276 -85.1163483
228.6689453 107.5281525 -86.8765488
229.3289032 107.5512543 -87.4302673
224.9867554 106.9229660 -84.8892441
225.5498505 106.9382401 -85.1197510
226.0543976 106.9484634 -85.4171753
228.7744446 107.1098557 -87.2659531
211.0456543 107.0873642 -90.0364990
221.6140137 106.4540024 -84.4331970
222.1035309 106.4508820 -84.4987717
222.6109161 106.4306946 -84.5968933
223.0727539 106.4321442 -84.6826401
226.0879517 106.5249023 -85.7396927
211.9656372 106.1822510 -89.6799927
218.1114807 105.6928177 -85.3730621
218.5868073 105.6745377 -85.2367554
211.6597748 105.8167648 -90.6882858
212.0493927 105.7808151 -90.1214294
211.7376099 105.4018860 -91.1912918
212.1140442 105.3634415 -90.6177139
217.3762360 104.9027023 -86.3027725
212.1997375 104.9420776 -91.1063156
212.6814575 104.4857101 -91.0698242
213.0878296 104.4654160 -90.5288773
216.6534882 104.1383057 -87.4821014
213.1550140 104.0420151 -91.1511078
216.7686157 103.7465210 -87.9060669
213.6601715 103.6012115 -91.2587051
214.0532837 103.5817490 -90.7456970
215.0300598 102.6948547 -91.2720413
215.3932648 102.6772079 -90.9475937
215.7802582 102.6748962 -90.5969162
216.1857452 102.6496353 -90.2721329
215.9038239 102.2476959 -91.3439636
255.7350311 -123.9674606 67.9266968
255.4180298 -124.2308807 69.0391006
256.4496460 -124.0525970 69.5359497
256.8250427 -123.9977341 69.6216660
257.2031555 -123.9770355 69.7611694
257.5968933 -123.9512711 69.8220444
257.9963074 -123.9310837 69.8085938
258.4066772 -123.9187775 69.7822037
258.8204651 -123.9071579 69.7517700
259.2276917 -123.9017105 69.7503357
253.8631592 -124.6709976 68.7513733
254.1957397 -124.6239243 69.1017380
260.3021851 -124.1660309 70.3034592
260.7715759 -124.1582336 70.0933151
253.6586761 -124.8961258 69.5430527
253.9870453 -124.8388519 69.8448563
254.3094788 -124.7731628 70.0766144
260.0664673 -124.4457245 71.0819321
260.5145569 -124.4243469 70.9254456
252.8343811 -125.2376862 69.5973816
260.7546082 -124.6538696 71.5061798
252.0625000 -125.6373062 69.5088196
252.3712769 -125.5721130 69.8695679
252.6786346 -125.5172424 70.2147598
260.5528259 -124.9494858 72.1853409
261.0003052 -124.9461060 72.0366745
261.4779358 -124.9341888 71.8390732
251.3021851 -126.0563202 69.2886276
262.2717896 -125.2492981 71.9876785
251.1517181 -126.3452606 69.8683395
262.0530396 -125.5443802 72.6370621
262.5632629 -125.5351563 72.3912201
250.4231415 -126.7760468 69.5167847
262.8717346 -125.8354187 72.7241821
250.3067017 -127.0650406 70.0406189
262.6733704 -126.1369400 73.2947159
263.5040588 -126.4509048 73.2894669
249.5173798 -127.8198929 70.0487137
263.3476257 -126.7549973 73.7802124
264.2376404 -127.0987244 73.6484833
248.7478180 -128.5955658 69.9130096
264.0814514 -127.4179535 74.0951233
264.6236572 -127.4394150 73.7495270
265.0028381 -127.7759247 73.8415604
248.5670471 -129.2097931 70.6420898
264.8713684 -128.0819855 74.2610703
264.7420044 -128.3836212 74.6689529
264.6325378 -128.6876373 75.0333710
265.1105652 -128.7252960 74.7457809
247.7865906 -130.3422546 70.5573578
265.5568848 -129.0699921 74.7133102
247.7342987 -130.6658478 70.8739319
265.4476929 -129.3890533 75.0384979
265.9920654 -129.4295502 74.6553040
265.3347778 -129.7072601 75.3661423
265.2543640 -130.0172577 75.6598282
265.8113098 -130.0504608 75.2991714
247.5461731 -131.6377106 71.5702209
247.2274933 -132.0657349 71.2714996
247.4993591 -131.9687500 71.7696762
266.1635437 -130.7447662 75.4663162
267.2461243 -131.2183228 74.7227478
267.1794739 -131.5396576 74.9620667
246.8337402 -133.1824341 71.2501221
246.8024445 -133.5265808 71.3869095
266.9873657 -132.1943359 75.4436264
267.5737305 -132.2794189 74.9082260
268.2297974 -132.3794250 74.2640076
246.7953186 -133.8672180 71.5416183
246.7645721 -134.2224121 71.6053925
246.2351379 -134.8286591 70.4535980
246.2173462 -135.1814117 70.5304642
246.1915894 -135.5382080 70.5889511
246.7359161 -137.4682770 71.9321899
246.7471161 -137.8447723 71.8897171
246.7566376 -138.2332916 71.8107681
246.7673340 -138.6228180 71.7219009
247.1296387 -139.6639404 72.0022736
247.4199677 -139.5258026 72.5666962
266.7766724 -138.1972504 76.3890991
267.4212341 -138.3159943 75.8329391
247.4459839 -139.9332581 72.4165115
266.8695679 -138.6054382 76.2304840
247.4750519 -140.3388214 72.2640686
247.7706146 -140.1983948 72.8268509
248.0364990 -140.0887604 73.3072433
266.9040527 -138.9885254 76.1096725
266.9890442 -139.4135895 75.9153976
248.4194183 -140.7804260 73.4271469
248.6711731 -140.6768799 73.8662033
248.7321320 -141.0714111 73.6860352
248.7990417 -141.4915466 73.4744873
265.9504089 -140.4015808 76.3939209
266.5982056 -140.5281372 75.8509903
248.8393402 -141.9102631 73.2242966
266.0435791 -140.8242493 76.1456528
248.6278992 -142.4843750 72.4475021
248.8905640 -142.3513031 72.9461517
266.1291504 -141.2463837 75.8857803
248.9611359 -142.7872467 72.6947098
249.5368958 -143.0138092 73.2982864
265.2140198 -141.9307861 76.1865387
265.7755432 -142.0341187 75.7364426
250.2794037 -143.6726837 73.5761948
261.6918335 -142.4526825 77.6559753
262.1300964 -142.4374695 77.5340424
262.6160889 -142.4405670 77.3450241
263.0754395 -142.5349884 77.0908813
263.5227661 -142.5727386 76.8460007
263.9921265 -142.6278229 76.5544891
264.4465332 -142.6800690 76.2538986
261.7300110 -142.8691711 77.4145050
250.7966919 -144.4529114 73.3028793
251.1425629 -144.3194885 73.7519073
251.2410889 -144.7818909 73.3761368
262.0237732 -143.7557983 76.7056808
251.6935120 -145.1249847 73.4044876
252.0257111 -145.0036163 73.7995148
260.2083435 -144.1054840 76.8927078
260.7008667 -144.1259308 76.7780304
261.1836243 -144.1371307 76.6502762
261.6492920 -144.1589661 76.5050049
262.1393127 -144.2077942 76.3261795
252.1476898 -145.5236053 73.2963638
260.3362122 -144.5645599 76.4949188
252.9057312 -145.7873535 73.6166916
253.2119904 -145.6715698 73.9565506
253.4969025 -145.6062012 74.2096252
260.4669800 -145.0069427 76.0665359
253.6352081 -146.1308289 73.6867523
254.3593750 -146.4828033 73.6441650
254.6546631 -146.4245148 73.8403397
254.9819641 -146.3264465 74.0864258
259.8795166 -145.9066010 75.2242889
255.1257477 -146.8528748 73.4456558
260.0619507 -146.4151764 74.5261383
255.6633453 -147.3442688 72.8795624
256.0328064 -147.2590332 73.1633987
256.4608459 -147.1658630 73.4465637
256.8716125 -147.1573639 73.5751038
257.2816772 -147.0804138 73.7720337
257.6804810 -147.0409851 73.8999939
258.0762329 -147.0290833 73.9763489
259.1844788 -146.9820709 73.9963608
259.5303345 -146.9759827 73.9284744
259.8769531 -146.9668274 73.8476105
260.2868958 -147.0647736 73.5671539
217.1405334 123.5799103 -88.6393890
217.9556885 123.4897766 -88.1047821
218.8107910 123.4296875 -87.7439423
219.7176361 123.3846436 -87.4824142
220.6213837 123.3480225 -87.3316040
221.5259857 123.3452911 -87.3303223
222.4924622 123.3660355 -87.4692841
216.0520020 122.5937881 -87.9571381
216.8869629 122.5272598 -87.3857651
217.7180481 122.4595337 -86.9100571
218.5715027 122.4088135 -86.5630112
221.2907257 122.3350296 -86.1628571
222.2349243 122.3182449 -86.2548065
223.2253571 122.3413467 -86.4828186
224.2078705 122.3698654 -86.7781296
215.0538025 121.6847382 -87.6152649
215.8496704 121.6013031 -86.9520111
216.6911316 121.5267334 -86.4060593
217.5296783 121.4652939 -85.9829941
218.3887329 121.4275284 -85.6733932
221.0982513 121.3462524 -85.2564316
222.0397339 121.3450470 -85.3333130
223.0223236 121.3547668 -85.5122757
223.9931946 121.3577652 -85.7701187
225.0319214 121.4127350 -86.1892624
214.1118469 120.7962952 -87.4785385
214.8832550 120.6968079 -86.7426453
215.6905823 120.6220016 -86.1534729
216.5380859 120.5571899 -85.6554184
220.9456482 120.3746643 -84.5510559
221.8857574 120.3744736 -84.5999680
222.8694611 120.3861237 -84.7392502
223.8254852 120.3927612 -84.9471207
224.8317566 120.4109802 -85.2968750
225.8945770 120.4639740 -85.8373566
226.9786835 120.5593719 -86.5116348
212.4255371 120.0500946 -88.5227890
213.1863098 119.9155579 -87.5337982
213.9629211 119.8224335 -86.7305298
214.7455597 119.7384796 -86.0794220
215.5631714 119.6683502 -85.5286713
216.4181824 119.5979462 -85.0436478
220.8233795 119.4329529 -83.9731064
221.7674255 119.4105682 -83.9811554
222.7459717 119.4267273 -84.1046906
223.6923523 119.4374390 -84.2995453
224.6956024 119.4638138 -84.6222153
225.7411957 119.5089111 -85.1101608
226.8030396 119.5708618 -85.7241287
212.2942810 119.0756226 -87.8121338
213.0620575 118.9668961 -86.9065247
213.8509827 118.8670197 -86.1509628
214.6373901 118.7902679 -85.5380402
215.4588776 118.7198639 -85.0154190
216.3237305 118.6619186 -84.5635376
222.6422119 118.4864807 -83.6248169
223.5990295 118.5040512 -83.8122482
224.5814972 118.5199127 -84.0968781
225.6234131 118.5576324 -84.5220413
226.6383514 118.6031876 -85.0502930
227.7295990 118.6828613 -85.7357407
211.4522095 118.2529297 -88.2786102
212.1849670 118.1310120 -87.2791748
212.9609680 118.0313339 -86.4442444
213.7625885 117.9357147 -85.7127991
214.5516968 117.8583069 -85.1247940
215.3776855 117.7948532 -84.6287689
216.2467804 117.7305832 -84.1831207
222.5603485 117.5583038 -83.2483444
223.5065613 117.5712204 -83.4137268
224.5022888 117.5997009 -83.6858368
225.5219727 117.6245117 -84.0542526
226.5327301 117.6648483 -84.5450211
227.5960388 117.7374878 -85.2053680
210.6471710 117.4466858 -88.9354553
211.3628845 117.3111877 -87.8061981
213.6971283 117.0117416 -85.3662262
214.4850769 116.9420319 -84.8121872
224.4303436 116.6737289 -83.3551483
225.4418488 116.7052155 -83.7045441
226.4669647 116.7524261 -84.1822815
227.4940033 116.8034515 -84.7929535
228.6700287 116.9037933 -85.6290741
210.5753479 116.5123749 -88.5314407
211.3036194 116.3853760 -87.4506989
213.6463013 116.0944824 -85.0998001
214.4435120 116.0267792 -84.5603638
224.3878479 115.7668228 -83.1178131
225.3982544 115.7942734 -83.4547653
226.4012756 115.8336411 -83.8956375
227.4295044 115.8856812 -84.4786758
228.5966187 115.9765015 -85.2971039
209.7790070 115.7529907 -89.5419922
210.5198364 115.5929794 -88.2472610
211.2548218 115.4692078 -87.1960907
212.0073853 115.3650436 -86.3346710
212.8000031 115.2728882 -85.5769653
228.5131836 115.0566711 -85.0416107
209.7445984 114.8380432 -89.3299332
210.4911804 114.6817932 -88.0386047
211.2206879 114.5663910 -87.0406570
211.9881744 114.4637222 -86.2024689
212.7698364 114.3784103 -85.4790421
228.4957581 114.1631927 -84.9258194
209.7388000 113.9320374 -89.2063065
228.4824677 113.2782135 -84.8949585
209.7383881 113.0409851 -89.1930695
228.4866638 112.4001923 -84.9393234
209.0575867 112.3192139 -90.6833878
209.7468872 112.1633377 -89.2926636
210.4800873 112.0241776 -88.0735321
211.2303162 111.9083328 -87.0777054
228.5270691 111.5315933 -85.0731888
209.7675476 111.2923584 -89.4714737
210.5142212 111.1547241 -88.2510605
211.2603302 111.0393982 -87.2461929
228.5831757 110.6695786 -85.2884827
209.8221588 110.4301605 -89.7262115
210.5656281 110.2941437 -88.4995728
211.3114471 110.1775513 -87.4775620
224.4865417 109.6328125 -83.5016479
225.4987793 109.6627808 -83.8428802
226.5019531 109.7002335 -84.2937012
227.5252075 109.7551041 -84.8662872
228.6456909 109.8214417 -85.6190796
210.6330261 109.4424973 -88.8366470
211.3765869 109.3247833 -87.8040161
224.5497131 108.7894897 -83.8252258
225.5834503 108.8147507 -84.2046127
226.5841522 108.8569794 -84.6690979
227.6222687 108.9122696 -85.2812958
210.7218018 108.6034241 -89.2882385
211.4575195 108.4835281 -88.2456665
212.2098846 108.3811951 -87.3632507
213.0078125 108.2946091 -86.5951767
220.7306519 107.9238434 -83.6662369
221.6847382 107.9130249 -83.6925888
222.6678925 107.9187775 -83.7856445
223.6387482 107.9289398 -83.9663467
224.6414185 107.9493256 -84.2570419
225.6789093 107.9799805 -84.6412659
226.6872864 108.0224762 -85.1251068
227.7236481 108.0844727 -85.7637482
228.8889771 108.1527100 -86.6432571
210.8071289 107.7626343 -89.8657150
211.5583649 107.6498718 -88.7789688
212.3168335 107.5483704 -87.8502731
213.1002960 107.4556732 -87.0611038
220.8230286 107.0780487 -84.0864258
221.7713776 107.0750427 -84.1157150
222.7617645 107.0762253 -84.2484589
226.8053284 107.1995392 -85.7010956
227.8654785 107.2659607 -86.4044571
211.6681671 106.8136978 -89.3911133
212.4328613 106.7193451 -88.4491501
213.2183533 106.6247864 -87.6131821
215.6404419 106.4308929 -85.9162598
216.5065155 106.3800888 -85.5220108
217.3601685 106.3385391 -85.2018967
218.2368774 106.3091812 -84.9289398
219.1553802 106.2713470 -84.7258301
220.0724640 106.2576370 -84.5774384
220.9739685 106.2430878 -84.5289612
226.9219360 106.3713837 -86.3965912
228.0181274 106.4519653 -87.1566925
212.5786438 105.9101563 -89.1512833
213.3571777 105.8092194 -88.2830353
215.7456665 105.6066971 -86.5415115
216.6108398 105.5565720 -86.1223373
217.4784851 105.5103073 -85.7634354
212.7518311 105.1009293 -90.0339050
213.5233612 105.0084686 -89.1234512
214.3027039 104.9197922 -88.3705750
215.0772552 104.8520660 -87.7693024
215.8735809 104.7912827 -87.2646179
216.7484436 104.7341461 -86.7842484
213.7114410 104.2144852 -90.1251144
214.4849548 104.1316528 -89.3241425
215.2286530 104.0590134 -88.7063751
216.0251465 103.9899139 -88.1507874
214.6768646 103.3316345 -90.4494171
215.4266663 103.2830048 -89.7948074
216.2429199 103.2205582 -89.1602249
256.0865479 -124.0039978 68.7607651
254.9175415 -124.5816803 70.0557556
255.6107941 -124.4939270 70.4251022
256.3345642 -124.4210510 70.7040863
257.0963135 -124.3718109 70.9331818
257.8748474 -124.3343124 70.9881439
258.6789551 -124.3094254 70.9540253
259.5324707 -124.2937775 70.8326416
253.2244415 -125.2959671 70.3606415
253.8935242 -125.1783600 70.8884583
254.5776062 -125.0805893 71.3180313
255.2739563 -125.0004654 71.6575623
257.5231628 -124.8395309 72.2252731
258.3184204 -124.8226395 72.2571793
259.1580200 -124.8149567 72.1771240
260.0098877 -124.8147659 72.0127716
251.6880493 -126.0976105 70.1957397
252.2983704 -125.9580536 70.8710938
252.9329834 -125.8343277 71.4534225
253.6073914 -125.7238312 71.9449463
254.2994690 -125.6291122 72.3526993
254.9986572 -125.5554733 72.6952820
257.2490234 -125.3865204 73.2443237
258.0303040 -125.3639908 73.3113327
258.8599854 -125.3451538 73.2830200
259.6818237 -125.3537979 73.1802444
260.5334473 -125.3646164 72.9546051
261.4321289 -125.3863983 72.6422195
250.8123169 -126.8118744 70.4664001
251.4175110 -126.6536484 71.1974335
252.0385742 -126.5211334 71.8213043
258.5935974 -125.9131927 74.2101898
259.4296570 -125.9016571 74.1174622
260.2605591 -125.9126587 73.9569550
261.1304016 -125.9479675 73.7274017
262.0453491 -125.9775848 73.3638458
249.9919434 -127.5489502 70.5204163
250.5747833 -127.3855972 71.3500824
251.1877136 -127.2335052 72.0305862
251.8270416 -127.1093750 72.6416550
258.3882141 -126.5036545 74.9957275
259.2034607 -126.4912338 74.9508057
260.0278625 -126.4882660 74.8298035
260.8854675 -126.5081711 74.6406403
261.7828064 -126.5431290 74.3164063
262.7077332 -126.5787201 73.8897400
249.2185516 -128.3194885 70.4445801
249.7774353 -128.1417847 71.3326492
250.3721924 -127.9805069 72.1126633
259.8234863 -127.0844116 75.5613556
260.6805420 -127.0951767 75.3993301
261.5556030 -127.1242065 75.1396027
262.4467773 -127.1673203 74.7782669
263.3842163 -127.2224884 74.3225861
249.0303650 -128.9201660 71.1918030
249.6005554 -128.7468719 72.0486374
250.1969299 -128.5929565 72.7725525
259.6579590 -127.6998444 76.2030792
260.5031433 -127.7039719 76.0605011
261.3715820 -127.7237320 75.8379211
262.2327271 -127.7635880 75.5436478
263.1705322 -127.8136597 75.0976715
264.1554565 -127.8862000 74.5415573
248.3149414 -129.7270966 70.8856506
248.8698425 -129.5399170 71.8320541
261.2067871 -128.3423157 76.4450150
262.0784302 -128.3679810 76.1769104
262.9806213 -128.4174805 75.8058472
263.9164429 -128.4898987 75.3162994
248.1769867 -130.3590088 71.4827423
248.7292938 -130.1722412 72.3778839
261.0671082 -128.9721527 76.9884415
261.9347229 -128.9929810 76.7413330
262.8189087 -129.0352478 76.4069672
263.7569885 -129.0994110 75.9495239
264.7208252 -129.1742554 75.3824463
247.4932556 -131.1981506 70.9706802
248.0514984 -131.0016327 71.9839859
248.6066284 -130.8199463 72.8461227
262.6928711 -129.6672974 76.9160461
263.6058655 -129.7227478 76.5097733
264.5536499 -129.8003082 75.9790039
247.9488220 -131.6564941 72.4150696
248.5104675 -131.4784851 73.2614746
262.5746460 -130.3103943 77.3666534
263.4711914 -130.3601379 77.0000153
264.4142151 -130.4308472 76.4989319
265.3936462 -130.5148315 75.8914642
247.3075867 -132.5187225 71.8128433
247.8605499 -132.3202972 72.7776794
248.4300842 -132.1453094 73.6093597
264.3040466 -131.0733643 76.9455566
265.2476196 -131.1591187 76.3772583
266.3242188 -131.2739563 75.5835648
247.2415619 -133.1956787 72.1299973
247.7907104 -132.9977722 73.0826721
248.3566589 -132.8243561 73.8906555
264.1989746 -131.7289734 77.3298721
265.1449280 -131.8093719 76.7811432
266.1762390 -131.9252167 76.0338898
247.1905060 -133.8821411 72.3811035
264.1190186 -132.3968658 77.6411591
265.0617065 -132.4722290 77.1167297
266.0724182 -132.5842438 76.4093094
267.1938782 -132.7315979 75.4682159
246.6292114 -134.8089752 71.4594345
247.1453857 -134.5818176 72.5551987
264.0572205 -133.0739746 77.9017334
264.9845581 -133.1452637 77.4057770
265.9994202 -133.2517395 76.7166595
267.1097412 -133.3939362 75.8164063
246.5989990 -135.5180054 71.5928497
247.1291962 -135.2866364 72.7051544
265.9409180 -133.9322968 76.9594574
267.0315552 -134.0698090 76.1028137
246.5932617 -136.2389069 71.6613312
247.1218262 -136.0069427 72.7682877
265.9032898 -134.6261139 77.1293106
266.9941711 -134.7640686 76.2794342
246.5963135 -136.9779663 71.6434479
247.1267700 -136.7384491 72.7746658
265.8763733 -135.3325806 77.2339935
266.9767456 -135.4738464 76.3751068
247.1585083 -137.4727020 72.7556915
265.8692017 -136.0504150 77.2791901
266.9725342 -136.1942902 76.4144745
247.1888580 -138.2327881 72.6284180
247.7305450 -138.0130005 73.6419220
248.2626953 -137.8382568 74.4642334
265.8872070 -136.7796936 77.2575073
266.9962463 -136.9283905 76.3772049
247.2408295 -138.9986572 72.4676971
247.7844238 -138.7721710 73.4921265
248.3140717 -138.5893707 74.3502426
265.9187012 -137.5218506 77.1729736
267.0387573 -137.6788483 76.2598801
247.8469543 -139.5522919 73.2621613
248.3802185 -139.3521118 74.1664734
248.9281311 -139.1811829 74.9479523
249.5232239 -139.0266266 75.6511841
264.0099792 -138.0829926 78.2755127
264.9230347 -138.1584778 77.7664108
265.9778137 -138.2808838 77.0083008
248.4650116 -140.1316376 73.8944473
249.0037842 -139.9555206 74.7118378
249.5855865 -139.7975311 75.4419937
264.0654297 -138.8445435 78.1051102
264.9955444 -138.9213562 77.5660782
266.0512695 -139.0516357 76.7702179
249.0922699 -140.7478333 74.3854065
249.6725922 -140.5760803 75.1695404
250.3169403 -140.4131012 75.8951874
250.9847565 -140.2638092 76.5257111
251.6514587 -140.1357117 77.0543518
252.3133240 -140.0326691 77.4963913
262.3628235 -139.5073853 78.6482773
263.2452087 -139.5518494 78.2994232
264.1404114 -139.6182556 77.8600616
265.0765076 -139.7017365 77.2828979
266.1612854 -139.8478546 76.4407578
249.2065125 -141.5525208 73.9955826
249.7716980 -141.3815918 74.8014069
250.4172516 -141.2042542 75.5778351
251.0773315 -141.0533600 76.2257843
251.7406616 -140.9233704 76.7721100
252.3956909 -140.8130798 77.2333755
262.4522095 -140.2829285 78.3803024
263.3430176 -140.3364563 78.0024948
264.2488403 -140.4122467 77.5245743
265.1879883 -140.5016174 76.9042206
249.3210144 -142.4005280 73.4959106
249.8970642 -142.1874084 74.3737946
250.5314026 -142.0056610 75.1837158
251.1901550 -141.8558807 75.8608551
251.8489075 -141.7192383 76.4328613
252.5011597 -141.5946655 76.9313507
260.7931213 -141.0191650 78.5633850
261.6830139 -141.0422974 78.3376160
262.5678406 -141.0771484 78.0288696
263.4608154 -141.1335297 77.6241684
264.3614807 -141.2109833 77.1113968
265.3399353 -141.3278961 76.4129410
250.0165863 -143.0563202 73.8173370
250.6747131 -142.8322754 74.6879578
251.3283386 -142.6635437 75.4196625
251.9776459 -142.5285797 76.0238571
252.6207886 -142.3997803 76.5430603
260.9183350 -141.8267517 78.1733398
261.8145752 -141.8526154 77.9260483
262.7128906 -141.8944244 77.5838089
263.6148682 -141.9617157 77.1319733
264.5186768 -142.0464935 76.5721130
250.8401794 -143.6985168 74.0774918
251.4994507 -143.5025635 74.8624191
252.1339417 -143.3580933 75.5117035
252.7659912 -143.2315521 76.0507126
253.3889771 -143.1253662 76.4808121
254.0333252 -143.0275879 76.8599091
259.3068542 -142.6350861 77.9940414
260.1491394 -142.6313629 77.8911591
261.0624695 -142.6437836 77.7017441
251.6899872 -144.3739319 74.1867218
252.3302765 -144.1979980 74.8960495
252.9536743 -144.0595245 75.4764404
253.5529480 -143.9604187 75.9170837
254.1848602 -143.8616943 76.3132172
259.4539795 -143.4690247 77.4618759
260.3086853 -143.4594269 77.3419418
261.2501526 -143.4949036 77.1033478
252.5655823 -145.1079102 74.1048126
253.1764832 -144.9483490 74.7195053
253.7612915 -144.8218079 75.2147675
254.3778992 -144.7236938 75.6289215
255.0827637 -144.6258698 76.0186996
255.8588257 -144.5253906 76.3687592
258.1499634 -144.3657227 76.8410797
258.8792419 -144.3415527 76.8496933
259.6397705 -144.3278503 76.7969055
254.0049744 -145.7491760 74.3306885
254.6105194 -145.6209259 74.7735291
255.3098602 -145.5044556 75.2048264
256.0897217 -145.4089813 75.5800476
258.3933716 -145.2476501 76.0467453
259.1089478 -145.2263336 76.0435410
259.8699036 -145.2255707 75.9523163
255.5957947 -146.4670410 74.1080551
256.3836060 -146.3364258 74.5396652
257.1875000 -146.2620850 74.8123093
257.9610596 -146.2089539 74.9766617
258.6945496 -146.1857910 75.0248489
259.4060669 -146.1638794 74.9749527
219.8403320 121.8661652 -85.8128204
217.7577362 119.9995956 -84.8121414
219.5479736 119.9333878 -84.3842773
217.5747070 118.1268539 -83.8743744
219.3573608 118.0606079 -83.4624939
221.1616821 118.0292969 -83.3412018
212.4728851 116.6878204 -86.3175354
215.7320557 116.3915100 -83.9862595
217.4553833 116.2929001 -83.2875519
219.2409973 116.2323608 -82.8922424
221.0397339 116.1985016 -82.7625961
222.9507446 116.1974182 -82.9138260
213.9975586 114.7096176 -84.6089783
215.6689911 114.5874786 -83.6660767
217.3963623 114.4973679 -83.0011292
219.1884613 114.4356689 -82.6134262
220.9817657 114.4058380 -82.4917755
222.8885345 114.4026260 -82.6242981
224.8509369 114.4349213 -83.0819855
226.8746033 114.5117569 -83.9445724
210.8361053 113.2860260 -87.4743805
212.3754578 113.0867157 -85.7941132
213.9808807 112.9340363 -84.5427933
215.6596985 112.8174362 -83.6245804
217.3935089 112.7300568 -82.9782639
219.1833649 112.6712646 -82.5946655
220.9722595 112.6392212 -82.4590530
222.8883514 112.6381378 -82.6102448
224.8522949 112.6703568 -83.0675735
226.8683319 112.7444916 -83.9134445
212.4092407 111.3357697 -85.9869843
214.0152740 111.1860886 -84.7348099
215.7024384 111.0719070 -83.8231354
217.4422302 110.9854279 -83.1724396
219.2212677 110.9292603 -82.8028183
221.0143890 110.9007645 -82.6867981
222.9414368 110.9004898 -82.8466492
224.9124908 110.9330521 -83.3140717
226.9273987 111.0080185 -84.1741791
212.5039825 109.6112823 -86.4330444
214.1017303 109.4642487 -85.1929245
215.7911530 109.3521729 -84.2807159
217.5335236 109.2690735 -83.6354523
219.3064270 109.2141724 -83.2684174
221.1042633 109.1876984 -83.1695251
223.0409241 109.1885681 -83.3409271
214.2548370 107.7692108 -85.9190521
215.9359283 107.6569901 -84.9888992
217.6668091 107.5769196 -84.3545380
219.4404907 107.5230179 -83.9878082
214.4744720 106.1045303 -86.9861298
256.2472534 -125.1814651 72.5322037
252.9245148 -126.6494141 72.9925995
254.3206482 -126.4690704 73.7680588
255.7784119 -126.3385086 74.2807159
257.3026123 -126.2479553 74.5382919
251.2462769 -128.0866699 73.3797150
252.5764771 -127.8685837 74.3595123
253.9724274 -127.6950684 75.0923920
255.4312744 -127.5621643 75.5956421
256.9442139 -127.4671478 75.9007874
258.5237427 -127.4087677 75.9747772
249.6815796 -129.6179810 73.2422028
250.9680176 -129.3502502 74.4818802
252.3053894 -129.1372375 75.4281921
253.7006531 -128.9651184 76.1450806
255.1576385 -128.8307953 76.6448669
256.6683960 -128.7309265 76.9601898
258.2346802 -128.6684113 77.0728836
259.8589478 -128.6451874 76.9594727
249.4581604 -130.9197388 74.1400146
250.7552643 -130.6566010 75.3328476
252.1016541 -130.4435425 76.2662430
253.4904480 -130.2731171 76.9630737
254.9472198 -130.1356049 77.4760513
256.4562378 -130.0337067 77.8019638
258.0104370 -129.9637146 77.9414749
259.6130981 -129.9345551 77.8666306
261.3205261 -129.9469910 77.5575714
249.2944641 -132.2598114 74.7978821
250.5974274 -131.9988251 75.9691772
251.9513855 -131.7852783 76.8931503
253.3332825 -131.6122131 77.5953522
254.7881775 -131.4743195 78.1096268
256.3006897 -131.3656921 78.4485016
257.8465881 -131.2943268 78.6087723
259.4349365 -131.2592163 78.5646744
261.1338501 -131.2643738 78.2916183
262.8797302 -131.3179932 77.7653046
247.9988251 -133.9468994 73.8187485
249.1818848 -133.6352539 75.2581406
250.4948120 -133.3714600 76.4339066
251.8482361 -133.1558533 77.3516998
253.2268982 -132.9815979 78.0547638
254.6764069 -132.8387451 78.5849609
256.1913757 -132.7287292 78.9383698
257.7289734 -132.6536255 79.1045074
259.3053284 -132.6137543 79.0869675
260.9951172 -132.6136780 78.8447876
262.7352905 -132.6614990 78.3476639
247.9522095 -135.3571777 74.0998306
249.1238098 -135.0431061 75.5381317
250.4335632 -134.7738037 76.7273254
251.7904663 -134.5546570 77.6530533
253.1596527 -134.3775330 78.3637848
254.6091156 -134.2314911 78.9028854
256.1196899 -134.1180267 79.2677841
257.6491089 -134.0399475 79.4475708
259.2210083 -133.9987946 79.4345474
260.9149170 -133.9950714 79.2113724
262.6389465 -134.0375671 78.7483978
264.4476318 -134.1419220 77.9568100
247.9541626 -136.8108215 74.1488571
249.1141357 -136.4875183 75.6199341
250.4233704 -136.2094116 76.8406830
251.7735291 -135.9842682 77.7891006
253.1333771 -135.8032532 78.5115891
254.5801697 -135.6544647 79.0583954
256.0976563 -135.5348511 79.4428253
257.6190491 -135.4568787 79.6249466
259.1839600 -135.4118958 79.6267471
260.8807373 -135.4063110 79.4133759
262.6078491 -135.4501190 78.9477386
264.3968811 -135.5522156 78.1744461
249.1602173 -137.9684448 75.5088043
250.4604797 -137.6780396 76.7803192
251.8062897 -137.4449768 77.7571259
253.1528625 -137.2591858 78.4956512
254.5969849 -137.1044312 79.0627899
256.1158752 -136.9838409 79.4517593
257.6338501 -136.9044189 79.6400452
259.1964111 -136.8587036 79.6438293
260.8921814 -136.8513794 79.4364090
262.6240234 -136.8976288 78.9612427
264.4234314 -137.0069427 78.1603546
250.5486450 -139.1817627 76.5363922
251.8852081 -138.9382629 77.5572662
253.2197876 -138.7481842 78.3119507
254.6622009 -138.5901794 78.8937607
256.1874390 -138.4646606 79.2999420
257.6910706 -138.3826599 79.4917603
259.2526550 -138.3384094 79.4915695
260.9642639 -138.3315430 79.2733917
262.7064209 -138.3861084 78.7632294
253.3437347 -140.2732697 77.9367599
254.7753448 -140.1104279 78.5408020
256.3067627 -139.9819031 78.9568253
257.8059692 -139.8978271 79.1545486
259.3639526 -139.8542023 79.1466599
261.0968018 -139.8581848 78.8880615
253.5226746 -141.8526154 77.3229904
254.9528046 -141.6779633 77.9645538
256.4912720 -141.5425873 78.3986359
257.9892883 -141.4617004 78.5950851
259.5410156 -141.4201660 78.5692596
255.2082825 -143.3023529 77.1024551
256.7579956 -143.1639252 77.5563965
258.2461243 -143.0812683 77.7457886
257.1479797 -144.8728638 76.2944641
