13.4981709 -84.4081650 98.2547989
13.8747616 -84.4113007 98.1671677
15.0050507 -84.4241638 97.9120483
49.0914001 -87.3707123 69.2561798
0.6042781 -84.8702011 99.4934692
7.0543418 -84.7654648 99.3174744
7.4352584 -84.7646103 99.2719879
7.7990947 -84.7624207 99.2547684
15.0096970 -84.7777405 97.9944305
16.9090805 -84.8094711 97.4643555
49.0911865 -87.7359619 69.3683548
-39.4458504 -88.8249817 77.4220123
0.2347611 -85.2417908 99.5223846
0.6098424 -85.2310333 99.5493317
7.4561458 -85.0788422 99.2814102
49.0575829 -88.0943298 69.5449905
-39.4607773 -89.1990433 77.4728470
-10.7968540 -86.0352249 97.8694305
-10.4036436 -86.0143356 97.9757767
-6.1988626 -85.8151245 98.8949280
-5.8375201 -85.8018723 98.9508743
-5.4656982 -85.7870331 99.0036392
0.2352305 -85.6020813 99.5777740
49.1065865 -88.4715195 69.5479431
-39.4684181 -89.5731964 77.5243683
-7.3169870 -86.2653656 98.7490234
-5.4630427 -86.1476974 99.0600739
3.2703285 -85.8925858 99.7121735
3.6414452 -85.8861923 99.7028122
4.0186052 -85.8802795 99.6931229
4.3955374 -85.8752899 99.6835480
4.7730422 -85.8679657 99.6738739
49.0780869 -88.8305740 69.7093277
-39.4702339 -89.9475555 77.5749054
-5.4530702 -86.5088348 99.1190567
7.8258986 -86.2196274 99.3908081
8.1901073 -86.1983490 99.4315948
8.5673733 -86.1816559 99.4542847
15.3998756 -86.2243271 98.1287537
15.7947474 -86.2295380 98.0279694
16.1569061 -86.2360458 97.9328766
49.0251083 -89.1861572 69.9150543
-39.4638939 -90.3213196 77.6288452
-7.7267132 -86.9711075 98.7449722
-5.8156600 -86.8834686 99.1234131
-5.4434662 -86.8692627 99.1767197
7.8140426 -86.5628433 99.4829483
8.1900072 -86.5542908 99.5178909
15.4102259 -86.5874329 98.1633911
49.0366440 -89.5563736 69.9789047
-39.4400177 -90.6923141 77.6991653
-7.7149329 -87.3314056 98.7942352
-5.8343897 -87.2459717 99.1759109
-5.4494700 -87.2304993 99.2301254
-39.4406166 -91.0696411 77.7250443
-7.7399464 -87.6950302 98.8401871
16.5324078 -87.3261566 97.9672318
16.9172878 -87.3321381 97.8515320
17.2850208 -87.2758942 97.7237015
17.6981812 -87.2951508 97.5962372
18.0785637 -87.3401489 97.4684677
18.4495850 -87.3656921 97.3689957
-40.2683601 -91.6235275 76.5261002
-39.8530617 -91.5346069 77.1425781
-39.4385414 -91.4468384 77.7517090
-7.7217727 -88.0562134 98.8928299
-7.3514643 -88.0389023 98.9681702
-6.9710302 -88.0207596 99.0453415
-6.5910287 -88.0036011 99.1215439
3.6508343 -87.6901550 99.9579773
16.5367203 -87.6863861 98.0077209
17.8305492 -87.7549515 97.2965240
18.1443501 -87.7163925 97.4206848
18.4512691 -87.7264709 97.4026108
-40.2671127 -92.0015259 76.5488739
2.8955355 -88.0664139 100.0056686
3.2750151 -88.0584335 100.0066681
3.6494019 -88.0519257 100.0066223
18.1638050 -88.0962067 97.4259720
18.4563694 -88.0917053 97.4404602
-40.2974205 -92.3871002 76.5231094
-4.2854834 -88.6363678 99.5620956
1.0090377 -88.4697647 100.0209198
2.8987634 -88.4268265 100.0563126
4.4047909 -88.4052811 99.9900894
4.7793236 -88.4009094 99.9651718
18.4634438 -88.4525681 97.4877548
-40.2751503 -92.7608337 76.5755463
-4.6687760 -89.0118637 99.5595016
-4.2855830 -88.9977722 99.6124725
1.0169792 -88.8261337 100.0920258
1.3937217 -88.8178329 100.1046524
1.7693285 -88.8095398 100.1139832
18.4563770 -88.8114700 97.5469666
19.6051579 -88.8399200 97.1749039
19.9604263 -88.8475266 97.0409698
20.3544140 -88.8595047 96.8890152
20.7508259 -88.8723602 96.7390823
-40.2722931 -93.1384430 76.6015167
5.1653681 -89.1164246 100.0385132
17.7016945 -89.1852188 97.8273239
18.0724392 -89.1743698 97.7094421
18.4529705 -89.1728439 97.5937195
20.7500191 -89.2349319 96.7795105
-40.2840462 -93.5191269 76.6089401
-39.8437958 -93.4217911 77.2728043
-39.4251213 -93.3301468 77.8987350
-6.1780467 -89.7974243 99.4013977
-5.7996221 -89.7822342 99.4766083
-5.4207926 -89.7656174 99.5433273
5.1515517 -89.4809113 100.0720291
5.5492172 -89.4746704 100.0522690
15.7958069 -89.4808960 98.4482727
16.1792355 -89.4859543 98.3487549
20.7565155 -89.5972214 96.8186798
-0.5042582 -89.9580536 100.1147766
-0.1293530 -89.9498901 100.1111908
1.7629932 -89.9053345 100.1722260
2.1561463 -89.8928680 100.1830673
2.5311341 -89.8837280 100.1900406
2.9046783 -89.8777161 100.1907120
3.2838149 -89.8726425 100.1850662
5.1551595 -89.8444977 100.1034470
15.8035688 -89.8459702 98.4928665
20.7446651 -89.9594727 96.8625717
-8.4716177 -90.6418457 98.9615479
-8.1048279 -90.6250992 99.0445938
-7.7113113 -90.6030960 99.1345825
-7.3311749 -90.5844498 99.2168045
-6.9573450 -90.5714874 99.2929459
-6.5694013 -90.5496597 99.3690186
-0.5068613 -90.3226471 100.1281815
-0.1374268 -90.3154068 100.1273193
1.7650633 -90.2691727 100.1959686
5.1626205 -90.2068100 100.1351089
15.8029308 -90.2082901 98.5150299
-8.4799395 -91.0096970 98.9783401
-0.5108213 -90.6884766 100.1398392
-0.1512233 -90.6849442 100.1430893
1.7653434 -90.6319809 100.2199554
7.0600524 -90.5474777 100.0419998
7.4433680 -90.5454254 100.0122223
15.0179338 -90.5647430 98.7054367
15.4095926 -90.5690536 98.6160278
15.8016148 -90.5711060 98.5250168
16.1762238 -90.5742569 98.4334259
16.5462246 -90.5836105 98.3303757
16.9240398 -90.5915451 98.2107620
-8.4609985 -91.3727188 99.0044479
-1.2553710 -91.0719223 100.1196594
-0.8813503 -91.0612793 100.1385117
-0.5140988 -91.0532684 100.1498184
-0.1239782 -91.0454941 100.1554947
1.7565417 -90.9961548 100.2448807
7.4348507 -90.9069214 100.0252762
15.0187883 -90.9270325 98.7157669
15.4164429 -90.9353943 98.6243973
15.7999296 -90.9382324 98.5346222
16.1783676 -90.9463959 98.4435806
16.5529442 -90.9460678 98.3461075
16.9294281 -90.9544449 98.2371750
-8.4783907 -91.7393341 99.0258789
-6.5275369 -91.6355286 99.4451141
-6.1731629 -91.6157608 99.5109406
-5.8134193 -91.6147690 99.5748367
-5.4479685 -91.5951462 99.6347733
-5.0444984 -91.5756073 99.6968994
-1.6397119 -91.4542618 100.1006012
-1.2749524 -91.4453659 100.1214828
-0.8923054 -91.4302368 100.1417999
1.0182279 -91.3758469 100.2614746
1.3936977 -91.3675461 100.2662659
1.7658552 -91.3591843 100.2698364
7.4568176 -91.2789612 100.0415878
15.4123392 -91.2992935 98.6343613
16.9630356 -91.3207245 98.2603989
-1.9835070 -91.8240280 100.0826645
-1.6339624 -91.8186035 100.1032257
-1.2707539 -91.8105011 100.1241913
-0.8908588 -91.7968292 100.1442184
1.0269001 -91.7395096 100.2884369
1.4030684 -91.7312164 100.2922592
1.7684368 -91.7232285 100.2929688
5.1890230 -91.6537933 100.2710800
6.3111095 -91.6518021 100.1370926
7.4544291 -91.6365662 100.0695953
49.0407257 -94.8146133 70.3453903
49.5211639 -94.9500351 69.2958145
-0.8898938 -92.1618118 100.1598892
-0.5165222 -92.1508484 100.1971970
7.4479032 -91.9975739 100.0987701
7.8481855 -91.9993210 100.0650787
8.2187843 -91.9928284 100.0260696
8.5768871 -91.9871597 99.9850388
8.9610834 -91.9957123 99.9399719
15.4190168 -92.0254745 98.7086792
8.2228413 -92.3624954 100.0257416
8.5897102 -92.3595352 99.9827881
10.8653564 -92.3574982 99.6310043
11.2411623 -92.3597031 99.5588989
11.5440741 -92.3729324 99.4992065
13.1370573 -92.3640976 99.2300415
0.6436383 -92.8490677 100.2844086
8.2121630 -92.7283401 100.0270233
10.8764257 -92.7237167 99.6395645
11.2513084 -92.7253113 99.5699310
11.6016178 -92.7860641 99.5108337
12.3941793 -92.7328796 99.3908844
12.7823305 -92.7342224 99.3129807
13.1609621 -92.7364044 99.2393265
-39.4479904 -97.1636734 77.7068024
-3.1430323 -93.3390427 99.9906540
-1.2673759 -93.2745972 100.1706467
0.6384757 -93.2154922 100.2868347
1.0158978 -93.2074966 100.3099213
1.7872285 -93.1886063 100.3183823
2.1547542 -93.1799545 100.3215942
2.5307620 -93.1723328 100.3267288
8.2171764 -93.0928345 100.0273361
10.1027880 -93.0896072 99.7888412
13.5339785 -93.1030045 99.1703186
15.4276991 -93.1270752 98.7150803
15.8064680 -93.1304932 98.6119003
16.1758575 -93.1341476 98.5131989
-39.4398842 -97.5501938 77.6639633
-3.1427059 -93.7057114 100.0018463
-1.2436665 -93.6355362 100.1788559
0.6482632 -93.5839233 100.2913818
2.5375226 -93.5373459 100.3368759
5.1910806 -93.4920120 100.2855225
5.5746017 -93.4830017 100.2656097
5.9535551 -93.4776611 100.2414703
6.3239923 -93.4782944 100.2143478
8.2283316 -93.4632797 100.0266571
8.5948238 -93.4580002 99.9795837
8.9798679 -93.4595795 99.9345093
9.3524570 -93.4573669 99.8953552
9.7198210 -93.4538727 99.8528519
10.0990257 -93.4525299 99.7948990
13.5148516 -93.4663239 99.1858444
16.1875744 -93.5042496 98.5119858
49.1038704 -96.7482376 70.0941925
-39.4381638 -97.9380112 77.6075668
-39.0215378 -97.8444519 78.2174683
-38.6099472 -97.7523193 78.8177261
-3.1436269 -94.0736465 100.0184402
-1.2684104 -94.0093384 100.1790085
0.6636419 -93.9495163 100.2971649
2.5442076 -93.9029312 100.3416519
12.7675705 -93.8281326 99.3519211
16.1937943 -93.8739243 98.5067444
49.1175270 -97.1399841 69.9914398
-3.1571643 -94.4440155 100.0388718
-2.0017641 -94.4142532 100.1321945
-1.6296729 -94.3892517 100.1520920
-1.2486186 -94.3738556 100.1781311
0.6528786 -94.3155670 100.2976303
1.0260694 -94.3085480 100.3128815
2.5379229 -94.2711716 100.3387146
12.7682877 -94.1901550 99.3482590
13.1508989 -94.1936340 99.2752762
14.6597824 -94.2130280 98.9263458
16.1956959 -94.2413330 98.5040054
49.0733299 -97.5138474 70.0099792
2.1563973 -94.6501236 100.3276749
2.5380726 -94.6447449 100.3330994
2.9229031 -94.6348877 100.3352737
3.2959442 -94.6244278 100.3352051
3.6627593 -94.6186905 100.3320007
4.0390439 -94.6094055 100.3239899
49.1456757 -97.9305420 69.7755203
-38.6202164 -98.9194565 78.6199341
2.1618698 -95.0172958 100.3215714
4.0541530 -94.9734802 100.3163147
13.5257158 -94.9367142 99.1670074
13.9046793 -94.9468460 99.0818024
49.0796585 -98.2958298 69.8447266
-38.6202545 -99.3094025 78.5576553
2.1691980 -95.3826599 100.3133926
4.0435138 -95.3479691 100.3036728
48.2277565 -98.4448853 71.5987473
48.6822205 -98.5740662 70.6305695
49.1155052 -98.6989517 69.6937332
-38.6098595 -99.6966248 78.5019836
2.1725166 -95.7514114 100.2981262
2.5568006 -95.7479553 100.3059311
2.9304030 -95.7386856 100.3130646
3.3139255 -95.7253647 100.3158188
3.6849840 -95.7193375 100.3071365
4.0446901 -95.7180176 100.2905960
48.2242165 -98.8332520 71.5343323
-38.6386642 -100.0957336 78.3812790
7.4738002 -96.0364838 100.0723495
9.3430567 -96.0324707 99.8617401
48.2444420 -99.2302933 71.4118423
-39.0647964 -100.5867615 77.6837158
-38.6361389 -100.4879990 78.3032761
7.4688854 -96.4123001 100.0564346
9.3454437 -96.4005051 99.8490601
48.2634888 -99.6273422 71.2660522
-39.1199608 -100.9955063 77.5212860
-38.6202507 -100.8745346 78.2469254
-38.2078247 -100.7791824 78.8405991
-37.8058167 -100.6893616 79.4042435
7.4793386 -96.7837143 100.0336380
9.3527212 -96.7687988 99.8295288
10.4960804 -96.7679062 99.6665421
10.8826342 -96.7681427 99.6062164
11.2559195 -96.7656403 99.5458145
11.6364193 -96.7657928 99.4781265
12.0270214 -96.7744141 99.4042511
12.4023619 -96.7771072 99.3316040
-37.8160629 -101.0885544 79.2957535
7.4661775 -97.1526489 100.0109940
7.8475771 -97.1504135 99.9741211
8.2235813 -97.1447830 99.9354630
8.6142969 -97.1473541 99.8930206
8.9848566 -97.1421432 99.8516693
9.3434811 -97.1361237 99.8083191
10.4947786 -97.1392899 99.6427917
12.4057264 -97.1454544 99.3148880
10.4999037 -97.5102081 99.6148605
12.4000607 -97.5141678 99.2907257
48.2863464 -100.8221588 70.8583069
48.7546234 -100.9617920 69.8507462
10.5005827 -97.8780289 99.5845184
10.8875036 -97.8783188 99.5271988
11.2750549 -97.8789597 99.4656830
11.6598501 -97.8829117 99.3982620
12.0261259 -97.8826294 99.3300018
12.4148026 -97.8912888 99.2541122
48.2969093 -102.0197144 70.4601288
48.3007393 -102.4174347 70.3060760
-37.8788795 -103.4801712 78.5398178
48.3451080 -102.8370132 70.0637665
-37.8573914 -103.8750229 78.4312286
47.4326096 -102.9678726 71.8574219
-37.8677979 -104.2807159 78.2728348
47.4481430 -103.3736725 71.6695099
-38.2809334 -104.7809982 77.5419464
-37.8809814 -104.6860962 78.1132889
47.4709740 -104.6000977 71.0430374
47.9803810 -104.7669067 69.9283218
47.5120506 -105.0234680 70.7535782
47.5250320 -105.4394760 70.5194778
-37.0846062 -106.5121384 78.5110245
47.5618935 -105.8695602 70.2218933
-37.0929070 -106.9231339 78.3341751
-36.6449890 -106.8128281 78.9616470
-36.2198715 -106.7106934 79.5496826
-36.2193565 -107.1159134 79.3753281
46.6841927 -107.2490387 71.2042236
46.7395935 -107.6900558 70.8278351
-36.2810135 -108.7718353 78.5342407
46.7702560 -108.1228867 70.5015488
-36.3050041 -109.1946182 78.3058777
-35.8584824 -109.0795517 78.9292679
-35.4177589 -108.9667740 79.5379333
-35.4375076 -109.3864288 79.3013306
45.9178009 -109.5356216 71.1839523
-35.5118904 -110.6580658 78.5293503
45.9894638 -110.0046539 70.7049866
-35.4975204 -111.0714645 78.3220978
-34.6879234 -111.2923813 79.2048950
45.1608696 -110.5937805 71.8372574
45.5687981 -110.7216949 70.9795532
-35.1169510 -111.8210831 78.3863297
-34.6913300 -111.7117233 78.9633408
45.1674652 -111.0243454 71.5123215
45.1622429 -111.4421616 71.2051849
45.2136497 -111.9091797 70.7410049
-33.8742027 -112.7665787 79.3147888
-34.3200035 -113.3110275 78.4601593
-33.9294662 -113.2161179 78.9784470
44.4359932 -112.9741821 71.3189621
43.5719261 -113.5647659 72.3966064
44.0393105 -113.7235718 71.4338074
43.6273842 -114.0318222 71.9129181
42.7577705 -114.2074814 73.2751694
42.7855339 -114.6539383 72.8383560
43.2306633 -114.7953415 71.9534225
-32.3891258 -115.8248215 78.9988708
42.8006439 -115.1027756 72.4101715
-32.8103142 -116.3686142 78.1250076
-32.4077225 -116.2662506 78.6578369
42.8546333 -115.5827179 71.8842545
-32.4440689 -117.1555634 77.9256744
41.9992371 -116.6497040 72.3408813
42.0292702 -117.1203156 71.8404770
-31.6390877 -118.2631912 77.9753571
41.1668663 -117.2881546 73.0796738
41.5839539 -117.4184341 72.2803421
41.1982231 -117.7631989 72.5646133
-30.4202461 -118.8455887 78.9096832
-29.9954128 -118.7368088 79.4437103
-29.9968586 -119.1684265 79.0859680
-30.4365559 -119.7317810 78.1558533
-30.0140553 -119.6188507 78.6945419
40.4515152 -118.9133987 72.5668182
-30.0666695 -120.0935669 78.2466507
-29.2103252 -120.3022537 78.9596024
40.5286217 -119.8809280 71.3924789
-29.6968384 -120.9068069 77.9310379
-29.2445316 -120.7725983 78.5093613
-29.2562141 -121.2293549 78.0876007
-27.6659603 -121.7284775 79.2400436
-8.3085766 -118.9686279 92.4875107
-7.9385610 -118.9456558 92.5896149
9.0315466 -118.3793488 93.6892548
9.3676472 -118.3349838 93.7410278
9.7052546 -118.3147049 93.7504501
10.1857319 -118.4022522 93.5185623
-27.6927471 -122.1931381 78.7586746
-8.3922787 -119.4832840 92.1119308
-7.9764061 -119.4256210 92.2447357
9.0195122 -118.7630920 93.4862823
9.3747702 -118.7233734 93.5158234
9.7942066 -118.7966766 93.3806534
10.2019482 -118.8132935 93.2465668
39.0188141 -121.8031158 71.5678864
-28.1197910 -122.7644958 77.7456589
-27.7303181 -122.6666260 78.2660522
38.1518440 -121.9972305 72.6387482
38.5787582 -122.1051407 71.8754959
-27.7491398 -123.1297302 77.7947998
-28.1419201 -123.7012177 76.8183060
-27.7749825 -123.6025009 77.2950211
37.3387299 -122.7122345 72.9916306
37.7906990 -122.8554459 72.1557922
-27.8140125 -124.1036377 76.7470398
37.3536797 -123.1963120 72.3786774
-27.4398918 -124.4734497 76.7573624
-26.9909782 -124.3403168 77.3581467
-26.5929909 -124.2395096 77.8697357
-26.1522865 -124.1211624 78.4257202
37.3835487 -123.6870346 71.7137833
-26.1785946 -124.5957031 77.9029617
-26.6342678 -125.2049942 76.8097534
-26.2112408 -125.0864868 77.3450470
36.5628967 -124.4247818 71.9500351
37.0117645 -124.5798721 71.0864029
-26.2227573 -125.5665283 76.8144226
36.5736961 -124.9211502 71.2703705
-25.8180790 -125.9359589 76.8047104
-25.4110355 -125.8242188 77.3178558
35.7806778 -125.1636505 72.0891571
36.2165489 -125.3133392 71.2589111
-25.4387722 -126.3177185 76.7510300
35.8625488 -125.7356796 71.1911469
-25.0338802 -126.6874161 76.7195740
-24.6410561 -126.5832672 77.1999130
34.2237244 -125.7279434 73.4610672
34.6405602 -125.8489609 72.7511597
35.0202904 -125.9476242 72.0950241
35.4298973 -126.0837860 71.3294296
-24.6455879 -127.0678101 76.6369019
34.2697220 -126.2636490 72.6909103
-24.6674595 -127.5682678 76.0302277
33.4539833 -126.5279541 73.3883514
33.8686295 -126.6482849 72.6992035
-22.2966518 -127.9247437 77.7826462
33.5135002 -127.5645752 71.8462296
-22.2941113 -128.4120178 77.1561203
32.7340927 -128.3828430 71.6594086
-22.3699398 -129.9589539 75.1095581
-21.9532719 -129.8415375 75.6591415
-21.5613518 -129.7460938 76.1354446
31.0655403 -128.9117432 72.9762497
31.4813862 -129.0326843 72.2897568
-21.5821056 -130.2638702 75.4609833
31.1142082 -129.4897919 72.0341644
-20.7895775 -130.5558777 75.7682724
31.1326866 -130.0241089 71.1670074
-20.4210930 -131.5068207 74.7869110
-20.0005608 -131.3873901 75.2916718
-19.6027565 -131.2833862 75.7565994
-19.2110081 -131.1935272 76.1870728
29.5843296 -130.6649323 71.9934158
29.9909058 -130.7829895 71.3226624
30.3728428 -130.8918762 70.6905899
-19.2157574 -131.6969147 75.4902573
29.6178131 -131.2351685 71.0278625
-19.2294216 -132.2268524 74.7265854
-18.8396778 -132.1180420 75.1660385
-18.4336834 -132.0179596 75.6240082
-17.6383762 -131.8466187 76.4969711
28.0235939 -131.3453522 72.6676559
28.4195747 -131.4265900 72.1011505
28.8278866 -131.5568848 71.4242172
29.2625542 -131.7057037 70.6742859
28.0482025 -131.8945923 71.7432480
-16.9365940 -133.8156738 74.1600876
-16.5405846 -133.7093506 74.6137390
-16.1167526 -133.6051331 75.0764618
-15.7040968 -133.5086975 75.5038910
-15.3243065 -133.4389038 75.8534317
26.4612141 -133.1372223 71.3390884
26.9032726 -133.2829895 70.6099625
-15.3111820 -133.9544220 75.1023483
26.5074177 -133.7820892 70.1579514
-15.3492937 -134.5242462 74.2326126
-14.9438448 -134.4136047 74.6593704
-14.5251713 -134.3063354 75.0888138
25.6960049 -134.1052551 70.4187622
-14.5696449 -134.9020081 74.1715698
25.7428894 -134.7701263 69.1566544
-13.7850504 -135.2510223 74.0452805
-13.3884964 -135.1490631 74.4298248
-12.9973183 -135.0687714 74.7939835
-12.6045504 -134.9960327 75.1638031
-12.1898460 -134.9074707 75.5612030
23.3434315 -134.6960907 71.6372833
23.7596016 -134.8071442 71.0699081
24.1697998 -134.9232483 70.4836197
-13.8184891 -135.8420410 73.0187683
-11.4452553 -135.8492432 74.4397507
22.5775127 -135.6924896 70.4917374
22.9952316 -135.8304749 69.8577194
-11.4821014 -136.4573517 73.3733368
-11.8693552 -137.1438446 71.9543839
-11.4870815 -137.0506744 72.3565750
-11.0944872 -136.9638824 72.7379150
-10.6970444 -136.8727722 73.1097946
21.0092659 -136.5893097 70.1328506
21.4249172 -136.6972809 69.5852966
-10.7141876 -137.4928436 72.0250244
-10.3481760 -138.0361633 71.2335281
-9.9147196 -137.9124908 71.6790390
-9.5208302 -137.8248138 72.0371399
-9.1240959 -137.7379303 72.3863983
-8.7297039 -137.6617432 72.6993179
-8.3187609 -137.5650024 73.0382080
-7.9300604 -137.4901123 73.3458557
-7.5457091 -137.4307709 73.6359863
-7.1546841 -137.3710632 73.9153976
-6.7557502 -137.3157501 74.1776886
18.6768150 -137.3351898 70.4864197
19.0628719 -137.4072266 70.0580215
19.4685326 -137.5119629 69.5342178
19.8377266 -137.5923462 69.0834961
-6.7788420 -137.8968811 73.1201477
-5.9922781 -138.3595886 72.4930496
16.3184910 -138.1733398 70.3906326
16.7236671 -138.2548676 69.9855499
17.1131763 -138.3401337 69.5721359
-6.0159230 -139.0187683 71.2306595
-4.8402829 -139.4963074 70.7474823
-4.4465575 -139.4117737 71.0098877
-2.4776797 -139.0868530 72.1561203
-2.0761914 -139.0392456 72.3441391
-1.7026266 -139.0345001 72.4301453
-1.3067157 -138.9997406 72.5648727
13.9568930 -139.1068726 69.7735214
14.3505907 -139.1963348 69.3823776
14.7482376 -139.2630157 69.0362930
15.1390905 -139.3409729 68.6652908
-2.4606586 -139.7470551 70.7873154
-1.3187864 -139.5986176 71.3324966
14.0038986 -139.8837433 68.0975494
-1.3228786 -140.2630920 69.8593826
10.8540010 -140.1203918 68.9800110
11.2531223 -140.1671295 68.7391663
11.6377306 -140.2695007 68.3683167
12.0339460 -140.3139496 68.1086121
-1.3193017 -141.0103912 68.1883392
2.1815968 -141.4486694 67.6385040
2.5737545 -141.4286804 67.6667023
2.9563868 -141.3947449 67.7254486
3.3581624 -141.3540497 67.8002548
3.7565987 -141.3655853 67.7569580
4.1437168 -141.3708344 67.7250519
4.5358114 -141.3698883 67.7000732
4.9572988 -141.3384399 67.7292175
5.3444080 -141.3384857 67.6783752
5.7233243 -141.3559113 67.5819550
6.1207781 -141.3464050 67.5437622
6.5272956 -141.3620148 67.4527893
8.4871798 -141.4883575 66.5254593
8.8573704 -141.5245209 66.2432251
-56.4521599 55.8896866 -158.3687439
-55.4950333 55.8839226 -158.2458344
-53.5224533 55.9143066 -158.1934204
-49.6551094 55.9565392 -158.9440613
-48.6932755 55.9681664 -159.3423157
-47.7295609 55.9901123 -159.8239441
-62.2838173 54.8811569 -157.1249084
-61.2416267 54.8273010 -156.5445099
-60.2423058 54.8153763 -156.1159668
-59.2791519 54.8171921 -155.7729797
-58.2839851 54.8071899 -155.4347992
-57.2867851 54.7811966 -155.1547241
-56.3115005 54.7761841 -155.0127869
-55.3528709 54.7734222 -154.9584351
-54.3625221 54.7780800 -154.9718933
-53.3864098 54.7645111 -154.9350891
-52.4156990 54.7574692 -154.9491425
-51.4504929 54.7940674 -155.1534882
-50.4585190 54.7763367 -155.3040619
-49.5128860 54.7853661 -155.5703888
-48.5640678 54.8022270 -155.9251862
-47.6076584 54.8100891 -156.3077850
-46.6480370 54.8286362 -156.7554626
-45.6840591 54.8624001 -157.3089600
-44.7163239 54.8658066 -157.8611908
-43.7829819 54.9267082 -158.5926514
-42.8413925 54.9933701 -159.4210510
-63.0843620 53.7778435 -154.5596161
-62.0928230 53.7651787 -154.0841675
-61.0922241 53.7558975 -153.6713562
-60.0812302 53.7243729 -153.2494507
-59.1253281 53.7209854 -152.9662933
-58.1464920 53.7302628 -152.7483673
-57.1274033 53.6897202 -152.4551086
-56.1595840 53.6804085 -152.3294678
-55.2080383 53.6787605 -152.2971497
-54.2309303 53.6711426 -152.2762909
-53.2601395 53.7004547 -152.3536987
-52.3013000 53.6973877 -152.3976746
-51.3081703 53.6804428 -152.4589539
-50.3464050 53.6971664 -152.6494598
-49.4130173 53.7032471 -152.8840179
-48.4543419 53.7098846 -153.1600647
-47.4819183 53.7156601 -153.4641724
-46.5234146 53.7346916 -153.8422394
-45.5593147 53.7386589 -154.2412720
-44.5927124 53.7670021 -154.7993469
-43.6496429 53.7840080 -155.3698578
-42.7188683 53.8014107 -156.0247955
-41.7858925 53.8465309 -156.8735657
-40.8220024 53.8819542 -157.7628632
-39.8852577 53.9619293 -158.7971191
-66.9741516 52.7994156 -154.3634033
-65.9512634 52.7632523 -153.6338654
-64.9552002 52.7393379 -153.0102844
-63.9303970 52.7055702 -152.4229584
-62.9366493 52.6984024 -151.9611206
-61.9558067 52.6699142 -151.5235138
-60.9626770 52.6708641 -151.1961060
-59.9701309 52.6406212 -150.8411102
-58.9763336 52.6294212 -150.5700531
-57.9908905 52.6161232 -150.3376160
-47.3758430 52.6424217 -151.1079407
-46.4086609 52.6599655 -151.4539948
-45.4685669 52.6837387 -151.8732147
-44.4873466 52.6878548 -152.3147736
-43.5364914 52.7149849 -152.8355713
-42.6094780 52.7396164 -153.4264069
-41.6673355 52.7510071 -154.0761108
-40.7211761 52.7838860 -154.8357086
-39.7725487 52.7903824 -155.5923157
-38.8272858 52.8369522 -156.5136261
-37.8817444 52.8875160 -157.5216675
-68.8733826 51.7798462 -153.4070129
-67.8452988 51.7349243 -152.5899658
-66.8164063 51.6975555 -151.8395996
-65.8276443 51.6962166 -151.2627563
-64.8210602 51.6639137 -150.6863403
-63.8122177 51.6393547 -150.1768799
-62.8118248 51.6282120 -149.7446442
-61.8166771 51.5870552 -149.3178101
-60.8397751 51.5999832 -149.0579834
-59.8306694 51.5791779 -148.7602386
-58.8738327 51.5657768 -148.5175629
-57.8893318 51.5578842 -148.3222504
-47.2730103 51.5892944 -149.1083832
-46.3180695 51.5933075 -149.4151917
-45.3726196 51.6053581 -149.7697601
-44.4032707 51.6269836 -150.1751251
-43.4514885 51.6123543 -150.5634308
-42.5098686 51.6768990 -151.1864014
-41.5647545 51.6838913 -151.7504578
-40.6052246 51.7160759 -152.4191895
-39.6788979 51.7174759 -153.0434113
-38.7158928 51.7631187 -153.8432007
-37.7890396 51.7804108 -154.6702728
-36.8309937 51.8250084 -155.7174072
-35.9324570 51.8569679 -156.7738953
-35.0040131 51.9300995 -157.9723663
-69.7313690 50.7258339 -151.7826233
-68.7139587 50.6887360 -151.0059662
-67.7241821 50.6816406 -150.3709412
-66.6900482 50.6365128 -149.6803284
-65.6871567 50.6104660 -149.1139069
-64.6801682 50.6024780 -148.6352997
-63.6722336 50.5715485 -148.1620026
-41.4886131 50.6107864 -149.6768036
-40.5320663 50.6726379 -150.3660889
-39.5876617 50.6834984 -150.9506836
-38.6430702 50.6839828 -151.5418396
-37.6782684 50.7301636 -152.3732147
-36.7421608 50.7561722 -153.2564240
-35.8325653 50.7802887 -154.2090454
-34.8948250 50.8258324 -155.2872162
-73.7123566 49.8100014 -153.2536926
-72.6672592 49.7494698 -152.1684265
-71.6535339 49.7227554 -151.2453003
-70.6026917 49.6795654 -150.3502502
-69.5625534 49.6460953 -149.5654449
-68.5845642 49.6232529 -148.9295807
-67.5762787 49.6038475 -148.3253784
-66.5710678 49.5978012 -147.7809906
-65.5694275 49.5635834 -147.2474976
-64.5748749 49.5507889 -146.8067627
-63.5703278 49.5373993 -146.4158325
-41.4159126 49.5696182 -147.8886414
-40.4586067 49.6016922 -148.4752045
-39.5254135 49.6170998 -149.0173187
-38.5681877 49.6406097 -149.6219177
-37.6166000 49.6557007 -150.3080444
-36.6637459 49.6898460 -151.1345825
-35.7461586 49.7299500 -152.0180664
-34.8091850 49.7482605 -152.9284668
-33.8643608 49.7870026 -153.9555969
-32.9431152 49.8247604 -155.0331879
-31.9910870 49.8795357 -156.3734436
-74.5975952 48.7642555 -151.9940186
-73.5443497 48.7205391 -150.9469452
-72.5374680 48.7051544 -150.0585022
-71.5227585 48.6642494 -149.2023773
-70.4789276 48.6329079 -148.4135895
-69.4451599 48.6051979 -147.7171021
-68.4716415 48.5893478 -147.1409302
-67.4506302 48.5535469 -146.5349426
-66.4309692 48.5294228 -145.9949188
-65.4583054 48.5176506 -145.5467834
-41.3576965 48.5352707 -146.2800598
-40.3904457 48.5593758 -146.8075714
-39.4559174 48.5894127 -147.3381958
-38.5086212 48.5998650 -147.8896637
-37.5467415 48.6312141 -148.5777588
-36.6009521 48.6573524 -149.3092194
-35.6802330 48.6790390 -150.0682373
-34.7247543 48.7128372 -150.9512024
-33.7894058 48.7473679 -151.8668976
-32.8643532 48.7656174 -152.8105621
-31.9213448 48.8142815 -153.9865265
-30.9647541 48.8593597 -155.2824249
-30.0342045 48.9128723 -156.6642456
-75.4854050 47.7322121 -150.9004364
-74.4651794 47.7099113 -149.9237671
-73.3984756 47.6601486 -148.9299927
-72.3869781 47.6345291 -148.1086426
-71.4063034 47.6227913 -147.4143066
-70.3611526 47.5818405 -146.6783142
-69.3619308 47.5733337 -146.0744781
-68.3607254 47.5489883 -145.4926453
-67.3426895 47.5116615 -144.9281769
-66.3509674 47.5161285 -144.4856110
-65.3704987 47.4901581 -144.0476074
-41.2884293 47.5188713 -144.8250732
-40.3357620 47.5159760 -145.2676697
-39.3915787 47.5551605 -145.7880249
-38.4588165 47.5470161 -146.2865601
-37.4819565 47.5985069 -146.9744873
-36.5525627 47.5958366 -147.5734558
-35.6135788 47.6312599 -148.3111115
-34.6785431 47.6728973 -149.1425018
-33.7334976 47.6978035 -150.0006104
-32.8058319 47.7305450 -150.8980865
-31.8464622 47.7642975 -151.8954773
-30.8905106 47.7833252 -152.9912720
-29.9733734 47.8375778 -154.2571716
-29.0443058 47.8944855 -155.6313782
-28.0954704 47.9785461 -157.1559906
-76.3902969 46.7214546 -149.9941406
-75.3635330 46.6907234 -148.9874573
-74.3423691 46.6689987 -148.0893555
-73.2829590 46.6216278 -147.1818237
-72.2669601 46.5939064 -146.4238739
-71.2779541 46.5858841 -145.7763367
-70.2629395 46.5577316 -145.1147461
-69.2511826 46.5182190 -144.4932556
-60.3823166 46.4155273 -141.2507935
-59.4075966 46.4217529 -141.0912476
-43.1092606 46.4461212 -142.6170044
-42.1720963 46.4797440 -143.0209198
-35.5631752 46.5911026 -146.7206421
-34.6246338 46.6235657 -147.4965363
-33.6669350 46.6701317 -148.3460693
-32.7484360 46.6831207 -149.1253204
-31.7880325 46.7148819 -150.0450897
-30.8359222 46.7665672 -151.1119385
-29.9215813 46.7717133 -152.1436005
-29.0018997 46.8218918 -153.3943176
-28.0562897 46.8773422 -154.8149109
-27.0995293 46.9500580 -156.3102417
-78.3716660 45.7559509 -150.3565826
-77.3058243 45.7141418 -149.2051544
-76.2614746 45.6749039 -148.1692200
-75.2468796 45.6486053 -147.2635193
-74.2225037 45.6250648 -146.4221802
-73.1892166 45.6034622 -145.6368561
-72.1805573 45.5744667 -144.9222565
-71.1713867 45.5452957 -144.2562256
-70.1585846 45.5195122 -143.6376038
-69.1669312 45.5149612 -143.1209717
-60.3021927 45.3810349 -140.0046539
-59.3264465 45.3849907 -139.8419495
-43.0502167 45.4528542 -141.4063721
-42.1209412 45.4499817 -141.7402649
-35.5051804 45.5841408 -145.3335724
-34.5713272 45.6071548 -146.0413971
-33.6315918 45.6289597 -146.7731171
-32.6755447 45.6490173 -147.5599670
-31.7273273 45.6878777 -148.4459229
-30.7801781 45.7287521 -149.4190674
-29.8228188 45.7804337 -150.4932861
-28.9244194 45.8035011 -151.5387878
-27.9923401 45.8215561 -152.7273560
-27.0695858 45.8702507 -154.0986023
-26.1139030 45.9420090 -155.6735687
-25.1526413 46.0216980 -157.3616333
-79.2581635 44.7493896 -149.6202087
-78.2408981 44.7151299 -148.5354004
-77.2025146 44.6895943 -147.5332031
-76.1490784 44.6505890 -146.5640411
-75.1271439 44.6172142 -145.6924896
-74.1127396 44.5955963 -144.9127502
-73.0851746 44.5635757 -144.1624298
-72.0683670 44.5361595 -143.4841003
-71.0780487 44.5226822 -142.8898315
-64.1389542 44.4226532 -139.8558655
-63.1561661 44.4028740 -139.5451965
-44.9209518 44.4323883 -139.6420593
-43.9739151 44.4391594 -139.9399719
-33.5729523 44.6108475 -145.4031067
-32.6304703 44.6428986 -146.1758728
-31.6936626 44.6535110 -146.9515381
-30.7397919 44.6843147 -147.8328247
-29.8013172 44.7097702 -148.7574921
-28.8721199 44.7438927 -149.7541504
-27.9318981 44.7896461 -150.9202881
-27.0062389 44.8344193 -152.1946106
-26.0726166 44.8662224 -153.5298920
-25.1223106 44.9172211 -155.0660248
-24.1600609 45.0067596 -156.8097229
-81.2803879 43.7970734 -150.3834381
-80.1903992 43.7461014 -149.0726471
-79.1303253 43.7057991 -147.8939209
-78.0980835 43.6683578 -146.8653107
-77.0732727 43.6539307 -145.9576263
-76.0345993 43.6223373 -145.0700378
-75.0101852 43.5841980 -144.2470398
-74.0170593 43.5674820 -143.5312500
-72.9741669 43.5397415 -142.8165894
-72.0014191 43.5408936 -142.2424622
-71.0055695 43.5135880 -141.6725464
-64.0703888 43.4089966 -138.7361145
-63.1002960 43.4151154 -138.4824219
-44.8694992 43.4060974 -138.5540924
-43.9213333 43.4235954 -138.8343506
-33.5263443 43.6029205 -144.1494141
-32.5970154 43.6265106 -144.8622131
-31.6492558 43.6390572 -145.6050873
-30.6863499 43.6637344 -146.4318542
-29.7439079 43.7079277 -147.3244476
-28.8263626 43.7281265 -148.2370911
-27.8638363 43.7809601 -149.3756409
-26.9629173 43.7920837 -150.4502869
-26.0142746 43.8367538 -151.7059479
-25.0566425 43.8792839 -153.1247101
-24.1191807 43.9276733 -154.7008667
-23.1844063 44.0048370 -156.4325562
-81.1495819 42.7497902 -148.6511078
-80.0800095 42.7114983 -147.4517517
-79.0304184 42.6806374 -146.3794861
-77.9983063 42.6465492 -145.4085236
-76.9762802 42.6242447 -144.5374908
-75.9292908 42.5891113 -143.6958923
-74.9202194 42.5737000 -142.9664612
-42.9081802 42.4344063 -138.1284027
-41.9784546 42.4502983 -138.4729614
-39.1414146 42.4768600 -139.6219330
-38.1916771 42.4899902 -140.0886078
-35.3854065 42.5347290 -141.6408081
-34.4314728 42.5765266 -142.2951508
-31.6103764 42.6257935 -144.3632355
-30.6350098 42.6719971 -145.1856537
-29.7129402 42.6655579 -145.9383240
-28.7884789 42.6963806 -146.8457642
-27.8522243 42.7330475 -147.8637238
-26.9188728 42.7804909 -148.9432526
-25.9782047 42.8093872 -150.0863190
-25.0353279 42.8406372 -151.3551941
-24.0659332 42.8899078 -152.8343201
-23.1518288 42.9357071 -154.3695068
-22.2030983 43.0290527 -156.1329803
-82.0663757 41.7568512 -148.2343750
-81.0088501 41.7206154 -147.0689392
-79.9606781 41.6874847 -145.9913940
-78.9328156 41.6618729 -145.0124664
-77.9091644 41.6325035 -144.0958557
-76.8767700 41.6035614 -143.2499695
-75.8519897 41.5828552 -142.4893188
-74.8371658 41.5619698 -141.7792816
-42.8699417 41.4340782 -137.1847687
-41.9406815 41.4423370 -137.5122681
-39.0888977 41.4763298 -138.6519012
-38.1592026 41.5011787 -139.0927734
-35.3440247 41.5324669 -140.5875854
-34.3898125 41.5657120 -141.1889648
-31.5628510 41.6210403 -143.2102966
-30.5974846 41.6380043 -143.9448700
-29.6564922 41.6690865 -144.7561646
-28.7370434 41.7224426 -145.6619720
-27.8064899 41.7270393 -146.5653381
-26.8737564 41.7579346 -147.5752106
-25.9285774 41.8112068 -148.7044678
-24.9694061 41.8371201 -149.8911438
-24.0308876 41.8572311 -151.1533966
-23.1141739 41.8925591 -152.5530548
-22.1929283 41.9512062 -154.1388245
-21.2407722 42.0288963 -155.8575134
-80.9127960 40.6968384 -145.6755219
-79.8677902 40.6754265 -144.6814270
-78.8188705 40.6428261 -143.7229919
-77.8100281 40.6136818 -142.8634338
-76.7984848 40.6004257 -142.0949554
-71.7538452 40.5048561 -138.8802185
-70.7823181 40.4919701 -138.3867340
-33.3869286 40.5815887 -140.7927856
-32.4715042 40.6087265 -141.4484558
-27.7748928 40.7138062 -145.3527374
-26.8306561 40.7378273 -146.3254700
-25.9076996 40.7679749 -147.3253632
-24.9475231 40.8115463 -148.4662323
-23.9896698 40.8518906 -149.7113037
-23.0571709 40.8888092 -151.0187225
-22.1508789 40.9169655 -152.4085236
-21.2234039 40.9651413 -154.0016785
-20.2419395 41.0570107 -155.8784943
-82.8918610 39.7461967 -146.5264893
-81.8670502 39.7098579 -145.4200897
-80.8124390 39.6789474 -144.3831329
-79.7805481 39.6696701 -143.4604950
-78.7368469 39.6342163 -142.5508881
-77.7263107 39.6053162 -141.7326660
-76.7098999 39.5910416 -140.9909973
-71.6742783 39.4943085 -137.8884583
-70.7110214 39.4956245 -137.4353943
-33.3690262 39.5822525 -139.8223114
-32.4356918 39.5890999 -140.4285889
-27.7320061 39.7108917 -144.2495728
-26.7934418 39.7414246 -145.1734772
-25.8742752 39.7574387 -146.1038971
-24.9158306 39.7922974 -147.1831512
-23.9637413 39.8288574 -148.3426514
-23.0273075 39.8650894 -149.5633240
-22.1174679 39.9012527 -150.8628845
-21.1743584 39.9449348 -152.3828278
-20.2240562 39.9851036 -154.0638428
-19.2875118 40.0458374 -155.8819733
-84.9468155 38.8018303 -147.7704163
-83.8580627 38.7551346 -146.4362183
-82.8017578 38.7232552 -145.2469940
-81.7521515 38.6964645 -144.1719360
-80.7119141 38.6633835 -143.1832275
-79.6678238 38.6390610 -142.2726135
-78.6561432 38.6266937 -141.4559326
-73.6368484 38.5413475 -138.0697937
-72.6046371 38.5109711 -137.4861603
-69.6321259 38.4762039 -136.0614624
-68.6506042 38.4644775 -135.6522980
-59.8859711 38.4147720 -133.3262787
-58.9235077 38.4057121 -133.1859131
-57.9730682 38.3931007 -133.0780334
-57.0277328 38.4139099 -133.0208282
-38.9907761 38.5024567 -135.9783936
-38.0614471 38.5110664 -136.3786469
-29.5706005 38.6668243 -141.5588684
-28.6577454 38.6901970 -142.3460999
-27.6988792 38.7180824 -143.2214050
-26.7439384 38.7446289 -144.1282806
-25.8202667 38.7678604 -145.0311279
-24.8810101 38.7872353 -146.0127411
-23.9299545 38.8172302 -147.1021423
-23.0045071 38.8463974 -148.2286987
-22.0763931 38.8858223 -149.4799805
-21.1534500 38.9146423 -150.8586273
-20.2119484 38.9680901 -152.4392548
-19.2884045 38.9980164 -154.0926666
-18.2854080 39.0863914 -156.1371155
-86.9692459 37.8496666 -149.1755676
-85.8920441 37.8094406 -147.7230835
-84.8411102 37.7841682 -146.4348755
-83.7715836 37.7504501 -145.2018127
-82.7058487 37.7215004 -144.0691986
-81.6712494 37.6975288 -143.0608215
-80.6537323 37.6713181 -142.1301422
-79.6128922 37.6513557 -141.2550507
-78.5904465 37.6316986 -140.4584198
-73.5515442 37.5386391 -137.1612091
-72.5544586 37.5315018 -136.6463013
-69.5825653 37.4955940 -135.2587738
-68.6066513 37.4912300 -134.8657837
-59.8548203 37.4198837 -132.5790100
-58.8955917 37.4385948 -132.4780884
-57.9447937 37.4314117 -132.3784332
-56.9845695 37.4364624 -132.2965546
-38.9612808 37.5274696 -135.2100372
-38.0228958 37.5406265 -135.5953674
-29.5423737 37.6774063 -140.6537781
-28.6273365 37.6922302 -141.4019928
-27.6787739 37.7113571 -142.2385101
-26.7327194 37.7382965 -143.1128235
-25.8136635 37.7458801 -143.9404907
-24.8371201 37.8046036 -144.9723511
-23.8631687 37.8364258 -146.0429535
-22.9545288 37.8561783 -147.0938416
-22.0421467 37.8829460 -148.2633514
-21.0785275 37.9310608 -149.6578064
-20.1661282 37.9536819 -151.0460815
-19.2122784 37.9953842 -152.6625366
-18.2648468 38.0363045 -154.4435425
-17.2802429 38.1185150 -156.5496521
-86.8540649 36.8299942 -147.7848816
-85.7604065 36.7901459 -146.3801575
-84.7236099 36.7634277 -145.1737976
-83.6615677 36.7274857 -144.0024414
-82.6224289 36.7107735 -142.9617615
-81.5932846 36.6876335 -141.9990387
-80.5506134 36.6545258 -141.0791626
-77.5186462 36.6060905 -138.7928162
-76.4914627 36.5867157 -138.1036835
-71.4969330 36.5181847 -135.3180084
-70.5313721 36.5174255 -134.8915558
-63.6793823 36.4614182 -132.5918427
-62.7105255 36.4512939 -132.3520660
-61.7391434 36.4479141 -132.1625977
-60.7783394 36.4581070 -132.0262146
-31.3999672 36.6523972 -138.4081116
-30.4540100 36.6535568 -139.0611267
-27.6483421 36.7127838 -141.3119354
-26.7007790 36.7436142 -142.1422729
-22.0397167 36.8531303 -147.0635376
-21.0576172 36.9126358 -148.4188995
-20.1277142 36.9483948 -149.7771759
-19.1928978 36.9798508 -151.2320251
-18.2488518 37.0105209 -152.8700714
-17.3030910 37.0673218 -154.7846222
-87.8577957 35.8522453 -147.9889832
-86.7430496 35.8114090 -146.5104065
-85.6884155 35.7867317 -145.2390442
-84.6494446 35.7616463 -144.0745697
-83.5707550 35.7273254 -142.9314880
-82.5334320 35.7069511 -141.9289246
-81.5001984 35.6767426 -140.9969788
-80.4895630 35.6778336 -140.1759033
-77.4446030 35.6098747 -137.9063721
-76.4369202 35.6013069 -137.2693787
-71.4321671 35.5266495 -134.5267334
-70.4715042 35.5245094 -134.1250458
-63.6462402 35.4809189 -131.8969116
-62.6717949 35.4674644 -131.6788177
-61.7019577 35.4819183 -131.5205383
-60.7441139 35.4638824 -131.3404083
-31.3731422 35.6559448 -137.6141510
-30.4172840 35.6735764 -138.2643433
-27.6192379 35.7286224 -140.4304962
-26.6816235 35.7431564 -141.2167358
-21.9845333 35.8781433 -146.0896912
-21.0493679 35.8991394 -147.2685394
-20.0965881 35.9497147 -148.6020050
-19.1781158 35.9683037 -149.9294128
-18.1938324 36.0254478 -151.5954590
-17.2656536 36.0492325 -153.3119812
-16.3180599 36.1189957 -155.2271271
-87.7619476 34.8454208 -146.7868042
-86.6597214 34.8074379 -145.3850250
-85.5881500 34.7802505 -144.1446838
-84.5808105 34.7639046 -143.0687561
-83.4994049 34.7259674 -141.9638519
-82.4506836 34.7076836 -140.9891510
-79.3782654 34.6464348 -138.4685669
-78.3594971 34.6308937 -137.7304230
-75.3561707 34.5992317 -135.8533173
-74.3607025 34.5808334 -135.2820740
-73.3750153 34.5697517 -134.7626801
-72.3661118 34.5554733 -134.2612152
-63.5938568 34.5083313 -131.2447815
-62.6242294 34.5069809 -131.0642090
-61.6522598 34.4976501 -130.8663940
-60.6938553 34.4820213 -130.6636505
-50.2052650 34.4783936 -130.3462524
-49.2484131 34.4878502 -130.4625549
-33.2014618 34.6364365 -135.7493134
-32.2775917 34.6684723 -136.3110352
-31.3526192 34.6639557 -136.8616486
-30.3937340 34.6918373 -137.5092010
-29.4620972 34.7031860 -138.1695862
-28.5173950 34.7393150 -138.8953094
-23.8186626 34.8273277 -143.0602417
-22.8850842 34.8627968 -144.0804749
-21.9539814 34.8854904 -145.1242676
-21.0176620 34.9050217 -146.2471924
-20.0627003 34.9425125 -147.5050354
-19.1270847 34.9695129 -148.8164063
-18.1843262 35.0057793 -150.3043518
-17.2363911 35.0396080 -151.9547119
-16.3164139 35.0771332 -153.6989136
-87.6581726 33.8352242 -145.6257172
-86.5698853 33.8052254 -144.3189392
-85.4964294 33.7733688 -143.1262665
-84.4965668 33.7651596 -142.1109314
-83.4243927 33.7326164 -141.0615387
-82.3944550 33.7150803 -140.1367798
-79.3362122 33.6619720 -137.6912689
-78.2995224 33.6411667 -136.9549866
-75.3078232 33.6083145 -135.1256714
-74.3307190 33.6025314 -134.5966339
-73.3128204 33.5844078 -134.0636902
-72.3348236 33.5888710 -133.6077881
-63.5512466 33.5153999 -130.5981598
-62.5837212 33.5253983 -130.4181976
-61.6091614 33.5079498 -130.2068634
-60.6666946 33.5173302 -130.0511627
-50.1772079 33.5273972 -129.7819672
-49.2066879 33.5319481 -129.8873291
-33.1755371 33.6731339 -135.0966492
-32.2615013 33.6748466 -135.6074677
-31.3050079 33.6944733 -136.1970062
-30.3610058 33.7109833 -136.8190308
-29.4276199 33.7239075 -137.4502106
-28.5055084 33.7311401 -138.1081390
-23.7872410 33.8353424 -142.1941833
-22.8558502 33.8557777 -143.1558228
-21.9246769 33.8881950 -144.1836853
-20.9837341 33.9152756 -145.2917480
-20.0507908 33.9401665 -146.4676819
-19.1195126 33.9723740 -147.7358093
-18.1667690 34.0030937 -149.1641541
-17.2022095 34.0519028 -150.7640076
-16.3012886 34.0723114 -152.3567963
-15.3603268 34.1208572 -154.2161865
-14.3827667 34.1879196 -156.3099823
-87.5671768 32.8270378 -144.5678558
-86.4915009 32.8040123 -143.3413391
-85.4150314 32.7741165 -142.1889038
-84.4177094 32.7636871 -141.2056732
-83.3745117 32.7412224 -140.2234344
-82.3421097 32.7285576 -139.3252411
-71.2961960 32.5877075 -132.5187073
-70.3222885 32.5792122 -132.0989532
-65.4121552 32.5511208 -130.4713745
-64.4776917 32.5569992 -130.2281494
-50.1354103 32.5373497 -129.2039185
-49.1714401 32.5520706 -129.3009338
-29.4082031 32.7401276 -136.7438049
-28.4824791 32.7605896 -137.4141693
-25.6604500 32.8207397 -139.6625366
-24.7393456 32.8131790 -140.4503479
-23.7541962 32.8557129 -141.3955078
-22.8418026 32.8703728 -142.3073425
-20.0371685 32.9467010 -145.5314331
-19.0818958 32.9798470 -146.7905884
-18.1402340 33.0030327 -148.1320953
-17.1885757 33.0411911 -149.6082916
-16.2598572 33.0805588 -151.1808624
-15.3522415 33.1077118 -152.8797760
-14.3780346 33.1624908 -154.9004059
-89.6511078 31.8917694 -146.3310852
-88.5316010 31.8526917 -144.8672028
-87.4953156 31.8330631 -143.6401520
-86.4264832 31.8119469 -142.4592438
-85.3528900 31.7805367 -141.3360138
-84.3568344 31.7706280 -140.3767853
-83.2934723 31.7401543 -139.3956909
-82.2485046 31.7256222 -138.5095978
-71.2507553 31.6109200 -131.8999329
-70.2814713 31.6056328 -131.5083313
-65.3827667 31.5719833 -129.9011230
-64.4361877 31.5764427 -129.6736450
-50.1120644 31.5756989 -128.6479950
-49.1484718 31.5743999 -128.7444458
-29.3967705 31.7647839 -136.1009979
-28.4662724 31.7821331 -136.7570801
-25.6435280 31.8332138 -138.9492188
-24.6903763 31.8524647 -139.7822571
-23.7639847 31.8574047 -140.6260681
-22.8116646 31.8967552 -141.5709839
-20.0079498 31.9552212 -144.6901855
-19.0705452 31.9798241 -145.8853455
-18.1165619 32.0124741 -147.1854706
-17.1568604 32.0392647 -148.5868683
-16.2419949 32.0744286 -150.0699921
-15.3294973 32.1010437 -151.7045746
-14.3512115 32.1528320 -153.6340790
-89.5586472 30.8815346 -145.3218842
-88.4701233 30.8595295 -143.9639282
-87.4144745 30.8355103 -142.7511292
-86.3700562 30.8168144 -141.6280212
-85.3045959 30.7970219 -140.5559845
-84.2985992 30.7861481 -139.6124573
-53.8713684 30.5907574 -127.9625473
-52.9091949 30.5918808 -127.9825211
-40.6477661 30.6514835 -130.0633240
-39.6915588 30.6745052 -130.3991699
-31.2366905 30.7614517 -134.2929993
-30.2887001 30.7804909 -134.8932037
-27.4934101 30.8125515 -136.8055420
-26.5500813 30.8402901 -137.5502625
-23.7274551 30.8836479 -139.9495544
-22.7929249 30.9050407 -140.8524933
-21.8741150 30.9243393 -141.7863464
-20.9230633 30.9536171 -142.8285065
-19.9742889 30.9780407 -143.9317474
-19.0452843 31.0045776 -145.0778656
-18.0916252 31.0178242 -146.3097534
-17.1420765 31.0471516 -147.6558380
-16.2085323 31.0834999 -149.1136780
-15.2967262 31.1120300 -150.6745148
-14.3491278 31.1449986 -152.4509125
-13.4012613 31.1888809 -154.3873596
-12.4323444 31.2471581 -156.7312317
-90.5485001 29.9084435 -145.7904968
-89.4514236 29.8801651 -144.3576050
-88.4086838 29.8629570 -143.1069489
-87.3355026 29.8376999 -141.9130859
-86.2683868 29.8158760 -140.7992859
-85.2416611 29.8049698 -139.7987061
-84.2057495 29.7837391 -138.8491516
-53.8521500 29.6358376 -127.4989166
-52.8862038 29.6351814 -127.5025558
-40.6163254 29.6923370 -129.5870361
-39.6715927 29.6953735 -129.8974457
-31.2282410 29.7930374 -133.7334290
-30.2779198 29.8002892 -134.3130646
-27.4773712 29.8407154 -136.2215118
-26.5243683 29.8580379 -136.9485626
-23.7078152 29.9144554 -139.3022766
-22.7846222 29.9261780 -140.1645508
-21.8631477 29.9422703 -141.0813293
-20.9182167 29.9516373 -142.0760803
-19.9720058 29.9801521 -143.1467743
-19.0259953 30.0141640 -144.2877808
-18.0850430 30.0289402 -145.4767609
-17.1181259 30.0643120 -146.8183746
-16.2011261 30.0825329 -148.1835632
-15.2734375 30.1114407 -149.6996155
-14.3116312 30.1530056 -151.4176941
-13.3934774 30.1777821 -153.2142029
-12.4392300 30.2240067 -155.3816376
-90.4918060 28.9132423 -144.9248352
-89.3820267 28.8855991 -143.5192719
-88.3309937 28.8727932 -142.3106384
-87.3018417 28.8603439 -141.2048492
-86.2250366 28.8363953 -140.1003418
-61.4346275 28.6489735 -127.5844650
-60.4943542 28.6578560 -127.4356766
-53.8255768 28.6709328 -127.0265808
-52.8523254 28.6557446 -127.0276718
-51.9117317 28.6617889 -127.0691223
-50.9784164 28.6727371 -127.1412125
-50.0330200 28.6640663 -127.2028732
-49.0682068 28.6719894 -127.3042297
-42.4663277 28.7120895 -128.5503998
-41.5294800 28.7200699 -128.8099060
-33.0832634 28.7889290 -132.1741028
-32.1575661 28.7916298 -132.6529999
-19.9594116 28.9973793 -142.4440002
-19.0149021 29.0217381 -143.5462189
-18.0495815 29.0518818 -144.7541504
-17.1078033 29.0694027 -146.0100861
-16.1763668 29.1026573 -147.3588562
-15.2315159 29.1333771 -148.8386993
-14.2915583 29.1546631 -150.4264526
-13.3675308 29.1853848 -152.1783447
-12.4429874 29.2152596 -154.1508331
-92.5922699 27.9710541 -147.0616150
-91.4990158 27.9401817 -145.5261841
-90.4131317 27.9196491 -144.0929871
-89.3505936 27.9039764 -142.8023224
-88.2612076 27.8770599 -141.5724945
-87.2308655 27.8615742 -140.4874268
-86.1613922 27.8475056 -139.4167786
-61.4086227 27.6839771 -127.1367798
-60.4635468 27.6874962 -127.0044327
-53.8018951 27.7063026 -126.5774002
-52.8383179 27.6971684 -126.6057129
-51.8964539 27.7031841 -126.6587601
-50.9486618 27.7054329 -126.7058563
-50.0058174 27.7037792 -126.7705688
-49.0445786 27.7123642 -126.8911133
-42.4278984 27.7379742 -128.0957794
-41.5168495 27.7352772 -128.3312531
-33.0617714 27.8307419 -131.7037659
-32.1277924 27.8430653 -132.2025757
-19.9057121 28.0319405 -141.8506165
-18.9885406 28.0407276 -142.8851013
-18.0446358 28.0676422 -144.0571594
-17.0872326 28.0878448 -145.2972717
-16.1741409 28.1017952 -146.5451813
-15.2358646 28.1366196 -147.9658203
-14.2711782 28.1748600 -149.5679474
-13.3443756 28.2000198 -151.2406006
-12.4032812 28.2294044 -153.1616211
-11.4311380 28.2789574 -155.3616486
-91.4069290 26.9455948 -144.6881409
-90.3237762 26.9228096 -143.3022919
-53.7711792 26.7275963 -126.1729889
-52.8131638 26.7468452 -126.2263565
-42.4217796 26.7732735 -127.6736374
-41.4914055 26.7934036 -127.9343643
-40.5487099 26.7974148 -128.2143402
-39.6002846 26.8045712 -128.5191650
-33.0276413 26.8601189 -131.2637939
-32.1115761 26.8652267 -131.7366180
-25.5599213 26.9494781 -136.0289917
-24.5997429 26.9693909 -136.7981567
-19.9187222 27.0369606 -141.1947632
-18.9752464 27.0619431 -142.2667389
-18.0145798 27.0869350 -143.4360199
-17.0696793 27.1107998 -144.6235962
-16.1512966 27.1292286 -145.8534241
-15.2293596 27.1412506 -147.1897278
-14.2607145 27.1727428 -148.7250671
-13.3271675 27.1953411 -150.3200226
-12.3845387 27.2266216 -152.1623077
-11.4298544 27.2660275 -154.2620697
-92.4231491 25.9746056 -145.3788147
-91.3698883 25.9586906 -143.9845276
-90.3007736 25.9419670 -142.6513519
-53.7485237 25.7651787 -125.7944946
-52.7758293 25.7605381 -125.8096848
-42.4150238 25.8164482 -127.2857590
-41.4727478 25.8281193 -127.5346832
-40.5401955 25.8148422 -127.7892532
-39.5913696 25.8329411 -128.1152344
-33.0128937 25.8954945 -130.8328552
-32.0945015 25.8955688 -131.2955322
-25.5333748 25.9793186 -135.5579681
-24.5946941 25.9894676 -136.2882385
-19.8933411 26.0683746 -140.6509399
-18.9745293 26.0816135 -141.6675415
-18.0078716 26.1055717 -142.8013763
-17.0863075 26.1181011 -143.9314728
-16.1444092 26.1466064 -145.1802368
-15.1891499 26.1772099 -146.5436096
-14.2503920 26.1892776 -147.9721680
-13.2950373 26.2190037 -149.5668640
-12.3610506 26.2462082 -151.3423767
-11.4101400 26.2743950 -153.3457336
-10.4532032 26.3150311 -155.5313721
-92.3693542 24.9830379 -144.6765137
-59.4265022 24.8013458 -125.6965027
-58.4537048 24.7952709 -125.5981216
-42.3942604 24.8562241 -126.9038849
-41.4603271 24.8540802 -127.1405258
-40.5106735 24.8686447 -127.4372406
-39.5575409 24.8836308 -127.7686081
-31.1369457 24.9479904 -131.4159393
-30.1966858 24.9535522 -131.9514313
-21.7611923 25.0610886 -138.2599792
-20.8146248 25.0775719 -139.1676025
-18.0073395 25.1261044 -142.2015076
