15.3891869 -87.0673981 107.0461121
16.2067757 -87.1002579 106.7737274
18.4323082 -87.1172180 106.2638626
19.1361084 -87.1184540 106.1304474
24.4516201 -87.2867355 104.0809784
25.2148495 -87.3128662 103.7246552
40.0593185 -88.6530228 91.2453995
40.8606339 -88.7836075 90.1211166
41.7117348 -88.9427414 88.7816467
42.5756187 -89.1298981 87.2823639
-24.9225426 -90.7492371 90.9971695
-24.0903893 -90.5754547 92.0808411
-23.2995071 -90.4312668 93.0612793
-7.1263428 -88.5720291 104.6491547
-6.4512925 -88.5391998 104.8542175
-5.7088861 -88.4845810 105.1148453
-4.8921494 -88.4257355 105.4244995
-2.5399616 -88.2882004 106.1929016
-1.8712549 -88.2597504 106.2712555
10.9439831 -87.8792648 107.1736984
11.7440701 -87.8844452 107.0325165
12.5040569 -87.8930969 106.9122086
13.1812086 -87.8627014 106.8906860
13.8592033 -87.8489380 106.8743896
14.5919037 -87.8506012 106.7746429
15.4079056 -87.8635025 106.5605774
16.2192917 -87.8859558 106.3076401
17.0112038 -87.8985519 106.0796051
17.7535152 -87.9100189 105.9069672
18.4485321 -87.9044876 105.7869110
19.1464806 -87.9093781 105.6410675
24.4568920 -88.0694733 103.5868454
25.2249985 -88.1064377 103.2041931
40.0860786 -89.5012970 90.3563614
40.8972778 -89.6477432 89.1402359
41.7546234 -89.8190460 87.7160797
42.6307373 -90.0188141 86.1382980
-23.3229027 -91.2865295 92.1814423
-22.5368118 -91.1453781 93.1389694
-21.7680092 -91.0171204 94.0093536
-20.9946213 -90.8950882 94.8314285
-20.1791782 -90.7653351 95.6616974
-5.7046275 -89.2841721 104.5920944
-4.9093137 -89.2356720 104.8793182
-4.0744152 -89.1668549 105.2058945
-3.2739911 -89.1105804 105.4896698
-2.5328856 -89.0652313 105.6760864
-1.8590013 -89.0485229 105.7738495
18.4624138 -88.7028198 105.2800980
19.1639290 -88.7023010 105.1309814
35.3128281 -89.6809692 95.2760696
36.1548729 -89.7985764 94.3682251
38.5769577 -90.1312408 91.4673920
39.3581238 -90.2579117 90.4304886
40.1470718 -90.3947830 89.2965088
40.9542809 -90.5466995 88.0193481
41.8154030 -90.7226410 86.5338211
-24.1810074 -92.3516541 90.1116867
-23.3591022 -92.1711426 91.2094955
-22.5704060 -92.0174637 92.2056885
-21.7872581 -91.8737259 93.1355896
-21.0048904 -91.7442703 94.0077286
-20.1991138 -91.6134338 94.8618011
-5.7147064 -90.0891495 104.0359497
-4.8979611 -90.0263138 104.3500671
-4.0832582 -89.9715729 104.6650391
-3.2911725 -89.9220505 104.9316711
-2.5493333 -89.8788147 105.1166992
-1.8587401 -89.8456268 105.2443161
18.4667130 -89.4957504 104.7610550
19.1772213 -89.5096054 104.5881729
35.3519287 -90.5373764 94.4585953
36.1654358 -90.6365433 93.5674133
38.6165848 -90.9968185 90.5102844
39.4084396 -91.1275787 89.4007950
40.1831398 -91.2701797 88.2287521
40.9810295 -91.4275055 86.9059906
-21.8339520 -92.7554779 92.1672821
-21.0334358 -92.6113815 93.0961761
-20.2258453 -92.4745102 93.9922791
-19.4281883 -92.3446960 94.8180618
-18.6524487 -92.2356949 95.5582809
35.3796082 -91.3810349 93.6275635
36.2026596 -91.4877625 92.6956863
37.0286064 -91.6031418 91.6853333
37.8590469 -91.7466736 90.5798874
38.6545486 -91.8775406 89.4731598
39.4516144 -92.0214386 88.2833786
40.2372437 -92.1709824 87.0280457
41.0499115 -92.3498535 85.5887604
-21.0512161 -93.4842758 92.1263123
-20.2385769 -93.3418274 93.0719299
-19.4560814 -93.2122803 93.9188309
-18.6750488 -93.0892487 94.7054596
35.4224854 -92.2421417 92.7137146
36.2488327 -92.3632965 91.7246246
37.0666199 -92.4853210 90.6731415
37.8775520 -92.6147614 89.5592041
38.7147980 -92.7795639 88.2983856
39.5124855 -92.9310532 87.0316467
40.3019943 -93.1017380 85.6790009
-21.0807838 -94.3784332 91.0797653
-20.2670708 -94.2193451 92.0704651
-19.4854164 -94.0855560 92.9552689
-18.7043648 -93.9578705 93.7800446
35.4648552 -93.1132507 91.7240067
36.2947769 -93.2445221 90.6718063
37.1261063 -93.3857117 89.5346069
37.9361725 -93.5283356 88.3482437
38.7465744 -93.6792068 87.0719376
39.5630188 -93.8606415 85.6749039
-21.1319466 -95.2973022 89.9356384
-20.3031712 -95.1205750 90.9694366
-19.5066261 -94.9735718 91.9143829
-18.7222919 -94.8359528 92.7903519
35.5079460 -94.0015717 90.6461182
36.3362083 -94.1370544 89.5454102
37.1590271 -94.2822342 88.3568726
37.9888687 -94.4482346 87.0364838
38.8100128 -94.6219940 85.6340027
-20.3298855 -96.0397034 89.8119202
-19.5291080 -95.8729858 90.7966614
-18.7485619 -95.7299576 91.7068253
-17.9650517 -95.5977325 92.5651703
-17.1970100 -95.4779968 93.3443146
30.8158836 -94.2932587 94.6138763
31.6332169 -94.3854218 93.8383179
32.4310608 -94.4685059 93.0552826
33.2225113 -94.5654984 92.2275848
34.0119171 -94.6824646 91.3455124
34.7655182 -94.7820129 90.4760666
35.5514641 -94.8999329 89.4796448
36.3856087 -95.0470810 88.3037109
37.2117081 -95.2015686 87.0238190
38.0525208 -95.4024353 85.5538483
-19.5752869 -96.8040924 89.5583572
-18.7819996 -96.6445465 90.5286865
-17.9919167 -96.4978333 91.4552536
-17.2116871 -96.3604736 92.3054886
30.8335838 -95.1452789 93.6897354
31.6661453 -95.2650070 92.8307343
32.4775467 -95.3602295 91.9803543
33.2684746 -95.4715195 91.0959167
34.0313873 -95.5640030 90.2345810
34.8090935 -95.6909637 89.2607422
35.5970497 -95.8218460 88.1894150
36.4262199 -95.9792328 86.9385529
37.2778740 -96.1721725 85.5092850
-18.0187683 -97.4115906 90.2439346
-17.2374096 -97.2635345 91.1430054
-16.4700584 -97.1302414 91.9691696
-15.6950169 -97.0129471 92.7395325
29.3137226 -95.8684158 94.0489655
30.0672817 -95.9490433 93.3985291
30.8747044 -96.0450592 92.6090698
31.7011566 -96.1424561 91.7498322
32.5151443 -96.2568512 90.8380661
33.3153076 -96.3746109 89.8975906
34.0871048 -96.4925995 88.9502716
34.8511581 -96.6195068 87.9312439
35.6447449 -96.7724152 86.7444687
-16.4998627 -98.0477524 90.7262726
-15.7042475 -97.9161148 91.5920258
29.3523560 -96.7647018 92.9678955
30.1000252 -96.8377457 92.2943268
30.9145622 -96.9482727 91.4516144
31.7449131 -97.0574036 90.5405579
32.5616074 -97.1721649 89.5813217
33.3502007 -97.3101883 88.5785675
34.1217575 -97.4225235 87.5795670
34.8977203 -97.5611649 86.4483261
-16.5492363 -99.0103226 89.3649445
-15.7355909 -98.8480606 90.3062973
-14.9306393 -98.7080612 91.1680145
-14.1484060 -98.5792160 91.9493561
-13.3747082 -98.4661636 92.6501999
-12.6026793 -98.3514023 93.3142242
23.2253265 -97.1499176 96.3715286
23.9545593 -97.1859283 95.9863968
29.3867073 -97.6709747 91.8177185
30.1486111 -97.7593994 91.0735626
30.9589348 -97.8594513 90.2050858
31.7843285 -97.9882736 89.2189789
32.5923691 -98.1095123 88.2067490
33.3894653 -98.2476425 87.1271973
34.1669731 -98.3892441 85.9899139
34.9723282 -98.5789108 84.6621323
-14.9556561 -99.6378021 89.8523331
-14.1810637 -99.5100708 90.6550598
-13.4024372 -99.3860931 91.4145050
-12.6373835 -99.2745056 92.1089249
23.2352448 -98.0224304 95.3997498
23.9794693 -98.0701675 94.9670258
29.4149342 -98.5738525 90.6055756
30.1856613 -98.6807861 89.7810822
31.0016251 -98.8045044 88.8193588
31.8282013 -98.9423218 87.7546616
32.6369591 -99.0749207 86.6473465
33.4436302 -99.2309189 85.4359589
-14.9962711 -100.6185913 88.3783112
-14.2052584 -100.4583282 89.2615814
-13.4093723 -100.3125610 90.1034470
-12.6619215 -100.2101593 90.8149719
-11.8858471 -100.0846329 91.5373077
-11.1157312 -99.9689407 92.1922760
26.3486671 -99.1721725 92.1369629
27.1489983 -99.2341614 91.4670105
27.9428558 -99.3465576 90.7021713
28.7061062 -99.4289169 89.9810333
29.4607201 -99.5163956 89.2171478
30.2377529 -99.6307983 88.3249283
31.0475311 -99.7561569 87.3108826
31.8805027 -99.9138489 86.1243057
32.7035866 -100.0915909 84.8420563
-14.2676678 -101.4602966 87.6922836
-13.4565973 -101.2755814 88.6142273
-12.6719160 -101.1467743 89.4476624
-11.9036236 -101.0215302 90.1903229
-11.1440239 -100.9098511 90.8637772
26.3843212 -100.0883484 90.8612518
27.1892242 -100.1792297 90.1094971
27.9713802 -100.2787247 89.3284378
28.7605972 -100.3844452 88.5027695
29.5203495 -100.4934616 87.6389313
30.2801628 -100.6142426 86.6880875
31.0916080 -100.7459564 85.5833893
-11.1569653 -101.8594131 89.4149933
-10.3595438 -101.7341766 90.1507950
-9.5809317 -101.6274261 90.7986984
-8.8043900 -101.5246353 91.4091492
-8.0275068 -101.4160385 91.9929962
24.8075142 -100.8729858 90.8348083
25.5976467 -100.9408035 90.1990738
26.4124908 -101.0411148 89.4358215
27.2159004 -101.1417313 88.6238861
28.0064030 -101.2460861 87.7776031
28.7834530 -101.3560562 86.8795471
29.5540619 -101.4849625 85.8953705
30.3325863 -101.6318207 84.8045349
-11.1863642 -102.8640823 87.7798767
-10.3839235 -102.7158890 88.6050186
-9.6056576 -102.5890350 89.3166504
-8.8309002 -102.4732895 89.9841766
-8.0468483 -102.3630524 90.6093292
24.8511276 -101.8189163 89.3904572
25.6479912 -101.9112778 88.6587982
26.4496765 -102.0089645 87.8530121
27.2592773 -102.1332169 86.9364929
28.0531445 -102.2585907 85.9678879
28.8227863 -102.3828201 84.9692917
-9.6143637 -103.5777893 87.6977310
-8.8477974 -103.4564514 88.3805389
-8.0707760 -103.3378906 89.0473480
-7.3021069 -103.2396164 89.6431427
-6.5405216 -103.1365356 90.2148361
-5.7716684 -103.0413132 90.7372131
-4.9857974 -102.9572983 91.2129135
21.8118687 -102.5074692 90.2403641
22.5916290 -102.5735321 89.6757965
23.3687057 -102.6463547 89.0725555
24.1357002 -102.7140427 88.4511642
24.8998432 -102.8136673 87.7276077
25.6898880 -102.9156418 86.9151459
26.5082207 -103.0347519 85.9853363
27.2915497 -103.1466370 85.0361481
28.0914059 -103.3119202 83.9048309
-8.8931494 -104.5096588 86.5396805
-8.0945492 -104.3486099 87.2999191
-7.3151140 -104.2333908 87.9749756
-6.5528569 -104.1218185 88.6095581
-5.7893834 -104.0246277 89.1568756
-4.9944067 -103.9219284 89.7015076
21.8520470 -103.4778595 88.6661682
22.6356258 -103.5629654 88.0274353
23.4127502 -103.6485443 87.3501282
24.1851864 -103.7396927 86.6228333
24.9460564 -103.8237305 85.8562851
25.7378883 -103.9513855 84.9293289
26.5511856 -104.1076279 83.8740463
-5.8092003 -105.0381775 87.3502655
-5.0193758 -104.9264145 87.9615555
-4.2440476 -104.8320236 88.5001068
-3.4711213 -104.7407532 88.9911804
-2.6956024 -104.6594772 89.4368134
-1.9326150 -104.5799942 89.8438187
18.7622948 -104.2292175 89.0779037
19.5266171 -104.2898483 88.6024017
20.2922249 -104.3510971 88.0867920
21.0841312 -104.4183731 87.5038376
21.8826847 -104.4857025 86.8618317
22.6614361 -104.5773010 86.1407089
23.4363155 -104.6600723 85.4122238
24.2159061 -104.7916412 84.5428772
-5.8312402 -106.1206818 85.2915039
-5.0417814 -105.9857025 85.9843903
-4.2582064 -105.8654938 86.5957336
-3.4877844 -105.7619476 87.1461716
-2.7152975 -105.6748047 87.6470947
-1.9544811 -105.5967789 88.0891647
18.7892742 -105.2522202 87.2675552
19.5571480 -105.3057098 86.7582779
20.3298302 -105.3721771 86.1806793
23.4825020 -105.7996216 83.0127258
-4.2927456 -106.9967804 84.3632660
-3.5162592 -106.8498840 85.0065384
-2.7465248 -106.7390137 85.5784607
-1.9664166 -106.6401901 86.0879745
-1.1976315 -106.5643616 86.5310059
-0.4237671 -106.4766693 86.9555054
0.3650618 -106.3990173 87.3318787
1.1477342 -106.3268585 87.6691589
1.8986574 -106.2838669 87.9071732
2.6688969 -106.2257919 88.1519623
11.1079731 -105.9729156 88.5664673
11.8768463 -105.9720917 88.4231720
12.6509666 -105.9891434 88.2256470
13.4179373 -106.0081635 87.9947357
14.1702309 -106.0331268 87.7241821
14.9345016 -106.0530396 87.4337387
15.7227345 -106.0904770 87.0755005
16.5116119 -106.1479263 86.6423264
17.2800751 -106.1895905 86.2178574
18.0544395 -106.2346191 85.7380829
18.8321571 -106.3038635 85.1662598
19.5958366 -106.3955536 84.5225449
20.3746147 -106.4730072 83.8592377
-0.4294654 -107.5546646 84.7249756
0.3479025 -107.4771957 85.1522827
1.1144994 -107.3938675 85.5437469
1.8792759 -107.3270111 85.8579712
2.6546328 -107.2826233 86.1064529
11.1291256 -107.0231552 86.5887146
11.9001865 -107.0368118 86.3980560
12.6622152 -107.0381622 86.2098846
13.4286394 -107.0692825 85.9222565
14.1956530 -107.0994034 85.6030807
14.9609032 -107.1353073 85.2509308
15.7387600 -107.1691818 84.8721390
16.5307961 -107.2454758 84.4205856
18.8657379 -107.4607391 82.5652771
1.8677781 -108.5005493 83.3332367
2.6640038 -108.4002304 83.6971664
3.4157090 -108.3470383 83.9383469
4.1890912 -108.2750549 84.2052765
4.9568233 -108.2397461 84.3652573
5.7358880 -108.1991119 84.5092010
6.5057387 -108.1679688 84.6005783
7.2793255 -108.1320953 84.6807709
8.0506487 -108.1183014 84.6845398
8.8090992 -108.1106873 84.6423340
9.5696602 -108.1065826 84.5561218
10.3559427 -108.0986633 84.4447556
11.1367569 -108.1180267 84.2463074
11.9095507 -108.1328583 84.0314560
12.6735725 -108.1570587 83.7655182
13.4567757 -108.1907272 83.4350357
14.2175655 -108.2376251 83.0662994
14.9860125 -108.2826843 82.6645966
15.7646942 -108.3590088 82.1295013
4.1648951 -109.5514221 81.1475067
4.9523792 -109.4872513 81.3927307
5.7428155 -109.4263306 81.5789719
6.5012250 -109.3717194 81.6913986
7.2719998 -109.3636780 81.7555695
8.0462532 -109.3535690 81.7761993
8.8264980 -109.3356476 81.7403412
10.3734560 -109.3262939 81.4363632
11.1592665 -109.3496475 81.2700729
11.9213839 -109.3942795 81.0035400
-52.5892792 84.3586578 -135.4329224
-50.6657486 84.3306427 -135.2413177
-48.7529182 84.3212814 -135.2522430
-44.9546814 84.3464508 -135.8214722
-58.1904755 82.2764206 -132.9394684
-52.3824654 82.1393356 -131.5516663
-50.4748688 82.1338501 -131.4630737
-48.5580292 82.1201324 -131.4776154
-46.6645737 82.1236801 -131.6574402
-44.7797737 82.1476288 -132.0067291
-42.8738556 82.1706238 -132.4747009
-41.0101852 82.2030640 -133.1106873
-39.1336327 82.2613831 -133.9528503
-61.9023399 80.2369614 -131.1327820
-57.9907417 80.1065292 -129.5781403
-56.0541306 80.0744171 -129.0831757
-54.1416512 80.0366516 -128.7200470
-52.2189102 80.0069809 -128.4666748
-50.3180313 79.9927979 -128.3800659
-48.4214439 79.9835815 -128.4115601
-46.5177040 79.9907227 -128.5986938
-44.6373482 80.0047913 -128.8994751
-42.7401428 80.0263519 -129.3182983
-40.8764725 80.0603790 -129.9047546
-38.9974136 80.0927277 -130.6113129
-63.6808662 78.1803131 -129.0761414
-59.7614861 78.0507507 -127.4145889
-57.8340340 77.9987259 -126.8198090
-55.9077187 77.9634857 -126.3797913
-53.9987450 77.9334106 -126.0512009
-52.0831299 77.9119568 -125.8448639
-50.1872902 77.8965607 -125.7642288
-48.2885666 77.8995590 -125.8355408
-46.3997765 77.8991241 -125.9969330
-44.5203705 77.9054565 -126.2539368
-42.6243362 77.9203033 -126.6274796
-40.7562103 77.9540710 -127.1759262
-38.8757286 77.9948578 -127.8546753
-35.1383934 78.0957947 -129.5976868
-65.4587479 76.1555862 -127.4226990
-63.5170441 76.0795822 -126.4504242
-61.5515556 76.0252075 -125.6446228
-59.6290588 75.9734421 -124.9989319
-57.7053070 75.9333572 -124.4752808
-55.7783928 75.8971710 -124.0637970
-53.8761597 75.8678970 -123.7590179
-51.9614067 75.8545761 -123.5962524
-46.2907333 75.8326416 -123.7273865
-44.4161148 75.8522034 -124.0139313
-42.5267944 75.8621063 -124.3533173
-40.6526833 75.8908539 -124.8612366
-38.7801132 75.9183655 -125.4636078
-36.9049797 75.9658966 -126.2178116
-69.2589874 74.2463226 -127.3457718
-67.2851639 74.1602097 -126.1296997
-63.3787346 74.0230103 -124.2187576
-61.4263458 73.9692383 -123.4810486
-59.4954453 73.9210281 -122.8748627
-55.6682739 73.8526306 -122.0183258
-53.7700653 73.8351593 -121.7582855
-51.8588867 73.8141403 -121.6065369
-49.9781418 73.8050995 -121.5620422
-48.0867004 73.7998199 -121.5988770
-46.1889572 73.8020782 -121.7538223
-44.3287964 73.8186493 -122.0214996
-40.5661621 73.8476028 -122.8125000
-38.6959229 73.8841019 -123.3925781
-36.8196373 73.9189835 -124.0838165
-34.9670792 73.9611053 -124.8937531
-71.0946960 72.2778168 -126.4251862
-69.1100616 72.1854630 -125.1256332
-65.1783524 72.0457306 -123.0623932
-63.2470284 71.9913483 -122.2627640
-61.3080139 71.9439392 -121.5870285
-59.3807907 71.9028549 -121.0201797
-57.4714966 71.8632050 -120.5534668
-55.5686798 71.8478394 -120.2505035
-53.6646805 71.8104553 -119.9703979
-51.7652435 71.7988663 -119.8261414
-49.8856468 71.7920151 -119.7886658
-47.9943504 71.7853699 -119.8454437
-46.1085167 71.7931137 -120.0035019
-44.2374535 71.8000183 -120.2383499
-42.3570786 71.8143768 -120.5667801
-40.4921799 71.8290787 -120.9878693
-38.6223869 71.8622360 -121.5627899
-36.7466850 71.8969650 -122.2250671
-34.8978462 71.9393768 -123.0124512
-33.0265388 71.9881134 -123.9041901
-72.9402618 70.3212738 -125.7391586
-70.9483948 70.2318115 -124.3727112
-68.9676437 70.1559525 -123.1780853
-67.0210342 70.0912018 -122.1612549
-65.0527802 70.0279770 -121.2707825
-63.1314964 69.9767609 -120.5102615
-61.2037849 69.9397430 -119.8973770
-55.4662590 69.8452759 -118.6330490
-53.5812683 69.8184662 -118.3893280
-51.6809540 69.8079376 -118.2659607
-49.7952652 69.7903137 -118.2160950
-47.9169044 69.8012390 -118.3012238
-46.0311012 69.7964401 -118.4261703
-44.1654358 69.8058319 -118.6700745
-42.2803650 69.8161011 -118.9934692
-38.5481949 69.8663330 -119.9516754
-36.6845589 69.8923798 -120.5593796
-34.8252335 69.9365768 -121.3166809
-32.9578590 69.9820786 -122.1689758
-29.2332058 70.0888062 -124.2120209
-27.3859501 70.1579437 -125.4658813
-76.8275909 68.4904709 -127.0175323
-72.8004913 68.2931595 -123.8598022
-70.8151321 68.2179413 -122.5966110
-68.8522797 68.1449738 -121.4784164
-66.9014435 68.0837021 -120.5211868
-64.9578094 68.0300903 -119.6885071
-63.0343933 67.9859924 -118.9698181
-61.1019669 67.9351501 -118.3649445
-57.2876129 67.8809433 -117.4857788
-55.3879089 67.8509979 -117.1743698
-53.4941025 67.8369675 -116.9760742
-51.5921707 67.8258667 -116.8544235
-49.7187119 67.8220367 -116.8278580
-47.8522758 67.8170624 -116.8868866
-45.9572868 67.8224792 -117.0236969
-44.0999107 67.8260956 -117.2723694
-40.3596497 67.8593521 -117.9856873
-38.4885445 67.8867950 -118.5015717
-36.6250687 67.9066925 -119.0768280
-34.7764816 67.9453125 -119.7869568
-32.8988686 67.9884338 -120.6065521
-31.0488663 68.0283203 -121.4987488
-29.1799698 68.0981293 -122.5923386
-27.3265171 68.1547775 -123.7862396
-23.5978813 68.3044815 -126.5817871
-74.6683807 66.3730469 -123.5948334
-72.6855164 66.2915802 -122.2358093
-68.7529755 66.1545944 -119.9922333
-66.8047791 66.0923080 -119.0735703
-62.9465523 66.0015564 -117.6132050
-61.0119247 65.9666214 -117.0210648
-59.1097221 65.9372711 -116.5628052
-57.2164993 65.9095230 -116.1890488
-55.3130989 65.8898697 -115.9064484
-53.4242439 65.8707962 -115.7015381
-51.5249252 65.8543701 -115.5816345
-49.6569214 65.8574677 -115.5775681
-47.7775841 65.8488159 -115.6242065
-45.8937225 65.8501892 -115.7593842
-44.0352402 65.8623581 -115.9912338
-40.2968063 65.8875961 -116.6904144
-38.4350357 65.9171143 -117.1947327
-34.7132263 65.9727402 -118.4399719
-32.8499603 66.0062866 -119.2164764
-30.9952240 66.0578156 -120.1131134
-27.2764664 66.1674194 -122.2748032
-25.4215927 66.2325592 -123.5277252
-21.7165051 66.3938217 -126.5765533
-80.6311874 64.6665039 -127.1850281
-76.5637970 64.4596024 -123.5637283
-74.5586548 64.3756790 -122.0886383
-70.6183701 64.2377930 -119.6716232
-68.6549988 64.1733780 -118.6646881
-66.7199402 64.1259613 -117.7972717
-62.8616982 64.0392075 -116.3904953
-60.9439774 64.0042496 -115.8359070
-59.0339890 63.9683456 -115.3760605
-57.1462364 63.9535446 -115.0318298
-55.2407837 63.9263611 -114.7497864
-53.3585510 63.9156837 -114.5574036
-51.4584160 63.9037704 -114.4485703
-49.5925827 63.8967400 -114.4263840
-47.7118034 63.8983765 -114.4914017
-43.9769783 63.9048615 -114.8567276
-40.2466431 63.9352798 -115.5479431
-38.3768044 63.9560776 -116.0274506
-36.5126457 63.9808197 -116.5906677
-34.6623764 64.0143967 -117.2470245
-32.8002930 64.0525284 -118.0311890
-30.9520721 64.0945435 -118.8715973
-29.0844078 64.1462173 -119.8492508
-27.2334061 64.1997452 -120.9483795
-25.3826561 64.2570190 -122.1479797
-23.5100136 64.3223801 -123.5066223
-21.6763916 64.3978958 -125.0263901
-80.4940796 62.6605072 -125.5600281
-78.4488602 62.5572586 -123.7263489
-76.4565887 62.4725647 -122.1540527
-74.4550323 62.3953743 -120.7422409
-72.4847717 62.3262863 -119.5115662
-70.5105133 62.2638168 -118.4410172
-68.5711212 62.2154884 -117.4985046
-64.6929550 62.1185303 -115.8969879
-62.7922363 62.0833054 -115.2853546
-60.8766861 62.0480957 -114.7509460
-58.9672241 62.0262604 -114.3233414
-57.0743103 62.0000687 -113.9846649
-55.1853218 61.9879532 -113.7165833
-53.2919693 61.9693298 -113.5205307
-51.3977661 61.9637833 -113.4340973
-49.5316772 61.9513397 -113.3915100
-47.6573067 61.9554405 -113.4556580
-43.9268570 61.9664879 -113.8391037
-42.0505295 61.9711342 -114.1217194
-40.1973953 61.9920082 -114.5074921
-38.3316460 62.0150375 -114.9981232
-36.4695702 62.0394745 -115.5410461
-34.6262474 62.0630493 -116.1814117
-32.7487411 62.1025085 -116.9273529
-30.9062309 62.1388779 -117.7312927
-27.1968307 62.2318573 -119.7373047
-25.3455582 62.2919807 -120.9116516
-23.4701996 62.3574638 -122.2422867
-21.6324615 62.4278564 -123.7024612
-16.0562744 62.7041092 -129.2580109
-82.4401398 60.7725182 -126.1318283
-78.3578415 60.5816574 -122.4380493
-76.3704758 60.5015602 -120.9272919
-74.3508072 60.4244347 -119.5567551
-72.4027710 60.3622169 -118.3942337
-70.4411469 60.3072891 -117.3553848
-68.4994049 60.2556458 -116.4287949
-66.5627899 60.2124519 -115.6208038
-64.6278839 60.1742134 -114.9246063
-62.7268486 60.1405716 -114.3211594
-60.8058968 60.1078186 -113.7972260
-58.9029999 60.0856476 -113.3831253
-57.0133896 60.0617256 -113.0446777
-55.1207733 60.0463448 -112.7818909
-53.2417679 60.0307083 -112.6058960
-47.6079712 60.0198975 -112.5785980
-42.0083008 60.0418663 -113.2213593
-40.1539307 60.0556030 -113.5918655
-36.4314270 60.0974350 -114.5900574
-30.8714409 60.1946449 -116.7528381
-29.0131721 60.2426262 -117.6817245
-27.1534233 60.2867661 -118.6905365
-25.3052483 60.3393631 -119.8274994
-19.7323418 60.5461197 -124.1151428
-17.8695011 60.6275139 -125.8788147
-80.2894287 58.6963158 -122.9416656
-78.2683105 58.6124763 -121.3018341
-76.2764130 58.5355453 -119.8385620
-74.2914124 58.4733810 -118.5578003
-72.3318481 58.4134178 -117.4160614
-70.3679504 58.3602676 -116.3867950
-68.4187775 58.3112946 -115.4838257
-66.5008316 58.2717628 -114.7138672
-64.5652313 58.2347679 -114.0305786
-62.6700516 58.2057724 -113.4676666
-60.7534409 58.1776543 -112.9650421
-58.8535042 58.1541748 -112.5491943
-56.9654770 58.1362915 -112.2296829
-55.0676041 58.1181564 -111.9787369
-53.1938400 58.1051941 -111.8064957
-51.3036423 58.1011200 -111.7281265
-47.5657959 58.0952759 -111.7728348
-43.8516006 58.1056519 -112.1136322
-41.9670753 58.1169968 -112.4091797
-36.3954048 58.1677971 -113.7479095
-30.8350239 58.2644386 -115.8750992
-28.9765835 58.3044891 -116.7698517
-27.1211510 58.3496971 -117.7796173
-25.2725391 58.3989487 -118.8765564
-23.4125671 58.4561996 -120.1036377
-21.5630951 58.5161667 -121.4786148
-17.8450623 58.6697502 -124.7187271
-15.9919291 58.7565956 -126.6392670
-14.1244526 58.8563538 -128.7830505
-10.3781824 59.1129532 -134.1424408
-84.2818451 56.9174614 -125.7296906
-82.2372284 56.8176842 -123.6918869
-80.2002335 56.7319183 -121.8888397
-78.1755371 56.6500511 -120.2870865
-76.1986542 56.5862007 -118.8959961
-72.2654800 56.4730263 -116.5445251
-70.3047256 56.4216003 -115.5508423
-68.3741074 56.3785324 -114.6879349
-66.4420013 56.3383942 -113.9080811
-64.5147705 56.3060608 -113.2538681
-62.6214676 56.2781067 -112.7001572
-60.7005692 56.2523041 -112.2058563
-58.7937164 56.2277145 -111.8005676
-56.9160767 56.2145157 -111.5099411
-55.0237122 56.2002983 -111.2706985
-53.1395111 56.1892128 -111.0912933
-51.2592659 56.1801987 -111.0019531
-49.3964844 56.1781197 -110.9883652
-47.5286484 56.1775932 -111.0479889
-45.6457520 56.1763344 -111.1807709
-43.8014145 56.1899643 -111.4000244
-41.9319115 56.2008781 -111.6835556
-38.2170296 56.2279472 -112.4926605
-36.3552628 56.2485924 -113.0114594
-34.5119629 56.2805023 -113.6407700
-32.6464996 56.3022079 -114.3070450
-30.8063774 56.3387222 -115.0899048
-28.9457912 56.3757019 -115.9675980
-27.0873413 56.4198990 -116.9537354
-25.2482796 56.4643707 -118.0245895
-23.3814011 56.5168800 -119.2395325
-21.5345345 56.5806160 -120.6050415
-19.6708584 56.6473885 -122.0834656
-17.8252125 56.7153435 -123.7173233
-15.9621620 56.8034477 -125.5805511
-14.0923939 56.8956261 -127.6521225
-86.2780914 55.0513229 -126.9254608
-84.1937561 54.9468918 -124.6765747
-82.1524429 54.8589973 -122.7177200
-80.1184845 54.7773933 -120.9716110
-78.1170883 54.7103195 -119.4456024
-76.1334991 54.6451988 -118.0814514
-74.1510773 54.5865364 -116.8642273
-72.2046356 54.5380325 -115.7825699
-70.2441940 54.4904022 -114.8141174
-68.3158722 54.4507370 -113.9719086
-66.3926697 54.4163589 -113.2282562
-64.4565659 54.3798866 -112.5666580
-62.5707130 54.3578949 -112.0301056
-60.6615372 54.3351746 -111.5531387
-58.7564697 54.3121109 -111.1537476
-56.8750153 54.2959404 -110.8480148
-54.9795265 54.2838745 -110.6190643
-53.0951462 54.2729568 -110.4580994
-51.2214432 54.2671814 -110.3743362
-49.3561745 54.2651291 -110.3550720
-47.4880714 54.2649078 -110.4111481
-41.8964386 54.2836494 -111.0577393
-40.0447388 54.2970657 -111.3982162
-38.1833115 54.3187599 -111.8497925
-36.3318977 54.3336945 -112.3717651
-34.4786720 54.3606873 -112.9726563
-32.6208153 54.3873444 -113.6320496
-30.7788162 54.4202118 -114.4044876
-28.9091434 54.4575615 -115.2700500
-27.0607681 54.4975357 -116.2418518
-25.2238884 54.5421600 -117.2944717
-23.3577156 54.5923119 -118.4946747
-21.5155334 54.6479340 -119.7966385
-19.6563110 54.7108498 -121.2553940
-17.7976837 54.7827721 -122.8941498
-15.9347849 54.8592567 -124.6691437
-14.0713491 54.9421768 -126.6549225
-12.2109795 55.0409546 -128.9198303
-86.1913452 53.0873146 -125.9465485
-84.1203156 52.9923973 -123.7683258
-82.0828400 52.9092674 -121.8755569
-80.0596466 52.8351898 -120.1869202
-78.0455704 52.7676430 -118.6818542
-76.0723801 52.7076721 -117.3681335
-74.0953522 52.6585808 -116.1868591
-72.1476593 52.6110916 -115.1232910
-70.1953888 52.5674706 -114.1795349
-68.2707901 52.5316010 -113.3653488
-66.3504868 52.4979324 -112.6391068
-64.4156952 52.4679871 -111.9887695
-62.5233345 52.4438438 -111.4511414
-60.6125870 52.4192734 -110.9702530
-58.7123032 52.4018555 -110.5887222
-56.8326454 52.3895721 -110.2855835
-54.9406204 52.3739738 -110.0656815
-53.0747757 52.3692322 -109.9228058
-51.1933899 52.3659973 -109.8556595
-49.3285980 52.3611679 -109.8229141
-47.4566498 52.3615341 -109.8824463
-40.0130043 52.3939438 -110.8709869
-38.1553726 52.4127960 -111.3125763
-36.2960510 52.4331856 -111.8233795
-34.4527664 52.4541512 -112.3907394
-32.5949173 52.4788742 -113.0559921
-30.7454071 52.5088577 -113.8087463
-28.8909492 52.5429344 -114.6641388
-27.0395012 52.5817566 -115.6189270
-25.1967392 52.6233025 -116.6657715
-23.3412666 52.6723289 -117.8444061
-21.4877911 52.7262878 -119.1260376
-17.7763500 52.8485489 -122.1176910
-15.9181700 52.9192162 -123.8447189
-12.2041721 53.0906334 -127.9934235
-88.2130585 51.2309532 -127.5491791
-84.0380859 51.0412750 -122.9919662
-82.0220718 50.9670639 -121.1673355
-79.9948196 50.8983459 -119.5140533
-76.0236130 50.7837257 -116.7733994
-74.0452652 50.7326622 -115.5994873
-72.1041641 50.6900635 -114.5677795
-70.1590500 50.6517563 -113.6424408
-68.2337646 50.6184464 -112.8412323
-64.3718948 50.5583305 -111.4813080
-62.4891853 50.5361557 -110.9556351
-60.5781631 50.5155716 -110.4932098
-58.6779938 50.4965706 -110.1073151
-56.8065948 50.4852219 -109.8255005
-54.9176712 50.4740295 -109.5982208
-53.0373955 50.4651794 -109.4483032
-47.4321747 50.4603806 -109.4120178
-43.7108612 50.4718399 -109.7750702
-41.8442268 50.4787369 -110.0411987
-39.9887199 50.4945717 -110.3939590
-38.1269417 50.5074692 -110.8274689
-30.7274818 50.6022530 -113.3126373
-28.8647041 50.6371422 -114.1614532
-27.0176086 50.6736145 -115.1020508
-25.1735344 50.7135239 -116.1353302
-23.3155708 50.7587814 -117.2711029
-21.4712906 50.8088226 -118.5327072
-19.6151829 50.8612213 -119.9216309
-17.7600517 50.9240952 -121.4793625
-15.9003506 50.9920654 -123.1811905
-14.0247402 51.0695457 -125.1192627
-10.3002491 51.2518768 -129.6855469
-88.1484375 49.2777290 -126.8069458
-86.0604858 49.1846275 -124.4447861
-83.9947815 49.1045380 -122.3932953
-81.9722137 49.0339355 -120.5969086
-79.9498291 48.9695282 -118.9837875
-77.9462051 48.9123306 -117.5440674
-75.9870758 48.8634377 -116.2750320
-74.0118256 48.8180199 -115.1382523
-72.0583878 48.7739067 -114.1006012
-70.1226044 48.7403946 -113.1937408
-68.1853180 48.7068825 -112.3903809
-66.2747879 48.6788177 -111.6923828
-64.3459244 48.6532784 -111.0692215
-62.4511032 48.6304398 -110.5341034
-60.5471420 48.6144981 -110.0850677
-58.6526947 48.5979462 -109.7163544
-53.0080185 48.5681114 -109.0565796
-49.2749290 48.5645370 -108.9747162
-47.4086494 48.5626984 -109.0429688
-45.5315475 48.5687485 -109.1857605
-43.6825600 48.5753708 -109.3808517
-41.8176804 48.5882034 -109.6702881
-39.9693604 48.5958824 -110.0073471
-36.2491798 48.6310577 -110.9301071
-34.4126167 48.6520500 -111.5032501
-32.5467529 48.6783600 -112.1738129
-30.7038918 48.7033310 -112.8999023
-28.8480797 48.7360611 -113.7399902
-27.0074692 48.7679710 -114.6648407
-25.1496658 48.8091660 -115.6935959
-23.2947102 48.8498459 -116.8116302
-21.4526100 48.8972321 -118.0608978
-19.5938625 48.9513168 -119.4499893
-15.8816919 49.0717125 -122.6390991
-14.0079250 49.1435165 -124.5456619
-12.1629639 49.2221222 -126.6225204
-10.2793102 49.3143806 -128.9978180
-8.4165812 49.4165878 -131.6936646
-6.5464573 49.5379295 -134.8564148
-88.0807495 47.3296547 -126.1715698
-86.0044174 47.2450409 -123.8834763
-83.9391785 47.1703949 -121.8737030
-81.9230118 47.1059608 -120.1243896
-79.9181671 47.0477486 -118.5555267
-75.9495316 46.9469299 -115.8734283
-73.9751129 46.9046707 -114.7442322
-72.0310669 46.8660011 -113.7306747
-70.0932922 46.8339500 -112.8447571
-68.1584320 46.8023911 -112.0410385
-66.2462006 46.7777328 -111.3585587
-64.3226471 46.7549629 -110.7462311
-62.4303474 46.7337036 -110.2145386
-60.5188675 46.7157745 -109.7662125
-58.6268463 46.7016983 -109.3968430
-52.9828491 46.6742058 -108.7215729
-49.2528076 46.6690445 -108.6642075
-43.6629715 46.6859856 -109.0741119
-36.2360001 46.7370224 -110.6035461
-34.3946533 46.7578773 -111.1755295
-32.5303650 46.7809448 -111.8268356
-28.8369560 46.8381042 -113.4066162
-26.9835949 46.8717308 -114.3283081
-25.1390209 46.9077263 -115.3396301
-23.2855339 46.9485207 -116.4600830
-21.4409924 46.9928513 -117.6877365
-17.7240200 47.0976868 -120.5621490
-15.8682003 47.1572266 -122.2111206
-12.1505480 47.2972336 -126.0902176
-10.2700558 47.3834114 -128.4303741
-8.4124088 47.4777298 -131.0484467
-88.0515213 45.3922348 -125.7286453
-85.9731903 45.3138580 -123.4795380
-83.9071960 45.2440643 -121.4925919
-81.8878937 45.1824760 -119.7456284
-79.8828278 45.1292343 -118.1996918
-77.8778458 45.0796509 -116.8089828
-75.9201202 45.0366783 -115.5700378
-73.9466934 44.9967575 -114.4407196
-72.0076065 44.9624596 -113.4488678
-70.0657883 44.9315643 -112.5655212
-68.1396866 44.9026527 -111.7670593
-66.2303543 44.8797684 -111.0982361
-64.2932129 44.8575478 -110.4899292
-62.4073639 44.8388367 -109.9693527
-60.4970245 44.8237228 -109.5203400
-54.8460655 44.7933159 -108.6656723
-52.9709854 44.7874069 -108.5058289
-51.0897293 44.7839546 -108.4363251
-45.4963760 44.7903404 -108.6261292
-43.6544724 44.7985535 -108.8441010
-34.3755760 44.8677979 -110.9358826
-32.5169754 44.8919525 -111.5915222
-30.6737652 44.9151382 -112.3101501
-28.8157463 44.9446411 -113.1356812
-26.9800262 44.9765167 -114.0543976
-25.1302814 45.0107498 -115.0603485
-23.2716179 45.0483971 -116.1667786
-21.4287853 45.0906754 -117.3881378
-17.7154217 45.1898918 -120.2287979
-15.8603725 45.2463989 -121.8728867
-13.9876137 45.3101807 -123.7090378
-12.1307144 45.3812904 -125.7248459
-10.2559099 45.4605103 -128.0204010
-6.5200667 45.6542206 -133.6039886
-90.1337738 43.5440712 -127.9833221
-88.0157166 43.4598999 -125.4057617
-85.9512100 43.3877869 -123.1999054
-83.8686447 43.3220367 -121.2116623
-81.8651581 43.2663803 -119.5034866
-79.8470612 43.2147293 -117.9564514
-77.8558350 43.1704941 -116.5860138
-75.8972244 43.1305161 -115.3556824
-73.9302216 43.0937958 -114.2396545
-71.9866791 43.0610313 -113.2574081
-70.0453949 43.0328064 -112.3677979
-68.1176071 43.0058708 -111.5746918
-66.2078629 42.9842567 -110.9117813
-64.2791367 42.9645119 -110.2977371
-62.3894539 42.9484596 -109.7821960
-60.4899063 42.9343491 -109.3551102
-56.7123032 42.9122505 -108.6916046
-49.2176666 42.8987885 -108.2666550
-47.3467979 42.9009705 -108.3179474
-45.4791870 42.9056778 -108.4551697
-39.9137268 42.9349747 -109.3180542
-38.0645294 42.9477997 -109.7124481
-36.2145081 42.9636154 -110.2009811
-34.3637733 42.9819527 -110.7651978
-32.5041428 43.0042496 -111.4241638
-30.6635666 43.0273209 -112.1351471
-28.8006229 43.0544357 -112.9507294
-26.9588051 43.0852013 -113.8697662
-25.1184139 43.1180687 -114.8648605
-23.2632370 43.1544342 -115.9670334
-21.4168339 43.1947021 -117.1842651
-17.7025509 43.2873001 -119.9977341
-15.8471346 43.3409729 -121.6226883
-13.9744396 43.4015923 -123.4468460
-12.1372471 43.4658279 -125.4300766
-10.2460108 43.5429230 -127.7273560
-8.3867073 43.6259422 -130.2665710
-6.5184436 43.7232094 -133.2118073
-4.6236625 43.8409500 -136.7945557
-90.1184387 41.6105995 -127.7615891
-87.9865112 41.5312767 -125.1880722
-85.9213028 41.4649887 -123.0075150
-83.8597870 41.4052734 -121.0640411
-81.8510590 41.3535500 -119.3646240
-79.8263245 41.3056030 -117.8064651
-77.8450165 41.2645111 -116.4484940
-75.8904877 41.2272301 -115.2303391
-73.9070740 41.1932983 -114.1179810
-71.9752655 41.1639442 -113.1459351
-70.0348663 41.1368713 -112.2610168
-68.1117096 41.1140099 -111.4902954
-66.1933746 41.0932922 -110.8044891
-64.2723999 41.0750961 -110.1969223
-62.3778152 41.0595779 -109.6854324
-60.4687424 41.0465889 -109.2378387
-58.5829086 41.0361938 -108.8821793
-56.7087708 41.0278206 -108.5943832
-54.8094444 41.0211411 -108.3666534
-49.1999512 41.0164032 -108.1524582
-47.3362198 41.0190964 -108.2210236
-43.6257057 41.0313416 -108.5802994
-41.7549858 41.0413361 -108.8613892
-39.9110107 41.0521698 -109.2107086
-38.0494652 41.0651817 -109.6166687
-36.2057266 41.0806122 -110.0981750
-30.6548424 41.1422997 -112.0331039
-28.7899075 41.1688499 -112.8562775
-26.9457150 41.1968918 -113.7547684
-25.1139069 41.2279015 -114.7401657
-23.2473202 41.2636948 -115.8584442
-19.5389023 41.3430786 -118.4032898
-17.6942940 41.3897858 -119.8778152
-15.8375015 41.4401283 -121.4920120
-13.9654903 41.4962120 -123.2922363
-12.1167736 41.5587387 -125.2827225
-10.2378693 41.6297188 -127.5492630
-8.3816423 41.7081795 -130.0774841
-6.5147085 41.7984924 -132.9749298
-4.6122952 41.9088669 -136.5163116
-2.7401092 42.0431328 -140.8319092
-90.1026306 39.6814499 -127.6633301
-87.9824524 39.6087112 -125.1184845
-85.9085770 39.5461349 -122.9242859
-83.8521347 39.4914551 -121.0024033
-81.8325500 39.4427872 -119.2879257
-79.8200989 39.3994217 -117.7524872
-77.8273468 39.3607254 -116.3898010
-75.8724518 39.3271179 -115.1874542
-73.9049530 39.2960205 -114.0856323
-71.9618225 39.2682495 -113.0954590
-70.0224457 39.2441864 -112.2205734
-68.0992737 39.2225876 -111.4447021
-66.1856003 39.2042160 -110.7691345
-64.2559967 39.1876640 -110.1638031
-62.3718529 39.1742859 -109.6634750
-60.4662437 39.1622429 -109.2168274
-49.1955948 39.1370430 -108.1358109
-47.3282127 39.1398773 -108.2008820
-45.4598236 39.1449623 -108.3375854
-36.1957970 39.2008820 -110.0766602
-34.3511925 39.2181778 -110.6496124
-32.4875870 39.2377090 -111.2888718
-30.6459980 39.2595825 -112.0074692
-28.7876740 39.2846222 -112.8304291
-26.9425583 39.3116837 -113.7267532
-25.0973148 39.3413925 -114.7124176
-23.2397690 39.3747864 -115.8266907
-21.3994637 39.4109802 -117.0452957
-19.5328617 39.4507446 -118.3735657
-17.6872234 39.4941330 -119.8347244
-15.8328829 39.5419579 -121.4443741
-12.1148701 39.6530342 -125.2047195
-10.2367048 39.7198715 -127.4669647
-8.3691177 39.7947845 -130.0137024
-6.4880905 39.8804359 -132.9219666
-4.6063290 39.9820404 -136.3966064
-2.7415645 40.1064682 -140.6385345
-90.1000824 37.7562485 -127.7057953
-87.9799957 37.6889610 -125.1599426
-85.9101410 37.6311913 -122.9716492
-83.8424835 37.5803680 -121.0319977
-81.8317871 37.5358582 -119.3334045
-79.8255844 37.4960976 -117.8056793
-77.8284073 37.4606285 -116.4430695
-75.8680420 37.4293823 -115.2304153
-73.8975067 37.4008751 -114.1229630
-71.9632721 37.3760071 -113.1471252
-70.0221481 37.3536072 -112.2700195
-68.0900040 37.3344383 -111.4962463
-66.1797256 37.3171120 -110.8087921
-64.2540436 37.3023911 -110.2065277
-62.3657951 37.2901306 -109.6959991
-60.4590836 37.2795219 -109.2546768
-58.5696831 37.2711868 -108.8908386
-56.6944389 37.2657166 -108.6300964
-54.7985153 37.2610550 -108.4023590
-52.9313431 37.2585411 -108.2603607
-51.0549622 37.2585449 -108.2019501
-49.2003746 37.2598457 -108.2039337
-47.3224640 37.2625275 -108.2483749
-45.4490585 37.2672806 -108.3667679
-43.6158028 37.2748566 -108.5936584
-32.4834480 37.3583755 -111.3482361
-30.6428642 37.3790894 -112.0608673
-28.7829380 37.4027863 -112.8824692
-26.9308052 37.4290466 -113.7915573
-25.0979919 37.4566917 -114.7657242
-23.2424431 37.4880524 -115.8729706
-21.3925819 37.5223656 -117.0818558
-19.5256996 37.5600433 -118.4129181
-17.6795959 37.6011658 -119.8755264
-15.8218775 37.6463890 -121.4968872
-13.9502468 37.6965942 -123.3013153
-12.1046152 37.7512589 -125.2582092
-10.2247925 37.8141403 -127.5188446
-8.3703899 37.8833885 -130.0339355
-6.4967694 37.9639511 -132.9352722
-4.6082888 38.0599022 -136.4275208
-90.1059723 35.8342819 -127.8814850
-87.9794159 35.7719116 -125.3162460
-85.9023285 35.7184677 -123.1073532
-83.8545227 35.6716919 -121.1811066
-81.8341370 35.6310501 -119.4725647
-79.8288116 35.5947189 -117.9485168
-77.8238220 35.5625877 -116.5775299
-75.8690491 35.5335083 -115.3569641
-73.9059525 35.5077477 -114.2538376
-71.9588623 35.4851112 -113.2605286
-70.0174942 35.4650688 -112.3980179
-68.1014786 35.4473572 -111.6215210
-66.1777954 35.4321671 -110.9298935
-64.2579651 35.4187469 -110.3307037
-62.3636551 35.4079094 -109.8105774
-60.4585800 35.3986435 -109.3718567
-58.5688324 35.3917084 -109.0156021
-51.0532684 35.3815079 -108.3146667
-47.3182182 35.3865738 -108.3609314
-34.3402100 35.4615784 -110.8139496
-28.7796440 35.5227432 -113.0003281
-26.9252205 35.5472145 -113.9222717
-25.0970516 35.5737762 -114.8918457
-23.2359543 35.6033936 -115.9986038
-21.3904419 35.6359940 -117.2074585
-19.5191803 35.6716690 -118.5567627
-17.6797295 35.7102737 -120.0027924
-15.8224068 35.7525635 -121.6241760
-13.9487553 35.8004112 -123.4342651
-12.1031351 35.8517838 -125.4100800
-10.2147675 35.9106483 -127.6866760
-8.3665924 35.9762573 -130.1997223
-6.4776001 36.0523796 -133.1540222
-88.0104218 33.8572083 -125.6211700
-85.9235687 33.8078156 -123.3864899
-83.8631439 33.7651901 -121.4262848
-81.8539810 33.7281609 -119.7238235
-79.8423004 33.6947975 -118.1968384
-77.8407364 33.6656609 -116.8013763
-75.8795776 33.6390495 -115.5765991
-73.9151459 33.6159363 -114.4629745
-71.9695435 33.5954552 -113.4755402
-70.0239258 33.5773773 -112.5970154
-68.1079025 33.5621223 -111.8077087
-66.1879044 33.5476494 -111.1279068
-64.2587967 33.5367165 -110.5157394
-62.3647461 33.5269852 -110.0005722
-60.4585381 33.5189171 -109.5646210
-58.5742569 33.5128555 -109.2037506
-52.9406357 33.5048904 -108.5696869
-47.3241272 33.5120125 -108.5520477
-34.3377838 33.5852890 -111.0149918
-32.4819183 33.6031761 -111.6601868
-30.6407166 33.6218491 -112.3862076
-28.7820110 33.6433105 -113.2001801
-26.9345856 33.6679001 -114.1018829
-25.0964622 33.6923790 -115.1060181
-23.2294827 33.7195740 -116.2194138
-21.3868885 33.7509842 -117.4269333
-19.5263138 33.7844315 -118.7716370
-17.6733360 33.8204002 -120.2362366
-15.8122997 33.8609962 -121.8583679
-13.9473190 33.9057465 -123.6922836
-12.0968618 33.9548187 -125.6988754
-10.2187157 34.0098495 -127.9687653
-8.3489103 34.0711288 -130.5340424
-88.0173035 31.9441891 -125.9933777
-85.9551163 31.8988457 -123.7853317
-83.8808289 31.8600788 -121.7869720
-81.8703613 31.8262405 -120.0531921
-79.8566818 31.7961044 -118.5065536
-77.8661194 31.7695408 -117.1337738
-75.9018555 31.7464638 -115.8879776
-73.9283142 31.7250366 -114.7529831
-71.9843140 31.7065487 -113.7664261
-70.0411682 31.6897812 -112.8782959
-68.1209412 31.6762028 -112.0770493
-66.1991882 31.6653194 -111.4040527
-64.2681580 31.6546249 -110.7854156
-62.3802719 31.6460133 -110.2754669
-60.4715614 31.6406193 -109.8282700
-58.5810394 31.6350117 -109.4601440
-56.6985931 31.6316738 -109.1753540
-54.8171272 31.6295891 -108.9488602
-52.9347534 31.6301651 -108.8038330
-51.0618286 31.6315422 -108.7489319
-47.3383598 31.6383705 -108.8234100
-26.9333153 31.7867737 -114.4003372
-25.0872803 31.8105831 -115.3837433
-23.2358360 31.8384075 -116.4981461
-21.3906479 31.8671551 -117.7358398
-19.5291557 31.8984947 -119.0819092
-17.6722603 31.9317398 -120.5742874
-15.8182964 31.9706154 -122.1970673
-13.9581871 32.0131950 -124.0297318
-12.0943317 32.0572548 -126.0783691
-8.3570290 32.1679039 -130.9359741
-6.4755936 32.2342606 -133.9685364
-88.0750732 30.0311451 -126.5598450
-85.9902039 29.9904137 -124.2799759
-83.9232178 29.9549580 -122.2645645
-81.9041214 29.9245586 -120.5034637
-79.8856506 29.8972855 -118.9288483
-77.8820496 29.8738346 -117.5269928
-75.9248810 29.8528080 -116.2704315
-73.9499893 29.8342857 -115.1319199
-72.0007172 29.8191490 -114.1228333
-70.0597839 29.8031292 -113.2370529
-66.2245026 29.7812347 -111.7604828
-64.2828369 29.7754555 -111.1326828
-62.3959885 29.7666283 -110.6255188
-60.4899750 29.7618942 -110.1730118
-58.5946426 29.7572327 -109.8093414
-56.7144279 29.7544479 -109.5108032
-54.8225212 29.7547760 -109.2902908
-52.9585495 29.7546463 -109.1435013
-51.0685806 29.7570152 -109.0753860
-49.2090340 29.7602386 -109.0822296
-23.2400742 29.9571304 -116.8738327
-21.3902588 29.9824791 -118.1250916
-19.5318069 30.0126686 -119.4766922
-17.6780071 30.0446110 -120.9783936
-15.8177090 30.0796108 -122.6544952
-13.9472580 30.1187515 -124.5056458
-12.0978031 30.1618824 -126.5245972
-10.2287817 30.2105942 -128.8508301
-8.3560009 30.2644348 -131.5123749
-6.4779916 30.3274555 -134.5991821
-88.1156006 28.1187057 -127.2219772
-86.0314026 28.0817986 -124.8889771
-83.9563293 28.0503960 -122.8478546
-81.9355850 28.0236912 -121.0399094
-79.9212799 27.9988422 -119.4458847
-77.9150848 27.9788704 -118.0223160
-75.9589157 27.9594612 -116.7640076
-73.9824677 27.9435196 -115.6100311
-72.0264587 27.9306602 -114.5980988
-68.1611099 27.9069805 -112.8921356
-66.2354736 27.9000015 -112.1831055
-64.3140335 27.8916397 -111.5738754
-62.4170761 27.8877716 -111.0433350
-60.5066986 27.8832626 -110.5928955
-58.6181717 27.8808975 -110.2208252
-56.7309227 27.8785706 -109.9189758
-52.9837074 27.8782425 -109.5684357
-21.3968830 28.1001854 -118.5896759
-19.5369968 28.1267395 -119.9761200
-17.6779995 28.1565895 -121.5001373
-15.8278866 28.1895714 -123.2011108
-13.9579735 28.2272072 -125.0526886
-12.1007423 28.2658386 -127.1280823
-10.2299786 28.3118763 -129.5025787
-8.3575182 28.3619690 -132.2225342
-86.0792694 26.1737709 -125.6334534
-84.0160217 26.1442966 -123.5616760
-81.9846649 26.1206093 -121.7080994
-79.9584198 26.1013718 -120.0760727
-77.9474792 26.0824509 -118.6174011
-75.9927521 26.0658989 -117.3421402
-74.0090942 26.0535927 -116.1709290
-72.0673981 26.0401897 -115.1594772
-70.1154251 26.0315933 -114.2211151
-68.1801758 26.0239677 -113.4037933
-66.2635345 26.0149460 -112.6967392
-64.3310318 26.0115814 -112.0763092
-62.4440613 26.0063572 -111.5520706
-60.5340843 26.0025005 -111.0946045
-58.6395035 26.0012703 -110.7193146
-56.7506638 26.0017338 -110.3969879
-19.5412941 26.2416763 -120.5715408
-17.6894646 26.2694206 -122.1067810
-15.8322115 26.2999229 -123.8213043
-13.9529610 26.3327160 -125.7459869
-12.1029806 26.3703480 -127.8731842
-10.2323780 26.4125462 -130.2940674
-88.2644196 24.2929878 -129.0564270
-86.1579742 24.2626343 -126.5487976
-84.0732956 24.2387657 -124.3806763
-82.0361328 24.2186604 -122.4918060
-80.0100632 24.2003975 -120.8246918
-78.0021362 24.1838455 -119.3315048
-76.0273590 24.1723213 -118.0142059
-74.0537872 24.1610336 -116.8329620
-72.1008911 24.1520081 -115.7955399
-70.1516037 24.1442070 -114.8477325
-68.2239685 24.1358032 -114.0315018
-66.2951965 24.1329670 -113.3023376
-64.3648758 24.1276779 -112.6653290
-62.4736786 24.1243744 -112.1246185
-60.5683670 24.1229343 -111.6564026
-58.6628723 24.1226749 -111.2668304
-56.7828140 24.1228962 -110.9612732
-17.6960030 24.3773708 -122.8370056
-15.8452129 24.4093037 -124.5647278
-13.9575481 24.4372597 -126.5625534
-12.1140022 24.4739170 -128.7307892
-10.2295580 24.5104618 -131.2332916
-86.2265778 22.3532753 -127.6043930
-84.1455994 22.3303833 -125.3578339
-82.1057205 22.3144608 -123.4124680
-80.0752106 22.2979317 -121.6925583
-78.0640869 22.2859020 -120.1623840
-76.0852661 22.2763863 -118.8136673
-74.0967560 22.2684669 -117.5969162
-72.1472092 22.2598038 -116.5363541
-70.1928406 22.2537575 -115.5735397
-68.2631378 22.2510090 -114.7393723
-66.3414383 22.2454700 -113.9984741
-64.3980560 22.2440262 -113.3293228
-62.5059433 22.2423706 -112.7802582
-60.5904694 22.2413368 -112.3082809
-58.6950722 22.2421341 -111.9242706
-56.8172379 22.2433262 -111.6300659
-54.9217224 22.2462349 -111.3979645
-15.8420582 22.5125198 -125.4691391
-13.9681473 22.5412846 -127.4874115
-12.1243572 22.5749130 -129.7153320
-84.2319794 20.4207058 -126.4853439
-82.1858521 20.4065037 -124.4649048
-80.1299286 20.3969421 -122.6552353
-76.1531525 20.3769226 -119.7231445
-74.1548615 20.3715382 -118.4600067
-72.2039337 20.3652000 -117.3789749
-70.2436218 20.3629971 -116.4012146
-68.3061523 20.3605709 -115.5272369
-66.3866577 20.3560715 -114.7764282
-64.4390564 20.3592224 -114.1008072
-62.5415001 20.3600864 -113.5383148
-60.6249428 20.3609409 -113.0588226
-58.7320557 20.3607559 -112.6585693
-56.8448944 20.3661156 -112.3421326
-13.9858255 20.6446571 -128.5595093
-84.3260040 18.5070076 -127.7966766
-82.2691498 18.4961605 -125.6706543
-80.2241287 18.4891682 -123.8112030
-78.2021027 18.4826469 -122.1767426
-76.2122421 18.4772320 -120.7379837
-74.2254944 18.4732132 -119.4595184
-72.2510681 18.4732399 -118.3202972
-70.2987976 18.4700966 -117.3158035
-68.3625183 18.4670486 -116.4291992
-66.4262161 18.4701023 -115.6464462
-64.4925156 18.4686031 -114.9715271
-62.5911560 18.4704132 -114.4085464
-60.6798553 18.4714603 -113.9154205
-58.7701416 18.4750576 -113.4938049
-56.8796234 18.4787121 -113.1718292
-12.1434040 18.7668705 -132.2869873
-82.3702621 16.5830536 -127.0583954
-80.3174133 16.5777912 -125.0983200
-78.2830200 16.5755463 -123.3995056
-76.2994614 16.5748386 -121.9213867
-74.2986069 16.5750160 -120.5781937
-72.3272247 16.5710201 -119.4148788
-70.3627319 16.5722771 -118.3608475
-68.4230347 16.5760441 -117.4431305
-66.4870224 16.5752468 -116.6541290
-64.5471344 16.5797424 -115.9404449
-62.6453094 16.5827427 -115.3600388
-60.7280807 16.5825615 -114.8605042
-58.8150635 16.5916519 -114.4290848
-56.9316597 16.5922070 -114.0949173
-80.4227982 14.6652498 -126.5739594
-78.3840103 14.6659422 -124.7807541
-76.3886642 14.6644592 -123.2354355
-74.3861694 14.6668558 -121.8408203
-72.4050293 14.6710138 -120.6156616
-70.4367752 14.6735363 -119.5250244
-68.4911957 14.6769161 -118.5864563
-66.5554581 14.6802111 -117.7528839
-64.6064835 14.6835308 -117.0279694
-62.7023735 14.6860800 -116.4283142
-58.8804054 14.6982794 -115.4596558
-56.9828339 14.7030792 -115.1015701
-78.4977875 12.7469721 -126.3628082
-76.4906998 12.7518597 -124.7095490
-74.4772186 12.7578411 -123.2425079
-72.5005569 12.7625036 -121.9677658
-70.5229950 12.7682505 -120.8313141
-68.5737534 12.7725058 -119.8591003
-66.6283188 12.7791252 -118.9947205
-64.6776047 12.7853642 -118.2248230
-62.7651062 12.7891083 -117.5873260
-60.8399773 12.7985783 -117.0559692
-58.9404602 12.8050470 -116.6069717
-57.0361176 12.8098440 -116.2357864
-76.6032715 10.8335896 -126.3983307
-74.5886002 10.8424854 -124.8465424
-72.5956421 10.8497925 -123.4796448
-70.6222229 10.8570528 -122.3044510
-68.6505051 10.8685827 -121.2636414
-66.7081833 10.8734579 -120.3661118
-64.7607574 10.8818846 -119.5670929
-62.8437462 10.8939953 -118.9026489
-60.9107819 10.8996620 -118.3442993
-74.7086182 8.9179096 -126.6474533
-72.7100067 8.9320021 -125.2012939
-70.7298279 8.9410057 -123.9488068
-68.7521667 8.9541149 -122.8378525
-66.7989731 8.9630499 -121.8869858
-64.8439484 8.9752264 -121.0624695
-62.9361038 8.9822311 -120.3780670
-61.0004120 8.9860773 -119.7883301
-72.8477783 7.0011015 -127.1548157
-70.8539886 7.0178590 -125.7963791
