-35.3002014 66.5483170 -95.6751251
-34.3934021 66.5591354 -95.9118347
-2.2763140 68.0472565 -123.2000351
-1.3095187 68.1707611 -125.3964386
-89.6291199 66.9063950 -115.4411926
-51.8690796 65.5862350 -94.2156982
-50.9174805 65.5805054 -94.1515198
-49.9981918 65.5790176 -94.1182632
-49.0987778 65.5718994 -94.1032867
-48.1521378 65.5722351 -94.0971680
-47.2177124 65.5678787 -94.0880508
-40.8016777 65.5777588 -94.6252289
-39.9054260 65.5831985 -94.7424316
-38.9642372 65.5894318 -94.9021988
-38.0381699 65.5975418 -95.1239395
-37.1511307 65.6086426 -95.3414688
-36.2141495 65.6175232 -95.5487366
-35.3035774 65.6278381 -95.7573853
-34.4033966 65.6385193 -96.0072632
-2.2867942 67.1092529 -123.3746033
-1.2859125 67.2345886 -125.6709442
-90.7492981 66.0574951 -117.2316895
-89.6662903 65.9679260 -115.6703339
-50.0186882 64.6574097 -94.2498627
-49.1010742 64.6567230 -94.2386932
-47.2402039 64.6490784 -94.2188873
-46.3139801 64.6465454 -94.2307663
-45.3755379 64.6503601 -94.2631378
-42.6513138 64.6510162 -94.5027008
-41.7325325 64.6582413 -94.6198425
-40.8058167 64.6605759 -94.7405624
-39.9058533 64.6670609 -94.8574677
-38.9567032 64.6700974 -95.0470428
-38.0551529 64.6826935 -95.2473602
-37.1512604 64.6895523 -95.4338303
-36.2359467 64.6987915 -95.6218338
-35.2998848 64.7095566 -95.8529587
-34.3966446 64.7211990 -96.1258774
-33.4939995 64.7338104 -96.4051132
-32.5505333 64.7457428 -96.6922073
-31.6566010 64.7622986 -96.9940262
-30.7542496 64.7755127 -97.3300629
-29.8360138 64.7958298 -97.6788940
-28.9002705 64.8123398 -98.0615845
-2.2681758 66.1763306 -123.6617737
-90.7296371 65.1166000 -117.4174652
-89.6477966 65.0280609 -115.8439407
-50.0002060 63.7415161 -94.3784637
-49.0952187 63.7377014 -94.3696747
-48.1562157 63.7333527 -94.3569946
-47.2315598 63.7306747 -94.3476410
-46.3287048 63.7278328 -94.3789978
-45.4006195 63.7275085 -94.4078598
-42.6602631 63.7340050 -94.6475067
-41.7219925 63.7370224 -94.7679901
-40.8044357 63.7417259 -94.8829651
-39.8981934 63.7472534 -95.0300446
-38.9649506 63.7574959 -95.2166290
-38.0336151 63.7616005 -95.3989105
-32.5779305 63.8293457 -96.8207779
-31.6481781 63.8424339 -97.1549530
-30.7559528 63.8586617 -97.4808044
-29.8348598 63.8767853 -97.8298645
-28.9147301 63.8962250 -98.2063751
-2.2778504 65.2426910 -123.9136581
-89.6873932 64.0903320 -116.1233902
-44.4666405 62.8147621 -94.6123352
-43.5653954 62.8160629 -94.6945114
-42.6628113 62.8190231 -94.7907410
-41.7219238 62.8219910 -94.8943634
-28.9093132 62.9760551 -98.3540039
-28.0067177 62.9942207 -98.7268829
-27.0817509 63.0096893 -99.1366348
-26.1759853 63.0352783 -99.5799332
-25.2642517 63.0581970 -100.0457382
-24.3593922 63.0837021 -100.5125885
-23.4406929 63.1067009 -101.0179977
-22.5211525 63.1349869 -101.5558395
-21.6030693 63.1571884 -102.1121368
-2.2697124 64.3123703 -124.2467728
-89.7047348 63.1552277 -116.4168320
-44.4735641 61.8967705 -94.8020477
-26.1737442 62.1179886 -99.7650604
-25.2656670 62.1390305 -100.2292480
-24.3511124 62.1635933 -100.7015305
-23.4321480 62.1878395 -101.2094193
-22.5234375 62.2145767 -101.7422180
-21.6203938 62.2402458 -102.2904968
-2.2719274 63.3813591 -124.6000061
-89.7523804 62.2212753 -116.7885971
-88.6724854 62.1429291 -115.2756729
-87.6162949 62.0661736 -113.8759613
-51.8716698 60.9984627 -94.9727478
-50.9330864 60.9931717 -94.9131012
-50.0274124 60.9893951 -94.8890305
-49.1102028 60.9856834 -94.8680878
-48.1749763 60.9816360 -94.8536682
-47.2396126 60.9803810 -94.8637238
-46.3199768 60.9881516 -94.8865051
-45.4047241 60.9801025 -94.9366302
-44.4741554 60.9812088 -94.9939880
-25.2725544 61.2192535 -100.4134140
-22.5255241 61.2946701 -101.9374161
-21.6238403 61.3223991 -102.5058517
-2.2718720 62.4557495 -125.0227051
-88.7153397 61.2119789 -115.6675415
-87.6354828 61.1361465 -114.2187805
-51.8916512 60.0821152 -95.1864624
-50.9418793 60.0770378 -95.1344757
-50.0190506 60.0719757 -95.1036377
-49.0998459 60.0750732 -95.0689316
-48.1748810 60.0701027 -95.0652466
-47.2493744 60.0697708 -95.0839691
-46.3378334 60.0720291 -95.1064453
-22.5119057 60.3745728 -102.1876068
-21.6199970 60.4014130 -102.7510223
-2.2616799 61.5306969 -125.5336075
-1.2914408 61.6470451 -127.9341125
-89.8043976 60.3563881 -117.5741043
-88.7651901 60.2802277 -116.0990143
-87.6800537 60.2035522 -114.6268921
-84.5685120 60.0152473 -110.9682846
-83.5261917 59.9590073 -109.8910294
-50.0329018 59.1631165 -95.3218689
-49.1323547 59.1552086 -95.3056107
-48.1936874 59.1543961 -95.3029785
-47.2777863 59.1535416 -95.3344574
-21.6253586 59.4870987 -102.9860458
-20.6897964 59.5128555 -103.6043549
-19.7757111 59.5463257 -104.2240295
-11.5315304 59.8929443 -111.4428940
-10.5939112 59.9410896 -112.4808121
-7.8294659 60.1130257 -116.0081940
-6.9037118 60.1786575 -117.3456192
-4.0907931 60.4084473 -122.1174774
-3.1952958 60.5029106 -123.9284821
-2.2549536 60.6068420 -126.0824814
-88.7635956 59.3513374 -116.4713516
-87.6968689 59.2767792 -115.0173645
-84.5822830 59.0859299 -111.3163910
-83.5386047 59.0312805 -110.2187653
-50.0458679 58.2374802 -95.5628281
-49.1156311 58.2465172 -95.5330734
-48.2034874 58.2347984 -95.5364838
-20.7007942 58.5945587 -103.8845596
-19.7677212 58.6294632 -104.5126495
-11.5312614 58.9689331 -111.7840729
-10.5987530 59.0211906 -112.8357849
-7.8197803 59.1909485 -116.4100342
-6.8902683 59.2560043 -117.7848206
-4.1093988 59.4882545 -122.5809479
-3.1897893 59.5810547 -124.5023346
-88.8212357 58.4222107 -116.9851379
-87.7167130 58.3486061 -115.4534225
-51.8958435 57.3413429 -95.9019470
-50.9525757 57.3310890 -95.8574219
-50.0476074 57.3289261 -95.8171387
-49.1350517 57.3279495 -95.7855988
-19.7596302 57.7047653 -104.8323746
-18.8856411 57.7400169 -105.4737778
-17.9662743 57.7675400 -106.1784439
-5.9995904 58.4046783 -119.6601486
-5.0509329 58.4817009 -121.3181839
-4.1070700 58.5637474 -123.1492157
-3.2147436 58.6621170 -125.0539703
-2.2531261 58.7615395 -127.3058853
-88.8359222 57.4931641 -117.4727478
-87.7755508 57.4201965 -115.9818115
-51.9192848 56.4215469 -96.1917191
-50.9804077 56.4157486 -96.1449280
-18.8842316 56.8199730 -105.8214493
-17.9807854 56.8556709 -106.5143127
-5.9811606 57.4825439 -120.2214203
-5.0473919 57.5590782 -121.8933029
-4.1226234 57.6452599 -123.7155609
-3.1899047 57.7400627 -125.7647934
-2.2527957 57.8412018 -128.0188446
-88.9146423 56.5620537 -118.0779724
-87.8082733 56.4951401 -116.5023651
-86.7387619 56.4284973 -115.0793152
-85.7208557 56.3674545 -113.8350906
-84.6878204 56.3087654 -112.6456070
-83.6194458 56.2542572 -111.4804688
-55.6696243 55.5313606 -96.9391174
-54.7322159 55.5241241 -96.7960587
-51.9273758 55.5115967 -96.5067139
-50.9791298 55.5062943 -96.4494629
-17.9785976 55.9375687 -106.9051819
-17.0434456 55.9677277 -107.6577606
-16.1187000 56.0027847 -108.4401016
-5.9990940 56.5643463 -120.7557755
-5.0473275 56.6418839 -122.4877930
-4.1271596 56.7301865 -124.3438187
-3.2003443 56.8231010 -126.4531555
-85.7651672 55.4387856 -114.3791122
-84.7157745 55.3849792 -113.1537552
-83.6502075 55.3321877 -111.9627151
-55.6773300 54.6197586 -97.2548447
-54.7294846 54.6121254 -97.1041412
-51.9472008 54.5923309 -96.8347473
-50.9913063 54.5885239 -96.7682419
-16.1459999 55.0941887 -108.8214111
-5.9930696 55.6436272 -121.3703537
-5.0545835 55.7201080 -123.1206360
-4.1197681 55.8096313 -125.0838470
-3.1960135 55.9065971 -127.2455978
-84.7810059 54.4590683 -113.7231445
-83.7017670 54.4078941 -112.5044861
-51.9441605 53.6885376 -97.1605377
-51.0224113 53.6712303 -97.1138687
-16.1213131 54.1693649 -109.2961502
-15.2241669 54.2097931 -110.1148148
-14.2914505 54.2443237 -110.9994812
-13.3627281 54.2842484 -111.9454346
-12.4723129 54.3291893 -112.9128571
-11.5609312 54.3794861 -113.9585114
-10.5998592 54.4253006 -115.1379700
-9.6968517 54.4784584 -116.3101273
-8.7917461 54.5342178 -117.5415115
-7.8346486 54.5879669 -118.9659271
-6.9127188 54.6525040 -120.4360046
-6.0161700 54.7277145 -121.9794846
-5.0654349 54.8047638 -123.8200836
-4.1330543 54.8952866 -125.8527298
-84.7941437 53.5382996 -114.2693405
-83.7469864 53.4850502 -113.0661697
-51.9727364 52.7647705 -97.5200424
-15.2330303 53.2905273 -110.5718384
-14.3158855 53.3363953 -111.4486923
-13.3616486 53.3709412 -112.4547043
-12.4722300 53.4140244 -113.4425964
-11.5485125 53.4617271 -114.5090027
-10.6173429 53.5102997 -115.6761627
-9.6855707 53.5521202 -116.9178467
-8.7968035 53.6144829 -118.1431732
-7.8462772 53.6796112 -119.5830688
-6.9237351 53.7441063 -121.0929337
-6.0230379 53.8147316 -122.6948395
-5.0721560 53.8902588 -124.6010590
-4.1316705 53.9821320 -126.7242355
-84.8329086 52.6166153 -114.8747330
-83.7823715 52.5644379 -113.6472168
-82.7767487 52.5158310 -112.5599518
-81.7687531 52.4689980 -111.5410461
-53.8430023 51.8659554 -98.0674896
-52.9252014 51.8576965 -97.9757538
-51.9904327 51.8517952 -97.9039230
-13.3677921 52.4544525 -112.9969101
-12.4691162 52.4921951 -114.0177307
-11.5607071 52.5467644 -115.0869675
-10.6087227 52.5894089 -116.3098297
-9.7230129 52.6469955 -117.4847107
-8.7790718 52.6977234 -118.8392334
-7.8456888 52.7572975 -120.3054352
-6.8934975 52.8142700 -121.9142914
-6.0046864 52.8914413 -123.5325775
-5.0802045 52.9783974 -125.4583206
-4.1223907 53.0689735 -127.6905975
-84.9165573 51.6877441 -115.5924835
-83.8424377 51.6370049 -114.3206482
-82.8280182 51.5881805 -113.2003708
-81.8207245 51.5458260 -112.1520386
-53.8545914 50.9502220 -98.4779434
-52.9340248 50.9499512 -98.3882446
-52.0063400 50.9435272 -98.3117218
-11.5562134 51.6237183 -115.6998291
-10.6080990 51.6673660 -116.9370041
-9.7197838 51.7289505 -118.1548767
-8.7949066 51.7823524 -119.5316696
-7.8622293 51.8464050 -121.0256348
-6.9339004 51.9162750 -122.6178589
-6.0300608 51.9868889 -124.3484650
-5.0798178 52.0659828 -126.4302063
-84.9584045 50.7763443 -116.3230743
-83.8935165 50.7198639 -115.0245819
-80.8367844 50.5823860 -111.7665176
-79.8076630 50.5450096 -110.7990723
-55.7772331 50.0403786 -99.1924973
-54.8128853 50.0569153 -99.0267944
-53.8770027 50.0371628 -98.9176941
-52.9586906 50.0333862 -98.8240433
-9.7149162 50.8094215 -118.8776550
-8.7987175 50.8674850 -120.2804413
-7.8500366 50.9272652 -121.8602448
-6.9281244 50.9957733 -123.5263443
-6.0046387 51.0717163 -125.3847198
-5.0859723 51.1556625 -127.4658203
-86.0961151 49.9031868 -118.5534515
-85.0186768 49.8557854 -117.1252594
-83.9459915 49.8022079 -115.7780151
-80.8742142 49.6639290 -112.4214783
-79.8609238 49.6224518 -111.4432831
-55.7890625 49.1323929 -99.6404419
-54.8465843 49.1255722 -99.5038986
-53.9036560 49.1287537 -99.3790894
-52.9789619 49.1248589 -99.2757111
-9.7454720 49.9003410 -119.5874634
-8.8206491 49.9523926 -121.0687866
-7.8749509 50.0187149 -122.7051239
-6.9379911 50.0843124 -124.4721527
-6.0375824 50.1638565 -126.3465042
-85.0871429 48.9367065 -117.9827957
-84.0119324 48.8838768 -116.5999451
-82.9816360 48.8334503 -115.3587494
-81.9829712 48.7849426 -114.2377930
-53.9276009 48.2058830 -99.8534241
-53.0038910 48.2060394 -99.7487030
-7.8765516 49.1085358 -123.6401291
-6.9444265 49.1736374 -125.4752426
-6.0514016 49.2553520 -127.4324036
-85.1758652 48.0114403 -118.9243622
-84.0721664 47.9640312 -117.4620514
-83.0395203 47.9138222 -116.1728058
-82.0196915 47.8669815 -114.9921341
-53.9386063 47.3078308 -100.3173447
-53.0259819 47.2952194 -100.2280731
-85.2539520 47.0846596 -119.8851471
-84.1421814 47.0458832 -118.3815308
-83.1041718 46.9973221 -117.0551910
-82.0996399 46.9456673 -115.8667145
-81.0394135 46.9038124 -114.6742325
-79.9964600 46.8689957 -113.5801544
-79.0148773 46.8310242 -112.6409149
-77.9984360 46.7971764 -111.7212296
-53.9649277 46.3937950 -100.8216782
-53.0464325 46.3745461 -100.7438660
-84.2477264 46.1135368 -119.3891449
-83.1731873 46.0794296 -117.9991837
-82.1657562 46.0323410 -116.7735596
-81.0965118 45.9895554 -115.5333939
-80.0677338 45.9492645 -114.4332123
-79.0872040 45.9102821 -113.4718170
-78.0562973 45.8805656 -112.5046844
-53.9832573 45.4848022 -101.3855820
-53.0716629 45.4703522 -101.3018417
-83.2713776 45.1533890 -119.0303345
-82.2368469 45.1139679 -117.7480469
-81.1722717 45.0687485 -116.4872360
-80.1495743 45.0253983 -115.3684921
-75.1224976 44.8718109 -110.7792206
-74.1131287 44.8398895 -110.0185089
-55.9294662 44.5653534 -102.2673645
-54.9742737 44.5631409 -102.1080093
-54.0388870 44.5461197 -101.9989700
-82.3018799 44.2014961 -118.7786179
-81.2533264 44.1543541 -117.4906921
-80.2088165 44.1133575 -116.2929916
-75.1794052 43.9502373 -111.5806885
-74.1538239 43.9296989 -110.7769623
-55.9625282 43.6566582 -102.8641129
-54.9980469 43.6555939 -102.7035828
-54.0510902 43.6478233 -102.5869064
-82.3821716 43.2821350 -119.8910065
-81.3287888 43.2404251 -118.5456543
-80.2831726 43.2005234 -117.3058929
-79.2762604 43.1582718 -116.2079926
-78.2464371 43.1222687 -115.1445770
-77.2149811 43.0913506 -114.1424637
-76.2352905 43.0617828 -113.2725067
-75.2368927 43.0358429 -112.4273758
-74.2305298 43.0081863 -111.6206055
-73.2356949 42.9849930 -110.8844147
-72.2949295 42.9565392 -110.2398529
-63.5448952 42.8151245 -105.6504288
-62.6100044 42.7969398 -105.3108215
-55.9898682 42.7381592 -103.5012436
-55.0250092 42.7479706 -103.3333588
-81.4327774 42.3154221 -119.7214661
-80.3839645 42.2761154 -118.4448700
-79.3655624 42.2395859 -117.2663727
-78.3294525 42.2097702 -116.1403198
-77.2904663 42.1789398 -115.1053162
-76.3181763 42.1385193 -114.2293015
-75.3101425 42.1133499 -113.3428421
-74.2832718 42.0901871 -112.4924774
-73.3034897 42.0627785 -111.7475739
-72.3365860 42.0397186 -111.0545120
-63.5889015 41.8958130 -106.3644409
-62.6455498 41.8831482 -105.9989090
-56.0197029 41.8247948 -104.1781616
-55.0766411 41.8151703 -104.0258942
-80.4477921 41.3625565 -119.5724182
-79.4430695 41.3219604 -118.3851471
-78.4059753 41.2856178 -117.2303543
-77.3688431 41.2512665 -116.1564102
-76.3870010 41.2225380 -115.2103424
-75.3735352 41.1999435 -114.2882690
-74.3337631 41.1702652 -113.4065552
-63.6184425 40.9856071 -107.0927887
-62.6894608 40.9689560 -106.7364731
-57.9121208 40.9291420 -105.2885513
-56.9925385 40.9202003 -105.0804825
-56.0589752 40.9194260 -104.8862457
-79.5169373 40.4130020 -119.5867996
-78.4851227 40.3746262 -118.3821259
-77.4253159 40.3474884 -117.2166748
-76.4439545 40.3068047 -116.2489166
-75.4484634 40.2805099 -115.3145294
-74.4138794 40.2585449 -114.3902054
-63.6742249 40.0620995 -107.9067535
-62.7502937 40.0473251 -107.5404205
-57.9440155 40.0201530 -106.0423813
-57.0354347 39.9960670 -105.8407593
-79.6392975 39.4851456 -120.9180756
-78.5926666 39.4554062 -119.6534271
-77.5284424 39.4241638 -118.4454193
-76.5340958 39.3880272 -117.4108582
-75.5164871 39.3655434 -116.4040985
-74.4961853 39.3356667 -115.4697418
-73.4875793 39.3160782 -114.6126862
-72.5232925 39.2862091 -113.8792114
-71.5073853 39.2672768 -113.1286316
-70.5112762 39.2504196 -112.4158630
-69.5706253 39.2241974 -111.7968292
-68.5869980 39.2144508 -111.1905060
-67.5840683 39.1959991 -110.6233978
-66.5959930 39.1894760 -110.0736542
-65.6552429 39.1749649 -109.5953674
-64.6682892 39.1639290 -109.1402206
-63.7331238 39.1370583 -108.7479019
-62.7752914 39.1339607 -108.3343506
-61.8314934 39.1108093 -107.9840469
-60.8583794 39.1068802 -107.6469955
-59.9174805 39.1026649 -107.3754730
-58.9742546 39.0967026 -107.1120758
-58.0026321 39.0836029 -106.8481293
-57.0589333 39.0948410 -106.5868759
-78.6897583 38.5277824 -120.9689713
-77.6134644 38.5106201 -119.7136993
-76.6216125 38.4747849 -118.6385345
-75.6032486 38.4429398 -117.5994186
-74.5823364 38.4114647 -116.6225128
-73.5642853 38.3984222 -115.7012177
-72.5884781 38.3714333 -114.9205093
-71.6015091 38.3426056 -114.1751556
-70.5808792 38.3321991 -113.4133072
-69.6157913 38.3215866 -112.7582550
-59.9598427 38.1951065 -108.2131653
-59.0083351 38.1881943 -107.9116058
-58.0320091 38.1814194 -107.6292343
-77.7427826 37.5756416 -121.1231461
-76.6986465 37.5660820 -119.9391174
-75.6915512 37.5318222 -118.8616257
-74.6390686 37.5074196 -117.7849808
-73.6431808 37.4816666 -116.8591232
-72.6784515 37.4516640 -116.0579071
-71.6394806 37.4419975 -115.2157440
-70.6573181 37.4137993 -114.5057526
-60.0041275 37.2808342 -109.0731506
-59.0356216 37.2773285 -108.7508163
-58.0723953 37.2593384 -108.4957199
-76.8368607 36.6446495 -121.4622269
-75.8035278 36.6082230 -120.2895966
-74.7528687 36.5781059 -119.1583099
-73.7394104 36.5573845 -118.1522064
-72.7506866 36.5288963 -117.2708435
-71.7345276 36.5140381 -116.4261932
-70.7329788 36.5208855 -115.6686020
-60.0588074 36.3409691 -109.9944382
-59.0891647 36.3517761 -109.6769867
-77.9785767 35.7454758 -124.3937912
-76.9283142 35.7287521 -123.0235748
-75.8998260 35.7064896 -121.7767639
-74.8540268 35.6747513 -120.5902252
-73.8343964 35.6462326 -119.5210419
-72.8316650 35.6227951 -118.5636673
-71.8252563 35.6018982 -117.6888733
-76.0257568 34.7737503 -123.4434814
-74.9731827 34.7477036 -122.1858139
-73.9480286 34.7254829 -121.0404663
-72.9406815 34.7010880 -120.0294189
9.1457176 20.0705490 88.7221451
9.9260406 20.0670052 88.6859589
11.4651890 20.1168652 88.4426804
12.2391176 20.1311131 88.2261810
13.0144711 20.1322746 87.9801788
3.8035212 19.2915878 90.8412781
4.5695930 19.2995205 91.1082458
5.3389606 19.2918072 91.3983307
6.0764675 19.3054771 91.5722504
6.8461609 19.3142357 91.7192688
7.6304970 19.3177643 91.8288956
8.3776760 19.3080997 91.8993988
9.1208658 19.3062096 91.8992538
9.8905716 19.3038063 91.8556213
10.6542997 19.3101177 91.7685547
11.4078979 19.3034248 91.7139664
12.1796331 19.3142776 91.5356674
12.9554539 19.3091259 91.3537979
13.7107277 19.3162613 91.0701828
14.4772749 19.3235283 90.7416229
15.2583151 19.3362122 90.3372650
16.0188503 19.3575211 89.9073181
16.7992668 19.3892288 89.3636475
0.7475273 18.5455475 92.0214310
1.5080298 18.5342903 92.4884491
2.2767501 18.5405045 92.8695831
3.0585907 18.5399094 93.2127380
3.7993176 18.5388908 93.4775696
4.5465274 18.5389900 93.7194290
15.9600258 18.5673199 92.7796783
16.7392235 18.5799007 92.3309631
17.5113144 18.5771904 91.9172363
18.3079243 18.5956669 91.3448944
19.0603161 18.6147270 90.7880325
-0.7698040 17.7915421 93.5176544
-0.0003895 17.7826595 93.9943542
0.7487907 17.7852402 94.4158173
1.5052962 17.7811279 94.8168411
2.2764111 17.7831078 95.1523285
3.0349932 17.7848396 95.4274597
3.7907882 17.7879868 95.6623993
4.5538898 17.7876892 95.8912735
15.9305677 17.8286076 95.0483093
16.6969223 17.8264580 94.7241821
17.4799385 17.8309345 94.3303604
18.2465649 17.8394470 93.8789139
19.0075474 17.8330231 93.4321365
-3.8110540 17.0588226 93.5612259
-3.0566375 17.0507355 94.1606979
-2.2709858 17.0379887 94.7621841
-1.5166481 17.0275192 95.2628403
-0.7691770 17.0319729 95.6831512
0.0036055 17.0322113 96.1024551
17.4383030 17.0874367 96.3966675
18.2239075 17.0844421 96.0389938
18.9703846 17.0837231 95.6191788
19.7339687 17.0922832 95.0758667
20.5142574 17.1006222 94.5189896
21.2631073 17.0930481 94.0226822
22.0428753 17.1101341 93.3677368
22.8537483 17.1196251 92.6246948
23.6279221 17.1210480 91.8646393
24.3989639 17.1433086 90.9345169
25.1936989 17.1653671 89.9018631
-6.0826640 16.3041592 93.7097473
-5.3102684 16.2967567 94.4392548
-4.5368443 16.2811623 95.1163788
-3.7926366 16.2796097 95.6863403
-3.0212069 16.2795410 96.2354889
-2.2625983 16.2796402 96.7305984
-1.5190370 16.2844276 97.1553421
-0.7624131 16.2806129 97.5759583
0.0148740 16.2813034 97.9554138
17.4175091 16.3394299 98.2140732
18.1891785 16.3456516 97.8764725
18.9428177 16.3432980 97.5024261
19.7051964 16.3515491 97.0465698
20.4693947 16.3533039 96.5914688
21.2421665 16.3668346 96.0645828
22.0114098 16.3785381 95.4967499
22.8006248 16.3720207 94.9180756
23.5781612 16.3878212 94.1886597
24.3261757 16.3872566 93.4399414
25.1081924 16.3921661 92.5902557
-6.0601535 15.5341997 95.7982635
-5.2918530 15.5401297 96.4231567
-4.5301704 15.5406685 97.0071335
-3.7852259 15.5374708 97.5386429
-3.0108986 15.5351858 98.0427246
23.5250854 15.6366959 96.2642441
24.2867737 15.6402626 95.6051865
25.0510368 15.6399975 94.9069366
25.8541451 15.6578331 94.0421066
26.6205521 15.6510487 93.2292023
27.4196320 15.6801615 92.2219238
28.2506905 15.7201920 91.0532227
-9.1236362 14.8043528 94.7369843
-8.3476982 14.7970152 95.5702972
-7.5599580 14.7954769 96.3393326
-6.8023434 14.7947502 96.9990082
-6.0460663 14.7936134 97.6141968
-5.2690086 14.7880688 98.2130203
-4.5105538 14.7943478 98.7268906
-3.7609074 14.7894869 99.2201309
-3.0102739 14.7981491 99.6445313
23.4915371 14.8934250 98.0598755
24.2539997 14.9046087 97.4533310
25.0072708 14.9043093 96.8164368
25.7895546 14.9105854 96.0816116
26.5622253 14.9163828 95.3162842
27.3485832 14.9109497 94.4999084
28.1714478 14.9206724 93.5095291
28.9524670 14.9417505 92.4710617
29.7434635 14.9793272 91.3263245
-9.8438730 14.0564327 95.8794327
-9.0845528 14.0551338 96.6425018
-8.3208885 14.0534458 97.3768463
-7.5443034 14.0480633 98.0685196
24.9664135 14.1608009 98.5344315
25.7550716 14.1719313 97.8518829
26.5175056 14.1813898 97.1644211
27.3011246 14.1815901 96.4366989
28.0989151 14.1813984 95.6095886
28.8844185 14.1843052 94.6989746
29.6692562 14.1944914 93.6869659
30.4693375 14.2186298 92.5614700
-10.5837803 13.2999744 96.8802643
-9.8091412 13.3033075 97.6548233
-9.0517740 13.3083534 98.3461609
-8.2980213 13.3155317 98.9803391
-7.5264878 13.3132553 99.6083679
24.9338875 13.4369774 100.0375671
25.7066746 13.4344759 99.4494247
26.4844036 13.4454994 98.8117065
27.2502785 13.4387255 98.1755371
28.0546055 13.4513245 97.3963165
28.8314476 13.4513512 96.6051331
29.5835724 13.4525661 95.7490387
30.3787422 13.4519978 94.7537994
31.2016048 13.4831219 93.6151428
-12.0993919 12.5665779 96.9038773
-11.3449268 12.5671244 97.7025223
-10.5570116 12.5664177 98.5020447
-6.7373939 12.5706511 101.6118851
-6.0011730 12.5765905 102.0856323
29.5446301 12.7263899 97.4698715
30.3351898 12.7237902 96.5762634
31.1310997 12.7245846 95.6115189
31.9194584 12.7321157 94.5734329
32.7330475 12.7571659 93.3849335
-12.8447704 11.8209772 97.6713333
-12.0785599 11.8219481 98.4955139
-11.3132820 11.8247023 99.2594910
-10.5446491 11.8321714 99.9647675
-6.7429709 11.8435974 102.8824844
-5.9807959 11.8420639 103.3507080
29.5069046 11.9946289 99.0252914
30.2855072 11.9954414 98.2132797
31.0783615 11.9945354 97.3404541
31.8453045 11.9947987 96.4267197
32.6496391 11.9982052 95.3702850
33.4696198 12.0037193 94.2139359
34.2974243 12.0487242 92.8982925
-13.6005630 11.0807285 98.3296967
-12.8170547 11.0847769 99.1789093
-12.0512590 11.0914860 99.9388504
26.3748856 11.2456131 102.9353790
27.1477375 11.2526464 102.3867188
29.4665928 11.2554646 100.4737015
30.2389641 11.2671690 99.7000809
31.0413685 11.2661190 98.8786240
31.8003254 11.2600765 98.0671997
32.5896797 11.2701025 97.1175537
33.4012070 11.2664576 96.0733261
34.2034531 11.2763481 94.9323120
-15.8933411 10.3494396 97.0880280
-15.1096182 10.3446836 98.0514679
-14.3438807 10.3425407 98.9402771
-13.5708408 10.3488388 99.7700119
-12.7906437 10.3551369 100.5526123
-12.0232048 10.3577557 101.2817078
26.3458099 10.5220041 104.1125870
27.1173077 10.5212708 103.6086807
29.4284401 10.5302677 101.7902527
30.1883888 10.5309439 101.0944748
30.9889202 10.5453320 100.2918549
31.7532997 10.5422058 99.5267792
32.5399857 10.5362787 98.6972885
33.3504219 10.5394421 97.7253799
34.1449509 10.5434952 96.6735611
34.9173279 10.5387535 95.5968170
35.7358208 10.5661383 94.3410492
-15.8490906 9.5986338 98.6135483
-15.0763283 9.6020517 99.5126495
30.9475994 9.8119812 101.6041946
31.7137203 9.8101807 100.8802643
32.5045509 9.8175249 100.0736542
33.3053513 9.8121834 99.2064514
34.0923042 9.8142328 98.2599411
34.8677101 9.8107624 97.2546463
35.6509552 9.8064175 96.1424866
36.4834518 9.8267984 94.8320847
-16.6049118 8.8721313 99.0588913
-15.8225622 8.8717155 99.9848480
-15.0391874 8.8767471 100.8480835
30.9078922 9.0911398 102.8000336
31.6701469 9.0772915 102.1354065
32.4707718 9.0923901 101.3473740
33.2604675 9.0890913 100.5533524
34.0452614 9.0860109 99.6877289
34.8062668 9.0933027 98.7474823
35.6093216 9.0868416 97.6913681
36.4187737 9.0854158 96.5343170
37.2254524 9.0897732 95.3017960
-16.5724640 8.1362610 100.4024658
-15.7758131 8.1389322 101.2861481
-15.0178509 8.1464405 102.0764923
-14.2651577 8.1557026 102.8022308
-13.4939470 8.1619377 103.4988174
30.8785992 8.3650579 103.9239273
31.6458244 8.3723106 103.2503586
34.0017815 8.3705263 100.9630203
34.7676926 8.3658714 100.1040115
35.5616302 8.3618717 99.1402740
36.3660583 8.3609457 98.0729370
37.1531487 8.3548851 96.9556808
37.9919395 8.3663864 95.6382217
38.8168182 8.3758707 94.2449799
-17.2846260 7.3963265 100.8038025
-16.5422363 7.4097681 101.6224136
-15.7643795 7.4135695 102.4502106
-14.9843712 7.4157162 103.2320251
-14.2298012 7.4228821 103.9254379
-13.4694214 7.4289002 104.5763092
30.8412132 7.6399498 104.9915237
31.6115780 7.6394382 104.3614349
33.9607239 7.6430874 102.1727371
34.7208557 7.6384425 101.3704147
35.5180359 7.6486683 100.4299469
36.3068504 7.6448827 99.4615250
37.0975494 7.6345787 98.4368973
37.9088821 7.6295328 97.2656555
38.7377434 7.6280808 95.9415436
39.5731735 7.6534309 94.5012360
-19.6284447 6.6466370 99.0851440
-18.8509502 6.6545286 100.1072464
-18.0583611 6.6628356 101.0749817
-17.2797871 6.6677976 101.9571533
-16.5102997 6.6760111 102.7749252
33.9252205 6.9266167 103.2807388
34.6846390 6.9205127 102.5074844
35.4809532 6.9197621 101.6339417
36.2710381 6.9235482 100.7187729
37.0507851 6.9129963 99.7802887
37.8590050 6.9135389 98.6804352
38.6741219 6.9051900 97.4800186
39.4716873 6.8989425 96.2214508
40.3016243 6.9244981 94.8137665
-19.5757351 5.9123664 100.3641205
-18.8036251 5.9233460 101.3243103
-18.0376740 5.9366870 102.2041855
-17.2546902 5.9453764 103.0454025
-16.4750004 5.9500446 103.8378830
33.9020462 6.2041874 104.3051834
34.6522293 6.1980639 103.5739822
35.4432297 6.2004046 102.7484207
36.2294540 6.1987562 101.8943176
37.0128937 6.1979289 100.9828033
37.8119431 6.1899824 99.9769592
38.6300392 6.1911540 98.8456421
39.4140205 6.1805921 97.6944580
40.2070351 6.1780496 96.4325256
-20.3288040 5.1772866 100.5311584
-19.5483208 5.1888633 101.5184326
32.3022423 5.4924026 106.6249695
33.0814590 5.4911156 105.9766006
33.8664017 5.4902439 105.2769928
34.6315041 5.4926963 104.5535278
36.9713669 5.4799185 102.1055603
37.7601662 5.4710941 101.1660767
38.5738525 5.4678297 100.1213837
39.3538551 5.4601445 99.0462189
40.1475258 5.4543772 97.8488083
40.9881516 5.4624057 96.5234146
-21.0774021 4.4337664 100.6527786
-20.2798214 4.4493518 101.6871948
-19.5273628 4.4671369 102.5895691
32.2732048 4.7679939 107.5141754
33.0513763 4.7708035 106.8890457
33.8183022 4.7671337 106.2420502
34.5796700 4.7589750 105.5634766
36.9280014 4.7616878 103.1593628
37.7349663 4.7614322 102.2296066
38.5328217 4.7487211 101.2718735
39.3169899 4.7482772 100.2422333
40.1021957 4.7364311 99.1527710
40.9348946 4.7432251 97.9128418
41.7480202 4.7395606 96.5818329
42.5743523 4.7358437 95.0792847
-21.0547256 3.7131567 101.7463760
-20.2587032 3.7291970 102.7383270
-19.4987984 3.7425938 103.6102753
36.8936577 4.0360951 104.1641693
37.6940460 4.0374789 103.2837067
38.4928169 4.0362768 102.3456192
39.2852974 4.0307465 101.3666077
40.0667267 4.0198736 100.3485413
40.8675232 4.0099053 99.2075729
41.6852608 4.0038681 97.9097214
42.4903946 3.9922657 96.5347748
43.3704643 4.0079851 94.8994904
-21.0248928 2.9925239 102.8035355
-20.2282085 3.0017114 103.7412415
-19.4719887 3.0172324 104.5642853
36.8636665 3.3267002 105.0899506
37.6547775 3.3216968 104.2667847
38.4559898 3.3188686 103.3661041
39.2273331 3.3097980 102.4566193
40.0237617 3.3055024 101.4560013
40.8352928 3.3019571 100.3430405
41.6198692 3.2878954 99.1793289
42.4383926 3.2690928 97.8699799
43.2769814 3.2584918 96.4080048
-20.9907570 2.2746487 103.7716599
39.9833984 2.5907855 102.4868164
42.3910294 2.5700848 99.0935440
43.2141762 2.5404711 97.7427673
44.0762024 2.5521562 96.2377243
-23.3064804 1.5043008 101.8071213
-22.5099049 1.5197370 102.8547668
-21.7336903 1.5361602 103.7986755
-20.9548340 1.5497744 104.6874084
39.9518127 1.8761735 103.4387131
43.1833115 1.8350809 98.9188919
44.0024147 1.8180628 97.5524673
44.8218536 1.8212641 96.0706863
-24.0627346 0.7607474 101.7166977
-23.2801476 0.7801734 102.7640991
-22.4798584 0.7969918 103.7724457
39.9054108 1.1631750 104.3311310
40.7175598 1.1658260 103.3742371
43.1339531 1.1286227 100.0225677
43.9416885 1.1037756 98.7334213
44.7532578 1.0956347 97.3176575
-24.8150997 0.0206454 101.5898132
-24.0239410 0.0388335 102.6691895
-23.2562466 0.0636901 103.6530457
-22.4531555 0.0771719 104.6332932
39.8769379 0.4469127 105.1724396
40.6681442 0.4371960 104.2646713
41.4574623 0.4326782 103.2933884
42.2636108 0.4269837 102.2230988
43.0746307 0.4101716 101.0795441
43.8972168 0.3939507 99.8260727
44.6897888 0.3791047 98.5126266
45.5229797 0.3711486 97.0396652
-24.7720547 -0.7014785 102.5287247
-24.0073853 -0.6791721 103.5331955
38.3079224 -0.2394113 107.5527573
39.0673904 -0.2527563 106.8000336
41.4275665 -0.2785913 104.1434479
42.2310104 -0.2961120 103.1412430
43.0427513 -0.3028363 102.0371857
43.8566628 -0.3131591 100.8408127
44.6455269 -0.3328286 99.6074677
45.4497910 -0.3565107 98.2630997
-24.7622089 -1.4165568 103.3630219
-23.9758568 -1.3970356 104.3685226
38.2697525 -0.9588728 108.2957916
39.0491943 -0.9643521 107.5382690
41.4120483 -0.9863615 104.9420700
42.1879616 -1.0027000 104.0072021
43.0025711 -1.0187246 102.9418488
43.8271332 -1.0254865 101.7735596
44.6084671 -1.0441757 100.6172256
45.4048004 -1.0657941 99.3359528
46.2647095 -1.0713675 97.8159943
-25.5013657 -2.1631427 103.1801224
-24.7159233 -2.1394422 104.2101746
-23.9524078 -2.1149349 105.1468964
42.9866562 -1.7214869 103.7380905
43.7754250 -1.7375989 102.6847763
44.5808868 -1.7459675 101.5272064
45.3704681 -1.7742498 100.3126602
46.2050247 -1.7950063 98.9113617
47.0364304 -1.8023815 97.4237671
-25.4764004 -2.8785703 103.9763031
-24.6982422 -2.8544230 104.9680252
-23.9249859 -2.8319497 105.8922119
42.9410706 -2.4340758 104.5550385
43.7339706 -2.4556398 103.5401230
44.5297928 -2.4641511 102.4280853
45.3214760 -2.4800074 101.2481155
46.1451683 -2.5040517 99.9354706
46.9860764 -2.5224588 98.4687119
47.8317261 -2.5357070 96.8832855
-26.2523479 -3.6199865 103.6770859
-25.4453049 -3.5959041 104.7431946
46.1172447 -3.2115316 100.8365555
46.9197426 -3.2390807 99.5035629
47.7607651 -3.2605720 97.9494476
48.6556282 -3.2726712 96.1566620
-26.2164326 -4.3392706 104.4378586
-25.4158707 -4.3143530 105.4679642
46.0936279 -3.9154263 101.6584091
46.8978157 -3.9397366 100.3704987
47.7151871 -3.9679766 98.9269409
48.5848045 -3.9922276 97.2601013
-26.1984596 -5.0521007 105.1359863
-25.4031563 -5.0260658 106.1245422
44.4262772 -4.5972157 104.7387238
45.2178764 -4.6134372 103.6750488
46.0517120 -4.6305513 102.4727097
46.8526192 -4.6565151 101.2490921
47.6661987 -4.6813846 99.8808746
48.5417213 -4.7019496 98.2522583
49.3859138 -4.7212572 96.6084137
-26.1805935 -5.7711887 105.7936707
-25.3625679 -5.7494202 106.7936249
44.3909035 -5.3025179 105.4290085
45.1874847 -5.3186064 104.3880997
46.0294304 -5.3331995 103.2096558
46.8396988 -5.3581209 102.0094986
47.6449509 -5.3870187 100.7068176
48.4897194 -5.4149089 99.2015991
49.3198318 -5.4423451 97.6238632
-27.7058201 -6.5465889 104.4229584
-26.9253159 -6.5161266 105.4590378
-26.1455708 -6.4873705 106.4349442
-25.3669777 -6.4578686 107.3593979
45.9808464 -6.0482035 103.9524612
46.7864380 -6.0680680 102.7828751
47.6127663 -6.0895486 101.4904938
48.4440575 -6.1224871 100.0759430
49.2779770 -6.1497636 98.5316162
-27.6790199 -7.2627182 105.0753021
-26.9013786 -7.2313576 106.0776749
-26.1284142 -7.2009888 107.0213165
-25.3121128 -7.1770983 107.9793396
45.9571762 -6.7541571 104.6032410
46.7506714 -6.7810202 103.4918060
47.5752792 -6.8018494 102.2410507
48.4049225 -6.8287187 100.8777618
49.2245216 -6.8634558 99.4244843
50.0639534 -6.8889184 97.8155518
-28.4587288 -8.0088921 104.6068802
-27.6502075 -7.9791698 105.6907501
-26.8734131 -7.9480453 106.6739960
49.1895905 -7.5688968 100.2191238
50.0149155 -7.6005726 98.6816635
-28.4216690 -8.7279968 105.2161484
-27.6359196 -8.6934452 106.2570953
-26.8458481 -8.6636820 107.2406845
49.1600380 -8.2745037 100.9543686
49.9734688 -8.3108387 99.4997177
50.8302536 -8.3385019 97.8597870
-29.2107124 -9.4777260 104.6724014
-28.4189606 -9.4430180 105.7573853
50.7740746 -9.0525703 98.6944962
-29.1836262 -10.1956749 105.2371826
-28.3795681 -10.1607065 106.3252029
50.7402115 -9.7600460 99.4326477
51.6403923 -9.7849913 97.7167587
-29.9300575 -10.9463320 104.7066345
-29.1599350 -10.9108047 105.7678909
-28.3565636 -10.8756275 106.8331451
49.0627518 -10.3989964 102.9323120
49.8747025 -10.4308252 101.6026382
50.6987495 -10.4688110 100.1504211
51.5875320 -10.5135193 98.5121460
-29.1341457 -11.6275654 106.2708969
-28.3466911 -11.5900965 107.2956390
49.0495834 -11.1037407 103.4757309
49.8418198 -11.1383657 102.2205353
50.6600037 -11.1773100 100.8134689
51.5366058 -11.2128973 99.1818390
-29.8920918 -12.3814049 105.7019348
-29.1232243 -12.3431911 106.7332306
-28.3306751 -12.3052635 107.7491760
50.6426697 -11.8844500 101.3832626
51.5027885 -11.9240971 99.8048553
-29.8693352 -13.0998411 106.1726227
-29.0951996 -13.0604935 107.1987305
-28.2995892 -13.0226946 108.2002258
50.6115570 -12.5953588 101.9559097
51.4637718 -12.6370716 100.4349442
52.3240585 -12.6749392 98.7967834
-29.8453484 -13.8142490 106.6150360
52.2745476 -13.3883047 99.4270935
-29.8368797 -14.5320635 107.0097351
52.2473526 -14.0975962 99.9892883
53.1372528 -14.1406393 98.2360840
-30.6070919 -15.2913494 106.3385773
-29.8172302 -15.2483225 107.3928375
52.2085114 -14.8068466 100.5469742
53.0949211 -14.8532772 98.8124390
-30.5841236 -16.0093975 106.7148590
-29.8060608 -15.9646244 107.7487640
52.1959419 -15.5153370 101.0237503
53.0525665 -15.5648127 99.3755417
-31.3886070 -16.7739563 105.9325943
-30.5711670 -16.7275105 107.0642166
-29.7818985 -16.6822643 108.1064835
52.1626892 -16.2250957 101.5100250
53.0217094 -16.2746048 99.8851013
-31.3758583 -17.4934464 106.2681580
-30.5578823 -17.4448090 107.3956223
-29.7803040 -17.3988113 108.4103546
52.1344528 -16.9325676 101.9531631
52.9911690 -16.9854279 100.3471985
-31.3519058 -18.2115593 106.6019135
52.1325264 -17.6438751 102.3187408
52.9750137 -17.6962128 100.7572861
53.8271561 -17.7527313 99.0838470
-32.1364555 -18.9803295 105.7726440
-31.3361511 -18.9308567 106.9003296
52.1323051 -18.3549538 102.6477356
52.9450836 -18.4079399 101.1701050
53.8122559 -18.4645729 99.4915466
-31.3311119 -19.6508636 107.1612549
-0.4919587 -18.5773315 126.7442398
0.2488261 -18.5658932 126.8655548
0.9702803 -18.5550041 126.9815292
1.6921880 -18.5387211 127.0963593
2.4575746 -18.5342693 127.2234726
3.1811397 -18.5195503 127.3186951
14.1506729 -18.4201088 127.3976898
14.8942738 -18.4138145 127.3105850
15.6300135 -18.4124908 127.2147369
16.3467655 -18.4115734 127.1169968
17.0854645 -18.4075108 127.0079727
17.8324585 -18.4078293 126.8775864
53.7990456 -19.1772919 99.8793488
-31.3051262 -20.3699322 107.4298477
-0.4917070 -19.2783203 126.8882828
0.2399753 -19.2650986 127.0145721
0.9742885 -19.2572937 127.1410675
1.6986655 -19.2433815 127.2587280
2.4415593 -19.2303638 127.3688507
3.1911597 -19.2232647 127.4616089
14.1553822 -19.1172791 127.5474625
14.8966465 -19.1160450 127.4682312
15.6236286 -19.1094017 127.3740387
16.3433495 -19.1078854 127.2737274
17.0845947 -19.1059246 127.1606674
17.8416786 -19.1059361 127.0216904
53.7874794 -19.8910484 100.2158966
-32.0897217 -21.1439743 106.5596771
-31.2956619 -21.0898705 107.6603699
-0.4841586 -19.9801941 127.0360565
0.2497567 -19.9678059 127.1691132
2.4512558 -19.9337692 127.5085907
3.1963019 -19.9226189 127.6041870
3.9089355 -19.9092941 127.6854782
4.6435204 -19.9012127 127.7576828
5.3801227 -19.8939781 127.8235779
6.1096687 -19.8855267 127.8675461
6.8252859 -19.8750973 127.8898315
7.5769062 -19.8671684 127.9161148
8.3038101 -19.8588276 127.9409790
9.0363140 -19.8543549 127.9513474
14.1605587 -19.8163528 127.6890869
14.8939857 -19.8143578 127.6173248
17.0883675 -19.8076038 127.3043060
17.8376656 -19.8047028 127.1627884
18.5504570 -19.8045330 127.0208740
19.2964058 -19.8038540 126.8753433
20.0319519 -19.8026638 126.7242508
20.7690449 -19.8020554 126.5523529
53.7612534 -20.6049309 100.5618057
-32.0862160 -21.8648491 106.7721786
-31.2956123 -21.8111477 107.8583374
-0.4780053 -20.6824875 127.1747360
0.2554029 -20.6672153 127.3008194
2.4393165 -20.6322517 127.6330032
3.1927314 -20.6240673 127.7436829
3.9228399 -20.6131840 127.8311081
6.1074009 -20.5851936 127.9897461
6.8331699 -20.5765762 128.0213776
7.5853066 -20.5698242 128.0541687
8.3083935 -20.5613632 128.0775757
9.0296297 -20.5523682 128.0806732
14.1529140 -20.5142441 127.8237305
17.0905685 -20.5056782 127.4356537
17.8296738 -20.5051556 127.3017120
18.5594864 -20.5017033 127.1593475
19.2926712 -20.5026855 127.0141983
20.0275745 -20.5054989 126.8563843
20.7712440 -20.5030861 126.6832047
53.7522278 -21.3176613 100.8486176
54.5938416 -21.3815041 99.1918640
-32.0669785 -22.5867119 106.9771805
-31.2888241 -22.5319481 108.0471497
-0.4881362 -21.3852615 127.2912140
0.2561913 -21.3706322 127.4192657
0.9947845 -21.3586960 127.5459976
1.7165765 -21.3474274 127.6563263
2.4426076 -21.3325863 127.7556152
3.2010987 -21.3246193 127.8733139
3.9087100 -21.3126888 127.9437027
8.3172731 -21.2608986 128.2006226
9.0261383 -21.2541332 128.2019348
9.7623491 -21.2463150 128.1896057
10.5014572 -21.2399597 128.1769562
11.2270765 -21.2344437 128.1474762
11.9617500 -21.2281551 128.1071472
14.1478281 -21.2159042 127.9467926
16.3534355 -21.2060833 127.6654358
17.0937710 -21.2048264 127.5544586
17.8245621 -21.2043648 127.4311676
20.0344391 -21.2022285 126.9752274
20.7680798 -21.2032127 126.8115311
21.4977608 -21.2066917 126.6402283
22.2476101 -21.2052307 126.4454498
23.0001392 -21.2075062 126.2282410
23.7067490 -21.2111244 126.0144424
24.4393921 -21.2147713 125.7911682
25.2056599 -21.2167130 125.5468674
53.7232056 -22.0322380 101.1514740
54.5964966 -22.0973511 99.4380569
-32.8549805 -23.3679371 106.0240479
-32.0473480 -23.3093815 107.1723557
-31.2845154 -23.2542877 108.2156067
-0.4898894 -22.0865116 127.3989410
0.2695349 -22.0729237 127.5351639
0.9918544 -22.0605698 127.6599579
1.7257752 -22.0498066 127.7657318
3.9002144 -22.0122681 128.0514221
4.6518288 -22.0059414 128.1217804
8.3079729 -21.9604416 128.3136902
9.0216122 -21.9532394 128.3096924
11.2259140 -21.9351921 128.2608643
11.9616642 -21.9291992 128.2259674
14.1489944 -21.9152927 128.0504150
14.8947277 -21.9135475 127.9624939
15.6376505 -21.9086494 127.8759613
16.3517895 -21.9072876 127.7820435
19.2903881 -21.9014149 127.2507858
20.0410538 -21.9036903 127.0946274
20.7749920 -21.9017181 126.9322205
21.5022869 -21.9032249 126.7621613
22.2460594 -21.9054909 126.5601654
23.7017574 -21.9110661 126.1314697
24.4492416 -21.9136848 125.9093246
25.2047272 -21.9187126 125.6680984
53.7211838 -22.7478523 101.3798981
54.5780258 -22.8142242 99.7025833
-32.0505753 -24.0325279 107.3167801
-31.2810173 -23.9762688 108.3591919
-0.4888583 -22.7892952 127.4998779
0.2757442 -22.7745075 127.6384430
0.9917152 -22.7617302 127.7554932
1.7192672 -22.7504692 127.8550873
8.3147392 -22.6612358 128.4097137
9.0251541 -22.6543655 128.4043427
11.2305393 -22.6344051 128.3667450
11.9712420 -22.6283932 128.3337860
12.6997356 -22.6233616 128.2889404
13.4352856 -22.6198864 128.2233124
14.1542397 -22.6149044 128.1419373
20.0420494 -22.6027279 127.2093048
20.7735825 -22.6029549 127.0435638
21.4977360 -22.6050396 126.8645477
24.4431553 -22.6152649 126.0204468
25.2086639 -22.6183929 125.7695084
53.7134895 -23.4632893 101.5925522
54.5717583 -23.5326595 99.9085693
55.4297104 -23.6051903 98.1231308
-32.0416222 -24.7563248 107.4594879
-31.2726612 -24.6988640 108.4947891
-0.4857752 -23.4909172 127.5939713
1.7283210 -23.4518890 127.9593658
2.4696813 -23.4408245 128.0673523
9.7743750 -23.3482418 128.4992828
10.5145435 -23.3405800 128.4861298
11.2322941 -23.3348122 128.4607239
11.9711437 -23.3299465 128.4274445
12.7060156 -23.3247223 128.3747559
13.4268284 -23.3208046 128.3092957
14.1522903 -23.3170147 128.2331238
22.9803581 -23.3097591 126.5494995
23.7032185 -23.3124352 126.3441391
24.4550705 -23.3147984 126.1086273
25.2058563 -23.3207512 125.8615112
53.7068062 -24.1802044 101.7849121
54.5294952 -24.2486935 100.1709442
-33.6435814 -25.6094799 105.2292938
-32.8281403 -25.5430107 106.4500351
-32.0308914 -25.4802818 107.5874863
-31.2412949 -25.4213448 108.6469040
-1.9271646 -24.2236404 127.3748932
-1.2031133 -24.2083130 127.5390091
-0.4749448 -24.1939926 127.6838913
5.4075131 -24.0972214 128.4741821
7.3056479 -24.0195732 129.6550446
9.7754116 -24.0479660 128.5877991
13.4370298 -24.0213757 128.3845520
14.1533365 -24.0171375 128.3201447
22.9850006 -24.0115013 126.6318359
23.7062263 -24.0138359 126.4283447
53.7066727 -24.8978806 101.9384766
54.5449066 -24.9686470 100.2983398
-32.8132324 -26.2686157 106.5610046
-32.0396118 -26.2061787 107.6640244
-31.2493019 -26.1460133 108.7261963
-1.9264845 -24.9273472 127.4425125
1.0113811 -24.8694267 128.0187683
9.0444307 -24.7566414 128.6578369
9.7766628 -24.7493744 128.6541138
22.9851265 -24.7121334 126.7140350
23.7201920 -24.7155762 126.4893265
53.7033615 -25.6167908 102.0780792
54.5415573 -25.6887970 100.4454803
-32.8035927 -26.9953270 106.6486282
-3.3899562 -25.6646481 127.1530228
-2.6595137 -25.6479092 127.3259430
-1.9197409 -25.6315804 127.5062332
8.3167629 -25.4663620 128.7163544
9.0359039 -25.4590130 128.7215881
23.7196598 -25.4175644 126.5475235
53.6949768 -26.3359165 102.2008286
54.5368042 -26.4092770 100.5710754
-32.7971344 -27.7230129 106.7147827
-3.3923621 -26.3696213 127.2048798
11.2409830 -26.1411495 128.7121582
11.9768858 -26.1347580 128.6903229
12.7201462 -26.1287670 128.6547241
23.7199039 -26.1198139 126.6144562
53.6825333 -27.0563660 102.2981110
54.5324020 -27.1315441 100.6569748
-32.7938423 -28.4516468 106.7606354
-3.3918498 -27.0753212 127.2428131
11.2482643 -26.8434486 128.7532959
11.9839144 -26.8374138 128.7241516
12.7169590 -26.8318596 128.6837158
23.7194786 -26.8223648 126.6640091
53.7045174 -27.7804222 102.3123245
54.5290260 -27.8547974 100.7234497
-32.7855873 -29.1804333 106.8004456
-3.3938704 -27.7817154 127.2706375
9.0468225 -27.5668182 128.8407745
11.2439346 -27.5461254 128.7934113
11.9732037 -27.5405006 128.7525330
12.7155237 -27.5350800 128.7093353
21.5094147 -27.5160351 127.3184052
22.2590866 -27.5188789 127.1165924
22.9967136 -27.5219841 126.9065552
23.7254906 -27.5262756 126.6886673
53.6898003 -28.5017109 102.3887939
54.5190201 -28.5778427 100.7916412
-32.7957954 -29.9120865 106.7901917
-3.3904798 -28.4883728 127.2901077
11.2485256 -28.2491665 128.8195343
22.9932194 -28.2263374 126.9282990
23.7127533 -28.2299480 126.7124710
53.6999283 -29.2265797 102.3902130
54.5402794 -29.3058929 100.7637558
-32.7967911 -30.6447639 106.7637177
-3.3813894 -29.1951733 127.3026276
-2.6423731 -29.1767673 127.4895325
-1.9052987 -29.1589584 127.6720123
-1.1888021 -29.1426086 127.8291092
6.1473188 -29.0095863 128.8031311
11.2557144 -28.9533997 128.8322754
11.9856148 -28.9470291 128.7959290
12.7206173 -28.9418392 128.7482758
13.4470482 -28.9375000 128.6811218
14.1720524 -28.9338264 128.6133270
23.7318096 -28.9349556 126.7204132
53.6921730 -29.9513912 102.3974533
54.5211220 -30.0302067 100.8045731
-32.7954063 -31.3780594 106.7216263
-32.0173721 -31.3079033 107.8247147
-31.2434082 -31.2411270 108.8681030
-1.8961685 -29.8654537 127.6718445
-1.1941780 -29.8499336 127.8252029
5.4180517 -29.7250862 128.7526245
9.7882433 -29.6711349 128.8788452
10.5280123 -29.6625824 128.8647614
11.2604361 -29.6567726 128.8387146
11.9879999 -29.6508980 128.8059998
12.7294130 -29.6459446 128.7563934
23.7192268 -29.6396427 126.7285080
24.4516182 -29.6438599 126.5086746
25.2068882 -29.6487045 126.2661667
25.9621353 -29.6556759 126.0057068
26.6871319 -29.6612568 125.7488327
53.7099609 -30.6792221 102.3471222
54.5262642 -30.7580833 100.7753143
-32.8015251 -32.1126480 106.6621246
-32.0150642 -32.0401039 107.7788849
-31.2370605 -31.9716110 108.8325348
-1.9054971 -30.5740833 127.6635284
-1.1782031 -30.5567265 127.8223114
5.4170389 -30.4319401 128.7390442
8.3387661 -30.3903522 128.8745422
9.0488081 -30.3832016 128.8789063
9.7914753 -30.3758984 128.8722839
10.5336599 -30.3701363 128.8541412
11.2616959 -30.3619690 128.8316498
11.9903593 -30.3551960 128.8014832
12.7263851 -30.3504143 128.7535095
23.0016556 -30.3406734 126.9280930
23.7289238 -30.3455524 126.7181320
25.9607201 -30.3606625 126.0087891
26.6979904 -30.3681965 125.7395477
53.7045937 -31.4060154 102.3052368
54.5495911 -31.4906921 100.6706390
-32.0204697 -32.7744370 107.7135086
-31.2499104 -32.7054863 108.7573700
-1.8963249 -31.2809181 127.6472473
-1.1858011 -31.2656498 127.7950516
1.7596112 -31.2024345 128.3029785
2.5026202 -31.1879025 128.4126740
5.4220276 -31.1382713 128.7185974
7.6143560 -31.1088696 128.8519592
8.3349476 -31.0990753 128.8537903
9.0550423 -31.0888329 128.8595581
12.7264481 -31.0552597 128.7342224
16.3884621 -31.0386906 128.3340302
17.1301594 -31.0354977 128.2316132
22.9984398 -31.0457096 126.9169540
23.7286644 -31.0515518 126.6997910
24.4612007 -31.0555801 126.4762497
25.9641380 -31.0679283 125.9891357
26.7036896 -31.0749874 125.7181549
53.7159424 -32.1383896 102.2035828
54.5531731 -32.2217216 100.5886841
-32.0058098 -33.5072632 107.6499786
-31.2433853 -33.4383202 108.6893005
-1.8996985 -31.9922447 127.6082535
-1.1884094 -31.9746189 127.7552948
-0.4571339 -31.9580116 127.9080963
1.7558756 -31.9128113 128.2703094
2.5012639 -31.8960381 128.3833008
5.4247894 -31.8447189 128.7008972
6.1543078 -31.8345013 128.7441864
8.3314056 -31.8056583 128.8270111
9.0461388 -31.7966042 128.8349152
12.7376432 -31.7634697 128.6999512
13.4533463 -31.7579250 128.6447449
14.1664076 -31.7521210 128.5911713
16.3885422 -31.7438850 128.3109131
19.3117752 -31.7425804 127.7862396
23.0082493 -31.7544308 126.8853989
23.7183113 -31.7574921 126.6811066
24.4686680 -31.7627792 126.4494934
25.2378235 -31.7703705 126.2016296
25.9569225 -31.7733421 125.9641495
26.7137184 -31.7824478 125.6891479
53.7314949 -32.8691177 102.0937958
54.5790100 -32.9576721 100.4429474
-32.0177803 -34.2460709 107.5241241
-31.2396679 -34.1734772 108.5926514
-0.4560505 -32.6662025 127.8731079
1.7650154 -32.6199455 128.2399292
2.4947081 -32.6060333 128.3455963
5.4314098 -32.5517921 128.6625214
6.1499233 -32.5430756 128.7037811
8.3407936 -32.5103912 128.7962646
9.0529680 -32.5020142 128.8054352
14.1708918 -32.4601135 128.5471191
16.3887405 -32.4490623 128.2769012
17.1314201 -32.4476929 128.1612701
17.8597736 -32.4487839 128.0366516
20.8106518 -32.4520683 127.4267120
21.5441132 -32.4545937 127.2421799
22.2822342 -32.4571190 127.0492859
23.0081997 -32.4598236 126.8533249
23.7282715 -32.4631271 126.6442261
53.7453537 -33.6014481 101.9690018
54.5811348 -33.6922379 100.3093872
-32.0183754 -34.9838791 107.3972626
-31.2397289 -34.9104500 108.4641571
-0.4392089 -33.3758354 127.8310928
0.3104766 -33.3587837 127.9766846
1.0451692 -33.3425446 128.0953064
1.7671134 -33.3276138 128.1960144
2.4970999 -33.3149719 128.2944946
3.2208762 -33.2984161 128.3979950
3.9405129 -33.2867432 128.4860535
4.6782675 -33.2751503 128.5511780
5.4250479 -33.2618179 128.6068115
6.1495738 -33.2490654 128.6539001
8.3414736 -33.2188797 128.7501678
9.0656548 -33.2103043 128.7590485
14.1871071 -33.1672211 128.4905701
14.9315577 -33.1667595 128.4023438
15.6729956 -33.1619186 128.3125610
16.3942795 -33.1577110 128.2173157
17.1411324 -33.1577911 128.1096954
17.8582592 -33.1537285 127.9976807
18.5888138 -33.1573715 127.8588257
19.3177948 -33.1557236 127.7107697
20.0717983 -33.1570282 127.5502396
20.8136883 -33.1589737 127.3786926
21.5407600 -33.1618462 127.2041779
22.2907028 -33.1642418 127.0116425
23.0136757 -33.1705246 126.8083115
23.7390060 -33.1746025 126.5879059
53.7516441 -34.3377457 101.8171844
54.5928116 -34.4306450 100.1346359
-31.2455521 -35.6483955 108.3140259
3.9412923 -33.9973297 128.4166870
4.6912098 -33.9801102 128.4959869
5.4346628 -33.9695969 128.5570068
6.1626792 -33.9591942 128.5992279
6.8962560 -33.9473228 128.6329346
7.6313310 -33.9378166 128.6661377
8.3473539 -33.9277573 128.6902771
9.0639830 -33.9190636 128.6974792
53.7603226 -35.0729446 101.6288300
54.6169510 -35.1722107 99.9095535
-31.2466469 -36.3867035 108.1647110
3.9593003 -34.7044106 128.3619080
6.1644835 -34.6683159 128.5314178
6.8985758 -34.6576538 128.5632172
