-56.1276703 184.3035736 -56.4673843
-54.3149376 184.1223755 -55.6669464
-52.4883003 183.9516754 -54.9454803
-50.6771507 183.7994690 -54.3360443
-48.8699226 183.6647034 -53.7893295
-47.0738640 183.5425720 -53.3283119
-45.2730637 183.4367218 -52.9447937
-43.4814606 183.3476715 -52.6454697
-41.7047729 183.2657166 -52.3928680
-38.1306038 183.1476440 -52.1332703
-36.3598175 183.1139984 -52.1180038
-34.5811234 183.0864868 -52.1534424
-32.8139725 183.0721283 -52.2587776
-31.0419159 183.0776672 -52.4590530
-29.2793255 183.0867920 -52.6915894
-27.5039520 183.1174622 -53.0170212
-25.7399616 183.1573486 -53.4072380
-23.9903946 183.2038574 -53.8501205
-22.2014141 183.2807312 -54.4065399
-20.4548187 183.3542175 -54.9926033
-18.6898556 183.4525909 -55.6966934
-16.9262657 183.5727539 -56.4903069
-15.1475878 183.7023010 -57.3631668
-13.3973083 183.8483429 -58.3273315
-11.6243229 184.0179291 -59.4058189
-9.8462191 184.2109222 -60.6181335
-8.0832520 184.4285431 -61.9355392
-6.3159332 184.6697388 -63.4002876
-4.5127993 184.9493408 -65.0404282
-0.9570809 185.6156006 -68.9518585
-71.1358109 184.7418060 -66.8471222
-67.2879868 183.9720306 -63.0795403
-65.3841934 183.6411591 -61.5053520
-63.5000381 183.3436737 -60.1060486
-61.6299782 183.0771484 -58.8534927
-59.7835464 182.8374634 -57.7544098
-57.9214020 182.6143951 -56.7487640
-56.0911522 182.4168243 -55.8623734
-54.2707634 182.2315216 -55.0681915
-52.4468994 182.0715637 -54.3764992
-50.6399002 181.9299622 -53.7863388
-48.8275146 181.7959290 -53.2572899
-47.0394096 181.6796570 -52.8131790
-45.2447433 181.5779724 -52.4410706
-43.4455261 181.4868469 -52.1382980
-41.6800499 181.4117279 -51.9070053
-39.8804398 181.3504944 -51.7532272
-38.1055832 181.2982483 -51.6574097
-36.3323479 181.2609558 -51.6359138
-34.5577049 181.2344055 -51.6680527
-32.7958107 181.2203674 -51.7759895
-31.0206757 181.2280884 -51.9777527
-29.2567177 181.2333679 -52.2008286
-25.7175179 181.2999725 -52.8987999
-23.9697533 181.3487244 -53.3535500
-22.1900921 181.4216309 -53.9032745
-20.4416771 181.4931488 -54.4874535
-18.6720963 181.5970612 -55.1830025
-16.8968372 181.7026672 -55.9445610
-15.1417027 181.8308411 -56.8119736
-13.3834381 181.9774628 -57.7682724
-11.6164446 182.1408691 -58.8257828
-9.8286457 182.3270111 -59.9957581
-8.0694351 182.5323639 -61.2737579
-6.2899346 182.7657166 -62.6943932
-4.5010171 183.0252533 -64.2766571
-2.7395027 183.3186493 -66.0363464
-0.9432280 183.6611481 -68.0398407
2.6626995 184.4928589 -72.8710175
-73.0460663 183.2320862 -68.2178040
-71.0657196 182.7784424 -65.9621582
-69.1372604 182.3883667 -64.0400543
-67.2224426 182.0413513 -62.3381042
-65.3283768 181.7280884 -60.8298111
-63.4547195 181.4473419 -59.4898376
-61.5748863 181.1842194 -58.2602692
-59.7417908 180.9576874 -57.1975632
-57.8798714 180.7380981 -56.2089157
-56.0494156 180.5476837 -55.3536530
-54.2406616 180.3737183 -54.5836296
-52.4136658 180.2156982 -53.9079132
-50.6092491 180.0746765 -53.3294182
-48.8001785 179.9430084 -52.8081894
-47.0126801 179.8323364 -52.3630829
-45.2152748 179.7291107 -52.0058365
-43.4195328 179.6437683 -51.7044258
-41.6469421 179.5702820 -51.4839020
-39.8518562 179.5078735 -51.3285179
-38.0824623 179.4584045 -51.2474670
-36.3096161 179.4263916 -51.2333603
-34.5360794 179.3967285 -51.2742920
-32.7756500 179.3934937 -51.4008865
-30.9938107 179.3946991 -51.5813980
-29.2343941 179.4007416 -51.8063354
-27.4559555 179.4244080 -52.1066055
-25.7029991 179.4639587 -52.4923210
-23.9509563 179.5128632 -52.9418640
-22.1736145 179.5812378 -53.4809875
-20.4255829 179.6536255 -54.0553703
-18.6574554 179.7440338 -54.7181549
-15.1287718 179.9761505 -56.3366241
-13.3610039 180.1200867 -57.2829514
-11.5920038 180.2768860 -58.3131790
-9.8067970 180.4582977 -59.4717026
-8.0564880 180.6526337 -60.6995430
-6.2870789 180.8703918 -62.0731277
-4.4971223 181.1269684 -63.6296692
-0.9328302 181.7294159 -67.2527466
0.8674014 182.1003723 -69.4372025
-71.0122604 180.8525238 -65.2454071
-69.0827484 180.4760437 -63.3851013
-67.1733704 180.1417542 -61.7372360
-65.2848434 179.8377991 -60.2653313
-63.4165688 179.5676727 -58.9592209
-61.5345688 179.3113556 -57.7570229
-59.7033997 179.0921173 -56.7218895
-57.8509789 178.8852539 -55.7790222
-56.0172920 178.6962891 -54.9281616
-54.2004471 178.5230408 -54.1672974
-52.3864594 178.3747864 -53.5227966
-50.5754623 178.2354431 -52.9459152
-46.9751549 177.9957123 -51.9989395
-45.1823578 177.9045258 -51.6581306
-43.3918571 177.8151550 -51.3533669
-41.6287727 177.7473907 -51.1507187
-39.8286209 177.6847229 -50.9971619
-38.0625458 177.6436462 -50.9265823
-36.2824516 177.6010742 -50.8949432
-34.5129814 177.5841370 -50.9516907
-32.7570038 177.5708923 -51.0689850
-30.9745197 177.5692444 -51.2440681
-29.2196827 177.5837708 -51.4844131
-27.4448662 177.6057739 -51.7887421
-25.6879997 177.6406250 -52.1628876
-23.9331455 177.6899872 -52.5946045
-20.4016838 177.8276062 -53.7049026
-18.6354027 177.9192810 -54.3717690
-16.8654747 178.0201721 -55.1128998
-15.1128502 178.1373138 -55.9348106
-13.3423986 178.2771912 -56.8725891
-11.5791073 178.4308167 -57.8873291
-6.2755904 179.0093231 -61.5934601
-4.4853892 179.2547302 -63.1106186
-2.7109656 179.5297394 -64.7873840
-0.9230757 179.8362122 -66.6468201
0.8605081 180.1817627 -68.7291641
-72.9140778 179.3499146 -66.6873474
-70.9585495 178.9433594 -64.6336212
-69.0490494 178.5915833 -62.8585892
-67.1306610 178.2604675 -61.2342682
-65.2476120 177.9686584 -59.7977257
-63.3696365 177.7038269 -58.5230255
-61.5026283 177.4636230 -57.3675957
-59.6715012 177.2431335 -56.3381042
-57.8264771 177.0455475 -55.4185104
-55.9934883 176.8654633 -54.5941772
-54.1769943 176.6981201 -53.8537750
-52.3610229 176.5475616 -53.2053528
-50.5566139 176.4112701 -52.6329041
-48.7502899 176.2898102 -52.1321983
-43.3803062 176.0061188 -51.1016159
-41.6127167 175.9364624 -50.8788757
-39.8136368 175.8748474 -50.7293777
-38.0381470 175.8330383 -50.6623344
-36.2720718 175.8006287 -50.6507263
-34.4999771 175.7732544 -50.6897430
-32.7427521 175.7670288 -50.8092117
-30.9601688 175.7643890 -50.9774780
-29.1938076 175.7761688 -51.2226753
-27.4262943 175.7972565 -51.5262756
-25.6729050 175.8330536 -51.8877945
-23.9216499 175.8809967 -52.3278160
-20.3898335 176.0156555 -53.4395409
-18.6196060 176.1059570 -54.0887032
-16.8635712 176.1983032 -54.8064461
-15.1103811 176.3202209 -55.6367493
-13.3318548 176.4575195 -56.5610428
-11.5677643 176.6021423 -57.5508347
-9.8051414 176.7733002 -58.6730652
-8.0398540 176.9612732 -59.8862381
-6.2658682 177.1633911 -61.1902237
-0.9114760 177.9673157 -66.1662979
0.8715284 178.2976379 -68.1821899
2.6830208 178.6857605 -70.5031204
4.4732194 179.1271362 -73.1345062
-72.8626556 177.4520264 -66.1444244
-70.9166641 177.0607910 -64.1483765
-68.9938049 176.7160339 -62.4046249
-67.0930634 176.4059143 -60.8481522
-65.2132111 176.1228333 -59.4568634
-63.3482552 175.8652954 -58.2000427
-61.4856262 175.6323700 -57.0700684
-59.6514397 175.4179840 -56.0560226
-57.7969170 175.2191010 -55.1338692
-55.9719696 175.0459595 -54.3338318
-54.1549377 174.8806152 -53.5986862
-52.3377151 174.7347260 -52.9578629
-50.5377617 174.6051331 -52.4020691
-48.7312050 174.4857483 -51.9165001
-46.9444313 174.3810425 -51.5081902
-45.1534653 174.2890320 -51.1682663
-41.5868721 174.1391907 -50.6895447
-39.8046799 174.0845032 -50.5471039
-38.0274811 174.0363617 -50.4615517
-36.2559891 174.0040588 -50.4501266
-34.4900284 173.9789276 -50.4966660
-30.9461460 173.9681702 -50.7781754
-27.4246902 174.0062714 -51.3338623
-25.6579380 174.0381317 -51.6954041
-23.9155998 174.0808411 -52.1183548
-22.1270084 174.1506042 -52.6633034
-20.3723412 174.2148743 -53.2147141
-18.6136055 174.3004150 -53.8619308
-16.8487511 174.4029846 -54.6014404
-15.0953140 174.5159760 -55.4191933
-13.3224058 174.6466980 -56.3174477
-11.5633869 174.7926331 -57.3086357
-9.8068848 174.9561768 -58.4054298
-8.0241299 175.1370544 -59.5921288
-6.2502918 175.3412628 -60.9036484
-4.4686275 175.5728455 -62.3758545
-0.9076275 176.1129303 -65.7643738
0.8785780 176.4341736 -67.7295837
2.6767642 176.8043518 -69.9852905
4.4907427 177.2381287 -72.5799713
-74.7720490 175.9997864 -67.9148560
-72.8277740 175.5815277 -65.7329254
-70.8853531 175.2066956 -63.7968140
-68.9554672 174.8661499 -62.0737953
-67.0692749 174.5670929 -60.5569649
-65.1858063 174.2912750 -59.1828918
-63.3162460 174.0389099 -57.9426193
-61.4560623 173.8121033 -56.8370056
-59.6219101 173.6043854 -55.8445969
-57.7759399 173.4112244 -54.9333153
-55.9569321 173.2400055 -54.1410294
-54.1412048 173.0809631 -53.4241791
-52.3251686 172.9403229 -52.7987709
-50.5164795 172.8076935 -52.2371292
-48.7161713 172.6921844 -51.7589760
-46.9284286 172.5888214 -51.3516922
-45.1331062 172.4989319 -51.0120926
-43.3461952 172.4207764 -50.7540550
-41.5810242 172.3557434 -50.5542450
-39.7891083 172.2996826 -50.4137268
-36.2416954 172.2245026 -50.3352661
-34.4657211 172.1990662 -50.3735313
-29.1810284 172.2015991 -50.9023094
-27.4101887 172.2210999 -51.2015533
-25.6518631 172.2579346 -51.5700836
-23.9005013 172.3016205 -51.9917984
-22.1202278 172.3622131 -52.5103760
-20.3670998 172.4319458 -53.0758896
-18.6108932 172.5155182 -53.7203979
-16.8506088 172.6091919 -54.4413986
-15.0815783 172.7250519 -55.2572021
-13.3108397 172.8508301 -56.1467285
-11.5602293 172.9900360 -57.1153984
-9.7835827 173.1522217 -58.1998978
-8.0125246 173.3326416 -59.3887062
-6.2488928 173.5285339 -60.6838875
-4.4619646 173.7543945 -62.1337471
-2.6915874 174.0019836 -63.7109146
-0.8908706 174.2877197 -65.4930115
0.8870142 174.5899811 -67.4006805
2.6840575 174.9521484 -69.6201477
4.4887381 175.3628693 -72.1275330
6.3065124 175.8438873 -75.0241547
-74.7375488 174.1352234 -67.5572052
-72.8009491 173.7308350 -65.4285812
-70.8625107 173.3679810 -63.5400314
-68.9387741 173.0383301 -61.8479156
-67.0398102 172.7411194 -60.3334846
-65.1624146 172.4734802 -58.9859009
-63.3045006 172.2291718 -57.7681503
-61.4408836 172.0068665 -56.6790771
-59.6029968 171.8014221 -55.6919556
-57.7669373 171.6168976 -54.8073196
-55.9347153 171.4456177 -54.0100555
-54.1263313 171.2930908 -53.3158798
-52.3030510 171.1527710 -52.6950645
-50.5142670 171.0278625 -52.1490898
-48.7016869 170.9100647 -51.6637840
-46.9256516 170.8146210 -51.2781410
-45.1224632 170.7227020 -50.9439926
-43.3356171 170.6484375 -50.6850204
-41.5615005 170.5796356 -50.4694595
-39.7840729 170.5270081 -50.3436127
-38.0076637 170.4836121 -50.2706375
-36.2320557 170.4500427 -50.2546844
-34.4633827 170.4270020 -50.2944527
-32.6999512 170.4174652 -50.4071884
-30.9307938 170.4148865 -50.5741196
-27.3969955 170.4551697 -51.1458282
-25.6485481 170.4860992 -51.5009232
-23.8939590 170.5311127 -51.9279366
-22.1078320 170.5900574 -52.4348373
-20.3595524 170.6574707 -53.0049133
-18.5959167 170.7388611 -53.6457291
-16.8397274 170.8335114 -54.3540115
-15.0732622 170.9435425 -55.1623268
-13.3021374 171.0686035 -56.0434418
-11.5486145 171.2058105 -57.0030746
-9.7776299 171.3618164 -58.0795212
-8.0031509 171.5415344 -59.2753754
-6.2403483 171.7351227 -60.5558319
-4.4516764 171.9522095 -61.9753189
-2.6844954 172.1937256 -63.5365677
-0.8926470 172.4708099 -65.2950439
0.8942045 172.7714844 -67.1948471
2.6931424 173.1223755 -69.3758087
4.5001097 173.5217133 -71.8348236
6.3056402 173.9816742 -74.6466827
-76.7045975 172.7474823 -69.7548370
-74.7132263 172.2951355 -67.3300095
-72.7752075 171.8983765 -65.2240677
-70.8342514 171.5436859 -63.3702774
-68.9199753 171.2252960 -61.7086411
-67.0299225 170.9369659 -60.2250137
-65.1531830 170.6725464 -58.8775482
-63.2814255 170.4327698 -57.6784134
-61.4274368 170.2169647 -56.6094055
-59.5945129 170.0176086 -55.6346893
-57.7454834 169.8336182 -54.7543106
-55.9195061 169.6654816 -53.9637833
-54.1111717 169.5153046 -53.2728577
-52.2992897 169.3801880 -52.6634750
-48.6934204 169.1451416 -51.6504707
-46.9085159 169.0447235 -51.2551956
-45.1162567 168.9563751 -50.9167290
-41.5577164 168.8184814 -50.4713783
-39.7762299 168.7673340 -50.3432999
-37.9931107 168.7233276 -50.2623787
-36.2304001 168.6896820 -50.2449265
-29.1711082 168.6714478 -50.8359528
-25.6352005 168.7265320 -51.4944229
-23.8821487 168.7707977 -51.9250679
-22.1070690 168.8287659 -52.4359894
-20.3579597 168.8933716 -52.9907875
-18.5861511 168.9761200 -53.6289444
-16.8274269 169.0704193 -54.3447876
-15.0653057 169.1773987 -55.1448059
-13.2948875 169.3020172 -56.0374527
-11.5424099 169.4381714 -56.9940414
-9.7667618 169.5917206 -58.0597229
-8.0026169 169.7624969 -59.2286873
-6.2336621 169.9548492 -60.5061722
-4.4517918 170.1663513 -61.9073334
-2.6738253 170.4031067 -63.4552002
-0.8824390 170.6726074 -65.1880417
0.9000708 170.9687347 -67.0791473
2.7027020 171.3081207 -69.2178574
4.5132766 171.6984253 -71.6502075
6.3030901 172.1378784 -74.3773956
8.1474018 172.6867065 -77.7285461
-76.6873474 170.9124908 -69.5867462
-74.6929321 170.4691162 -67.1876755
-72.7586975 170.0860291 -65.1335678
-70.8249512 169.7412720 -63.3056030
-68.9088821 169.4263306 -61.6532440
-67.0242767 169.1471710 -60.1944504
-65.1382675 168.8861084 -58.8595314
-63.2720261 168.6530609 -57.6754990
-61.4175682 168.4394836 -56.6058693
-59.5886116 168.2430725 -55.6387901
-57.7428055 168.0631256 -54.7665482
-55.9208450 167.9018555 -53.9993248
-54.1086617 167.7532349 -53.3052979
-52.2907486 167.6169739 -52.6863785
-50.4873428 167.4951172 -52.1507034
-48.6863976 167.3860016 -51.6922760
-46.9091263 167.2910919 -51.3016129
-41.5529785 167.0661011 -50.5159836
-39.7693863 167.0158844 -50.3926468
-36.2227478 166.9417114 -50.3140106
-23.8689289 167.0241394 -51.9937401
-22.1002445 167.0807648 -52.5035362
-20.3532219 167.1453400 -53.0529709
-18.5850391 167.2212677 -53.6720352
-16.8229389 167.3166656 -54.4002800
-15.0643778 167.4223328 -55.1933975
-13.2936621 167.5461426 -56.0874252
-11.5448399 167.6747894 -57.0174713
-9.7685995 167.8290710 -58.0893173
-7.9974709 168.0009308 -59.2669983
-6.2299771 168.1863556 -60.5298691
-4.4473443 168.3978577 -61.9357643
-2.6753674 168.6262207 -63.4560585
-0.8718636 168.8905334 -65.1691132
0.9070160 169.1830444 -67.0573120
2.7020206 169.5133514 -69.1701202
4.5131483 169.8904114 -71.5519104
6.3165174 170.3291168 -74.2943954
8.1560650 170.8593597 -77.5751648
-76.6753235 169.0973969 -69.5329208
-74.6952515 168.6696320 -67.1923523
-72.7521667 168.2909546 -65.1408920
-70.8142548 167.9500427 -63.3121872
-68.8993988 167.6434479 -61.6864929
-67.0112381 167.3654785 -60.2263336
-65.1357117 167.1145020 -58.9218216
-63.2719421 166.8835297 -57.7378998
-61.4102478 166.6733398 -56.6726570
-59.5885239 166.4823303 -55.7217331
-57.7355576 166.3040161 -54.8499298
-55.9092636 166.1438599 -54.0765839
-54.1076965 165.9985504 -53.3925095
-52.2965508 165.8666077 -52.7878151
-50.4828110 165.7456055 -52.2491226
-48.6866455 165.6391296 -51.7926292
-46.8943748 165.5442657 -51.4084015
-45.1066322 165.4595337 -51.0823212
-43.3155899 165.3862762 -50.8173294
-41.5386353 165.3229675 -50.6241722
-39.7652855 165.2719116 -50.4934959
-36.2164383 165.1996002 -50.4107780
-23.8685341 165.2803955 -52.0984726
-22.1025982 165.3376160 -52.6061592
-20.3440285 165.4055023 -53.1754837
-18.5812569 165.4809875 -53.7960281
-16.8180695 165.5717926 -54.5063858
-15.0522642 165.6779480 -55.3083420
-13.2819195 165.7981415 -56.1902771
-11.5366459 165.9295654 -57.1401443
-9.7584972 166.0807800 -58.2056274
-7.9936390 166.2459259 -59.3595390
-6.2184443 166.4289398 -60.6164131
-4.4450545 166.6370544 -62.0183868
-2.6564655 166.8684540 -63.5626945
-0.8716444 167.1251373 -65.2551727
0.9045565 167.4099731 -67.1181335
2.7172284 167.7355652 -69.2174225
6.3264494 168.5360413 -74.3096085
8.1572971 169.0471497 -77.5145874
-76.6692963 167.3024445 -69.5987244
-74.6900635 166.8816376 -67.2692642
-72.7430115 166.5080261 -65.2230682
-70.8054733 166.1744690 -63.4152565
-68.8926010 165.8735657 -61.7995682
-67.0073624 165.6018677 -60.3575706
-65.1335907 165.3547668 -59.0585327
-63.2759552 165.1297913 -57.8910980
-61.4008904 164.9188232 -56.8131256
-59.5885315 164.7316589 -55.8665085
-57.7397537 164.5579071 -55.0070457
-55.9121971 164.4001617 -54.2400513
-54.1023102 164.2552795 -53.5502701
-52.2855759 164.1234741 -52.9395370
-50.4937630 164.0083008 -52.4214020
-48.6836548 163.9029846 -51.9673920
-46.8942490 163.8082123 -51.5744476
-45.1063461 163.7249603 -51.2485542
-43.3133774 163.6524353 -50.9929504
-39.7662125 163.5424194 -50.6747284
-37.9978714 163.5042877 -50.6192322
-34.4450073 163.4511108 -50.6490021
-32.6862793 163.4435120 -50.7759514
-23.8691730 163.5483551 -52.2616463
-22.1018238 163.6063843 -52.7768593
-20.3457832 163.6723785 -53.3441849
-16.8223019 163.8383789 -54.6819420
-15.0510559 163.9450226 -55.4910583
-13.2810802 164.0630798 -56.3701630
-11.5336342 164.1936340 -57.3222618
-9.7567139 164.3422852 -58.3864822
-7.9868541 164.5066071 -59.5424652
-6.2094727 164.6880341 -60.8008652
-4.4329057 164.8931274 -62.2017670
-2.6578660 165.1194763 -63.7296524
-0.8690560 165.3715363 -65.4134369
0.9164048 165.6524811 -67.2691116
2.7177260 165.9731293 -69.3641357
4.5215406 166.3402863 -71.7379608
6.3261986 166.7607727 -74.4312668
8.1596613 167.2630920 -77.6166687
9.9935246 167.8836212 -81.5105209
-76.6809998 165.5272217 -69.7822647
-74.6919174 165.1083374 -67.4383087
-72.7561188 164.7466736 -65.4348145
-70.8156357 164.4165192 -63.6235809
-68.9105148 164.1207886 -62.0168877
-67.0134506 163.8488007 -60.5537872
-65.1422653 163.6059875 -59.2651443
-63.2791138 163.3832703 -58.0964050
-61.4121437 163.1767731 -57.0265923
-59.5953560 162.9928589 -56.0885124
-57.7461128 162.8214111 -55.2299500
-55.9176064 162.6654510 -54.4631081
-54.1115799 162.5221252 -53.7700348
-52.2982407 162.3941498 -53.1704941
-50.4894943 162.2794342 -52.6514130
-48.6964111 162.1761475 -52.1995239
-46.9031982 162.0843353 -51.8175583
-45.1043930 161.9995270 -51.4813766
-43.3126907 161.9284363 -51.2224464
-41.5555420 161.8711548 -51.0431137
-39.7640381 161.8198853 -50.9114609
-37.9948387 161.7819061 -50.8505402
-36.2221260 161.7499847 -50.8292923
-34.4481163 161.7313080 -50.8874359
-32.6819229 161.7231445 -51.0101585
-13.2831039 162.3361816 -56.6038818
-11.5264959 162.4656067 -57.5594025
-9.7477646 162.6120605 -58.6193390
-7.9791527 162.7747040 -59.7763252
-6.2136126 162.9555664 -61.0426674
-4.4355125 163.1565094 -62.4326782
-2.6543045 163.3825684 -63.9738693
-0.8616406 163.6326599 -65.6639633
0.9185475 163.9124603 -67.5311737
2.7236891 164.2299500 -69.6292725
4.5253472 164.5905151 -71.9881668
6.3371248 165.0065308 -74.6832886
8.1737976 165.5068054 -77.8917007
-76.6956711 163.7673035 -70.0656738
-74.6929626 163.3516846 -67.7120056
-72.7629318 162.9954987 -65.7164154
-70.8235016 162.6700439 -63.9088287
-68.9189606 162.3764954 -62.2945023
-67.0214462 162.1084747 -60.8349075
-65.1515961 161.8689117 -59.5483208
-63.2873917 161.6488647 -58.3791313
-61.4203606 161.4456329 -57.3134384
-59.5977859 161.2619171 -56.3648224
-57.7548523 161.0946655 -55.5177917
-55.9306107 160.9404144 -54.7496567
-54.1173477 160.7994080 -54.0600433
-52.3004646 160.6742706 -53.4689941
-50.4982834 160.5590820 -52.9379730
-48.6957474 160.4553986 -52.4761353
-46.9142113 160.3660889 -52.1020508
-45.1153374 160.2833252 -51.7681198
-43.3237839 160.2142487 -51.5189438
-37.9980965 160.0674133 -51.1327553
-36.2228546 160.0375366 -51.1238861
-34.4421196 160.0196228 -51.1830864
-11.5249252 160.7468567 -57.8585510
-9.7431488 160.8934326 -58.9285393
-7.9764528 161.0561371 -60.0972061
-6.2125630 161.2341309 -61.3586655
-4.4259510 161.4349823 -62.7621078
-2.6544905 161.6570435 -64.2945251
-0.8629693 161.9063873 -65.9964523
0.9260895 162.1828918 -67.8642502
2.7213902 162.4958801 -69.9550476
4.5385795 162.8587189 -72.3561172
6.3434043 163.2709198 -75.0566406
8.1732607 163.7651062 -78.2614136
-76.7049484 162.0228729 -70.4515457
-74.7249298 161.6159515 -68.1200867
-72.7847290 161.2592468 -66.0946045
-70.8405838 160.9342041 -64.2657242
-68.9334793 160.6460266 -62.6621246
-67.0388641 160.3825836 -61.2110748
-65.1669312 160.1456757 -59.9221992
-63.3017807 159.9266968 -58.7439575
-61.4377480 159.7247162 -57.6737556
-59.6088753 159.5439911 -56.7251930
-57.7687531 159.3767242 -55.8680992
-55.9364319 159.2236938 -55.0926743
-54.1346359 159.0863647 -54.4173279
-52.3178749 158.9597778 -53.8074036
-50.5126801 158.8471069 -53.2824783
-48.7059135 158.7456970 -52.8277016
-46.9164505 158.6551666 -52.4398422
-45.1215858 158.5758057 -52.1184120
-43.3382835 158.5076599 -51.8686409
-41.5606270 158.4480896 -51.6695557
-39.7800293 158.4008789 -51.5534210
-38.0026665 158.3628540 -51.4823685
-7.9769058 159.3475952 -60.4895477
-6.2082806 159.5240479 -61.7533646
-4.4283605 159.7243958 -63.1673355
-2.6441510 159.9446106 -64.7067947
-0.8575550 160.1922302 -66.4138794
2.7328141 160.7828217 -70.4232178
4.5415974 161.1383667 -72.8025208
6.3484163 161.5507507 -75.5332184
8.1885824 162.0475616 -78.7936859
-76.7421722 160.2978058 -70.9662094
-74.7593536 159.8916016 -68.6110306
-72.8108215 159.5365906 -66.5668869
-70.8675385 159.2144470 -64.7332306
-68.9659424 158.9296417 -63.1296806
-67.0625763 158.6674805 -61.6653786
-65.1835861 158.4298706 -60.3521080
-63.3207245 158.2127228 -59.1724167
-61.4620514 158.0146790 -58.1082382
-59.6305733 157.8357849 -57.1589508
-57.7789345 157.6685486 -56.2858200
-55.9557724 157.5176086 -55.5160675
-54.1497726 157.3803711 -54.8288574
-52.3294754 157.2573242 -54.2291832
-50.5257339 157.1463928 -53.7035255
-48.7187195 157.0448303 -53.2426300
-46.9340515 156.9562836 -52.8571930
-45.1384926 156.8763428 -52.5312271
-43.3403435 156.8070984 -52.2660942
-6.2030401 157.8263397 -62.2375298
-4.4244099 158.0245056 -63.6505394
-2.6420743 158.2438354 -65.2004700
-0.8484008 158.4889832 -66.9102249
0.9379153 158.7686157 -68.8373489
2.7269704 159.0773315 -70.9424820
4.5508890 159.4362488 -73.3778534
6.3488145 159.8456116 -76.1153946
-76.7742233 158.5876770 -71.5912476
-74.7763519 158.1790466 -69.1839905
-72.8485260 157.8287659 -67.1494370
-70.8956680 157.5078430 -65.2923889
-68.9906158 157.2223816 -63.6655388
-67.0877838 156.9615936 -62.1883011
-65.2124786 156.7266541 -60.8776245
-63.3440056 156.5101013 -59.6762009
-61.4822388 156.3132629 -58.6025696
-59.6477623 156.1346741 -57.6487236
-57.8012466 155.9696198 -56.7742081
-55.9770889 155.8204803 -56.0059891
-54.1629372 155.6857910 -55.3195953
-52.3481331 155.5624695 -54.7080154
-50.5488853 155.4516449 -54.1853409
-48.7343369 155.3517914 -53.7187538
-46.9438171 155.2626343 -53.3257217
-45.1503143 155.1856079 -53.0023689
-43.3586731 155.1180267 -52.7482910
-41.5918159 155.0624390 -52.5658226
-39.7971001 155.0158081 -52.4366379
-2.6449735 156.5535583 -65.7648010
-0.8449805 156.8019104 -67.5221100
0.9385746 157.0767822 -69.4368744
2.7437706 157.3883820 -71.5991821
6.3650293 158.1663818 -76.8872528
-74.8297882 156.4874878 -69.9138947
-72.8819962 156.1335602 -67.8207092
-70.9361115 155.8129120 -65.9434509
-69.0187531 155.5245361 -64.2723541
-67.1261215 155.2687836 -62.8059387
-65.2438965 155.0348663 -61.4862251
-63.3752213 154.8188782 -60.2697830
-61.5035172 154.6213379 -59.1800690
-59.6757965 154.4433594 -58.2113266
-57.8311081 154.2789612 -57.3310738
-55.9974976 154.1314697 -56.5550690
-54.1915512 153.9988708 -55.8765602
-52.3656044 153.8746948 -55.2537422
-50.5608521 153.7664948 -54.7243576
-48.7527199 153.6671753 -54.2619934
-46.9668922 153.5787354 -53.8656769
-45.1686897 153.5009613 -53.5361252
-43.3723984 153.4351196 -53.2819939
-41.6048050 153.3804626 -53.0968933
0.9406993 155.3969727 -70.1321106
2.7460144 155.7140350 -72.3476868
4.5550933 156.0780487 -74.8617859
-74.8832474 154.8070374 -70.7271957
-72.9358673 154.4510651 -68.6002045
-70.9875183 154.1289063 -66.6890488
-69.0595245 153.8431091 -64.9980240
-67.1640244 153.5850983 -63.5077820
-65.2745819 153.3498993 -62.1505280
-63.4087524 153.1348572 -60.9297638
-61.5412064 152.9393311 -59.8376465
-59.7099495 152.7630768 -58.8565521
-57.8577728 152.5980225 -57.9607582
-56.0261345 152.4512939 -57.1802521
-54.2151146 152.3193970 -56.4909134
-52.3883972 152.1972046 -55.8625259
-50.5817032 152.0882416 -55.3269463
-48.7784424 151.9890289 -54.8599739
-46.9860916 151.9025879 -54.4610062
-45.1943588 151.8279419 -54.1494675
-43.3996391 151.7598114 -53.8843002
-41.6298790 151.7054138 -53.6950455
6.3626509 154.8476257 -78.7182617
-72.9916077 152.7819214 -69.4788437
-71.0336227 152.4588013 -67.5304031
-69.1226044 152.1737518 -65.8355103
-67.2083435 151.9136353 -64.2992630
-65.3218460 151.6777954 -62.9244957
-63.4481392 151.4629211 -61.6777649
-61.5862732 151.2666931 -60.5725555
-59.7427979 151.0895691 -59.5707169
-57.8921394 150.9274902 -58.6772537
-56.0622177 150.7812347 -57.8866882
-54.2442627 150.6484222 -57.1819572
-52.4181480 150.5248413 -56.5452728
-50.6079140 150.4167938 -56.0019989
-48.8075905 150.3183746 -55.5331573
-47.0086174 150.2343750 -55.1292419
-45.2087021 150.1588287 -54.8068619
-43.4142494 150.0938110 -54.5425987
-41.6408730 150.0391235 -54.3456688
-73.0428009 151.1248779 -70.4607010
-71.0910797 150.8008270 -68.4810791
-69.1716614 150.5120087 -66.7361298
-63.4929276 149.8011017 -62.5251312
-61.6169853 149.6038361 -61.3718872
17.5324249 113.6485596 143.8455353
18.9587421 113.5889359 144.1237793
20.3889275 113.5483932 144.2809448
21.8329773 113.5233078 144.3220673
23.2670670 113.5170364 144.2122345
24.7078934 113.5381012 143.9516907
26.1614075 113.5680389 143.5852661
11.7697878 112.1554871 145.2319031
13.1937695 112.0361023 145.9434357
14.6168385 111.9358597 146.5233459
16.0391960 111.8551941 146.9630737
17.4723091 111.7856674 147.3026733
18.8972969 111.7360687 147.5238342
20.3128796 111.7018127 147.6454926
21.7536163 111.6754532 147.6786041
23.1805801 111.6727829 147.5822144
24.6228485 111.6781158 147.4015503
26.0608101 111.7026062 147.1021729
27.5032825 111.7357330 146.7109375
28.9499054 111.7983551 146.1557770
30.4090767 111.8741455 145.4834442
10.3103533 110.4742050 147.5879517
11.7352152 110.3532410 148.3093872
13.1518621 110.2510986 148.9028931
14.5782661 110.1634521 149.3896637
15.9947472 110.0911102 149.7726440
17.4242725 110.0361176 150.0503845
18.8481941 109.9861984 150.2610168
20.2668190 109.9547424 150.3635101
21.6991425 109.9355011 150.3795471
23.1154613 109.9233093 150.3179626
24.5497875 109.9333496 150.1400757
25.9836082 109.9475937 149.8921356
27.4188881 109.9761810 149.5541687
28.8612328 110.0187302 149.1005707
30.3100052 110.0812759 148.5284271
31.7660561 110.1588287 147.8459473
33.2097893 110.2518692 147.0402527
34.6866455 110.3737411 146.0431824
7.4598336 108.9950333 148.6374512
8.8729887 108.8624115 149.4831238
10.2956676 108.7400436 150.2209167
11.7152605 108.6401367 150.8281708
13.1269341 108.5497131 151.3470917
14.5468311 108.4716873 151.7777405
15.9613705 108.4105988 152.1101990
17.3876381 108.3534317 152.3777466
18.8041306 108.3120041 152.5559845
23.0617275 108.2515717 152.6005554
24.4947224 108.2468262 152.4732513
25.9229298 108.2614059 152.2489624
27.3492928 108.2881317 151.9367676
28.7872276 108.3260956 151.5247040
30.2271595 108.3739319 151.0405273
31.6825466 108.4365234 150.4544067
33.1144409 108.5171509 149.7446289
34.5821533 108.6168594 148.8997803
36.0592461 108.7295456 147.9407654
3.1684399 107.7672348 148.0165100
4.6003585 107.5932465 149.1602478
6.0169449 107.4459610 150.1357422
7.4504738 107.3051529 151.0272980
8.8632631 107.1816940 151.7860870
10.2788067 107.0783157 152.4307556
11.6968937 106.9849548 152.9873047
13.1074944 106.9055176 153.4557190
14.5256214 106.8294525 153.8588257
15.9348440 106.7702713 154.1646118
17.3576870 106.7204514 154.3995514
18.7718105 106.6831665 154.5519104
23.0240326 106.6242065 154.5986481
24.4492531 106.6226883 154.4766541
25.8733368 106.6339645 154.2651978
27.2924557 106.6512375 153.9859467
28.7205334 106.6846161 153.6258087
30.1565933 106.7261658 153.1890106
31.6065807 106.7836990 152.6437073
33.0469475 106.8479004 152.0246277
34.4961472 106.9328461 151.2877502
35.9562569 107.0269928 150.4460602
37.4159660 107.1455841 149.4552155
1.7402599 106.2565002 149.2136841
3.1786373 106.0843658 150.3811035
4.5980740 105.9301605 151.3928223
6.0213380 105.7889404 152.2985535
7.4432278 105.6661530 153.0837250
8.8530445 105.5612564 153.7588501
10.2647896 105.4611359 154.3625793
11.6844749 105.3750763 154.8722229
13.0860348 105.2965164 155.3087769
14.5067301 105.2339172 155.6693420
15.9097309 105.1774139 155.9549255
17.3390999 105.1329346 156.1701813
18.7419033 105.0945587 156.3188782
20.1565056 105.0624313 156.4146729
21.5759144 105.0474319 156.4179230
22.9866638 105.0314026 156.3750610
24.4031734 105.0359344 156.2400208
25.8269863 105.0432510 156.0543976
27.2452259 105.0590515 155.7948914
28.6737823 105.0879135 155.4647675
30.1044350 105.1271133 155.0500336
31.5437355 105.1735306 154.5623932
32.9720612 105.2318039 153.9981232
34.4204636 105.3009109 153.3355713
35.8859444 105.3858719 152.5690155
37.3311157 105.4862518 151.6889648
38.7951431 105.6083221 150.6697388
40.2755356 105.7416153 149.5269165
41.7727852 105.9037628 148.1958618
0.3273281 104.7764969 150.1896210
1.7509499 104.6079712 151.3627930
3.1804330 104.4449921 152.4254150
4.6001363 104.3077240 153.3413849
6.0112686 104.1825409 154.1618042
7.4344978 104.0715561 154.8811646
8.8497629 103.9669876 155.5256653
10.2565289 103.8813858 156.0679169
11.6686735 103.7995911 156.5469360
13.0723476 103.7334900 156.9423218
14.4893465 103.6674805 157.2901917
15.8938770 103.6165466 157.5553894
17.3105965 103.5697937 157.7619629
18.7165718 103.5367661 157.8984070
20.1229897 103.5082703 157.9783325
21.5482121 103.4912643 157.9934082
22.9534359 103.4773865 157.9510651
24.3669300 103.4790802 157.8381348
25.7854176 103.4808426 157.6626587
27.2054558 103.5005646 157.4096985
28.6267242 103.5232697 157.0989685
30.0489235 103.5543289 156.7185669
31.4844685 103.6008911 156.2609100
32.9123154 103.6511154 155.7375488
34.3553581 103.7173767 155.1235657
35.8099747 103.7897034 154.4179077
37.2533798 103.8790741 153.6192017
38.7120895 103.9809418 152.7011108
40.1856155 104.1042938 151.6603851
43.1502075 104.4050522 149.1152344
-2.5276537 103.5268097 149.5775452
-1.0959258 103.3330536 150.9362946
0.3358927 103.1553345 152.1593628
1.7638903 102.9946747 153.2434692
3.1817760 102.8583298 154.1898346
4.6042910 102.7259445 155.0555115
6.0123429 102.6136169 155.8085480
7.4332004 102.5073395 156.4898071
8.8392439 102.4128571 157.0817261
10.2483387 102.3310776 157.5981598
11.6594152 102.2495651 158.0608215
13.0611849 102.1848145 158.4384766
14.4722338 102.1292114 158.7549438
15.8762169 102.0794525 159.0030365
17.2891979 102.0379105 159.1971283
18.6948128 102.0004196 159.3360291
20.1006985 101.9788132 159.4013977
21.5219154 101.9620056 159.4093323
22.9195557 101.9474335 159.3717346
24.3361645 101.9433365 159.2690125
25.7528591 101.9479294 159.1047058
27.1625843 101.9639435 158.8720245
28.5900574 101.9837341 158.5796204
30.0076866 102.0169678 158.2145386
31.4438210 102.0539780 157.7849426
32.8631439 102.1000366 157.2934113
34.3060837 102.1583328 156.7171326
35.7471962 102.2336273 156.0477600
37.1859550 102.3113327 155.3009033
38.6462021 102.4077301 154.4448242
40.1014709 102.5106201 153.5091705
41.5796852 102.6302643 152.4411316
43.0523338 102.7771454 151.2078400
44.5494118 102.9377975 149.8379974
-2.5024612 101.9063110 151.5364990
-1.0842433 101.7327194 152.7661743
0.3504166 101.5715332 153.8918610
1.7634275 101.4309616 154.8761292
3.1903713 101.2920380 155.7901764
4.6020923 101.1762238 156.5819397
6.0056381 101.0716019 157.2884674
7.4291401 100.9680405 157.9399414
8.8332720 100.8803329 158.5013275
10.2366161 100.8025513 158.9882202
11.6513014 100.7312012 159.4143066
13.0499430 100.6671295 159.7818756
14.4605923 100.6122894 160.0794373
15.8636808 100.5673828 160.3161621
17.2748604 100.5251083 160.5058441
18.6783314 100.4957504 160.6318207
20.0787086 100.4683990 160.6940002
21.4925709 100.4481277 160.7037506
22.8955383 100.4431839 160.6545868
24.3053818 100.4402390 160.5535278
25.7229195 100.4446487 160.3937531
27.1284599 100.4530029 160.1861267
28.5556068 100.4685974 159.9167480
29.9716377 100.4999847 159.5725403
31.3967075 100.5336151 159.1685791
32.8108978 100.5775452 158.6968384
34.2542076 100.6328430 158.1506653
35.6927605 100.6934128 157.5277557
37.1241302 100.7719574 156.8132935
38.5783577 100.8522644 156.0330505
40.0366631 100.9501419 155.1599121
41.5004578 101.0624008 154.1522217
42.9688530 101.1922226 153.0199890
44.4507751 101.3323364 151.7835999
-3.9242506 100.5086823 151.9342346
-2.4894509 100.3283310 153.2342224
-1.0735104 100.1671295 154.3817291
0.3611806 100.0138092 155.4332886
1.7726190 99.8852234 156.3543396
3.1916401 99.7619934 157.2072449
4.6085806 99.6493988 157.9634094
6.0092826 99.5474091 158.6409607
7.4297738 99.4566040 159.2464447
8.8305979 99.3710175 159.7796021
10.2360811 99.2936020 160.2552948
14.4485006 99.1165466 161.2905273
15.8480988 99.0703583 161.5219116
17.2594032 99.0342026 161.6956329
18.6619225 99.0031891 161.8126831
20.0523720 98.9796066 161.8745117
21.4747772 98.9630508 161.8809052
28.5173779 98.9820862 161.1150513
29.9318733 99.0015564 160.8059998
31.3611431 99.0385818 160.4069214
32.7758598 99.0784302 159.9623718
34.2126198 99.1272354 159.4425659
35.6490173 99.1896515 158.8411560
37.0740585 99.2543411 158.1780853
38.5229034 99.3312683 157.4410095
39.9707451 99.4151306 156.6311951
41.4385300 99.5223160 155.6716919
42.8968658 99.6387177 154.6280060
44.3697853 99.7673569 153.4720917
45.8679810 99.9169769 152.1531677
47.3597717 100.0887451 150.6637573
-6.7748995 99.3311005 150.7031860
-3.9068487 98.9475250 153.5314636
-2.4748676 98.7800751 154.7455139
-1.0567662 98.6304626 155.8179321
0.3638839 98.4943771 156.7887115
1.7810055 98.3686829 157.6818542
3.1994777 98.2469330 158.4989777
4.6115608 98.1446381 159.2125549
6.0163660 98.0485077 159.8610535
7.4231396 97.9578094 160.4431763
8.8230810 97.8824463 160.9443665
10.2309513 97.8125763 161.3947296
14.4400206 97.6378708 162.3968506
15.8395109 97.5973206 162.6139984
17.2445564 97.5587845 162.7880707
18.6439476 97.5294495 162.8974152
20.0376930 97.5036163 162.9584656
21.4529037 97.4920502 162.9642639
28.4838524 97.5033722 162.2337646
29.9006386 97.5272675 161.9167938
31.3272095 97.5553589 161.5452576
32.7401962 97.5964508 161.1142731
34.1650238 97.6403275 160.6240997
35.6026955 97.6982880 160.0491943
37.0239029 97.7547150 159.4290466
38.4751778 97.8314438 158.7123108
39.9170837 97.9160004 157.9209290
41.3721085 98.0082550 157.0424347
42.8366127 98.1141510 156.0589905
44.3015785 98.2317657 154.9710388
45.7981949 98.3727188 153.7277069
47.2742004 98.5274734 152.3562012
-6.7546792 97.7686691 152.3071594
-5.3187280 97.5805130 153.6991882
-3.8886430 97.4113235 154.9609985
-2.4574409 97.2542267 156.1034698
-1.0435859 97.1148529 157.1205597
0.3774746 96.9861298 158.0488739
1.7944403 96.8657761 158.8973083
3.2063580 96.7576447 159.6609650
4.6147442 96.6579132 160.3497772
6.0118041 96.5682602 160.9645691
7.4292936 96.4827881 161.5249634
8.8251572 96.4068527 162.0130463
10.2298527 96.3400116 162.4452209
11.6339874 96.2751160 162.8239746
13.0263920 96.2241669 163.1395569
14.4303541 96.1754150 163.4095459
15.8283539 96.1329117 163.6236572
17.2302990 96.1016769 163.7830200
18.6307583 96.0731049 163.8834076
20.0271664 96.0482025 163.9528198
21.4364014 96.0305862 163.9642334
22.8320694 96.0214996 163.9203491
24.2413158 96.0144653 163.8452148
25.6419792 96.0208206 163.6986237
27.0497208 96.0262146 163.5098267
28.4624271 96.0438995 163.2499542
29.8705673 96.0662537 162.9434357
31.2945995 96.0943375 162.5890045
32.7076874 96.1282730 162.1770325
34.1312714 96.1709213 161.7005920
35.5641136 96.2240753 161.1558685
36.9905548 96.2826691 160.5498962
38.4330368 96.3503571 159.8704834
39.8692932 96.4250031 159.1237183
41.3218307 96.5140533 158.2779236
42.7765503 96.6121521 157.3359528
44.2333260 96.7236786 156.3091431
45.7315865 96.8514099 155.1397705
47.1966934 96.9894562 153.8695984
48.6932678 97.1504822 152.4325256
-8.1727762 96.4234772 152.2739868
-6.7300992 96.2312012 153.7326050
-5.2986574 96.0612106 155.0386658
-3.8726239 95.8995743 156.2333984
-2.4442186 95.7553177 157.3157959
-1.0352526 95.6215134 158.2889862
0.3901551 95.4980087 159.1840363
1.7944567 95.3876190 159.9858093
3.2128930 95.2805176 160.7317505
4.6191616 95.1858368 161.3938599
6.0116234 95.1014404 161.9797516
7.4239655 95.0212860 162.5184021
8.8214016 94.9497986 162.9916077
10.2245455 94.8839569 163.4111786
11.6281204 94.8260422 163.7695618
13.0216274 94.7747955 164.0736694
14.4224291 94.7256927 164.3390503
15.8104286 94.6903229 164.5459290
17.2191372 94.6547852 164.7027588
18.6166706 94.6236115 164.8111725
20.0095139 94.6046906 164.8655853
21.4199810 94.5875549 164.8766937
22.8163891 94.5766296 164.8430786
24.2201595 94.5738678 164.7557678
25.6248379 94.5750122 164.6179352
27.0273609 94.5805054 164.4292145
28.4389744 94.5975189 164.1813965
29.8438053 94.6142426 163.9053040
31.2694740 94.6447906 163.5478821
32.6769066 94.6790771 163.1412201
34.0997772 94.7200317 162.6775513
35.5236511 94.7670746 162.1594238
36.9508705 94.8218918 161.5742950
38.3879242 94.8858795 160.9208221
39.8208542 94.9565506 160.1981812
41.2769890 95.0405502 159.3823547
42.7220917 95.1327515 158.4944916
44.1801567 95.2360687 157.5092926
45.6640663 95.3517914 156.4114685
47.1326828 95.4857178 155.1954346
48.6214218 95.6289597 153.8572235
50.1308823 95.7952881 152.3501282
-8.1519108 94.9008942 153.6209412
-6.7064371 94.7188721 155.0129700
-5.2775578 94.5580750 156.2540894
-3.8549175 94.4069595 157.3942566
-2.4312370 94.2691269 158.4295349
-1.0219016 94.1450195 159.3602600
0.3959380 94.0284882 160.2152405
1.8025079 93.9204407 160.9923401
3.2180676 93.8203964 161.7051086
4.6167955 93.7328339 162.3378448
6.0168190 93.6486816 162.9162903
7.4251404 93.5704346 163.4367981
8.8171120 93.5066071 163.8873596
10.2230530 93.4375076 164.3045654
14.4183846 93.2928543 165.1979675
15.8111458 93.2479553 165.4118958
17.2086887 93.2191772 165.5493011
18.6039581 93.1924973 165.6515045
19.9952602 93.1712875 165.7088318
21.4070492 93.1579285 165.7153015
22.7986050 93.1478577 165.6781158
24.2029228 93.1395187 165.5987396
25.6074619 93.1431274 165.4612274
27.0121841 93.1506348 165.2704468
28.4154320 93.1632385 165.0478210
29.8250046 93.1837158 164.7671967
31.2482548 93.2069016 164.4235687
32.6489792 93.2356567 164.0434265
34.0671463 93.2763214 163.5884247
35.4958954 93.3235168 163.0779266
36.9145126 93.3742981 162.5205841
38.3516884 93.4347000 161.8850403
39.7814484 93.5039978 161.1775055
41.2329979 93.5803757 160.3999176
42.6822510 93.6685638 159.5420532
44.1304779 93.7657471 158.5976563
45.6151695 93.8766556 157.5412598
47.0703316 93.9945831 156.4014587
48.5583611 94.1336670 155.1183472
50.0605507 94.2868805 153.6932526
51.5717735 94.4604263 152.1036682
53.1058083 94.6621704 150.2875977
-9.5582733 93.5785751 153.4049377
-8.1262798 93.3970490 154.8411560
-6.6897302 93.2297211 156.1522217
-5.2598124 93.0722504 157.3542633
-3.8458867 92.9323883 158.4319305
-2.4229856 92.8027267 159.4261932
-1.0094173 92.6820374 160.3322449
0.4051380 92.5703125 161.1577606
1.8068666 92.4706573 161.9030762
3.2189772 92.3751068 162.5894318
4.6260538 92.2890549 163.2088623
6.0176268 92.2103958 163.7661896
7.4307442 92.1362152 164.2695007
8.8191519 92.0706635 164.7125397
10.2179642 92.0085449 165.1128540
14.4135113 91.8626709 165.9906921
15.7991571 91.8272934 166.1803436
17.2012501 91.7958374 166.3266449
18.5955925 91.7714462 166.4244995
19.9859695 91.7501068 166.4837189
21.3941288 91.7344131 166.4899445
22.7859726 91.7227173 166.4591827
24.1899452 91.7222137 166.3711243
25.5890293 91.7209091 166.2390289
26.9921589 91.7277756 166.0601501
28.3992653 91.7406616 165.8360596
29.7990856 91.7571716 165.5617676
31.2189140 91.7815247 165.2376099
32.6285477 91.8085251 164.8617249
34.0361633 91.8506699 164.4150848
35.4673691 91.8938751 163.9214325
36.8886185 91.9418411 163.3784790
38.3149033 91.9993896 162.7622528
39.7452545 92.0638046 162.0809174
41.1941109 92.1397171 161.3201294
42.6370468 92.2177505 160.5039368
44.0864830 92.3117676 159.5858307
45.5566940 92.4160004 158.5771484
47.0176888 92.5291595 157.4772339
48.5001831 92.6556396 156.2597351
49.9974213 92.8001404 154.9011383
51.4981918 92.9578552 153.4091949
54.5604782 93.3492889 149.7964172
-10.9850960 92.2743073 153.0248718
-9.5315228 92.0824890 154.5659485
-8.1095238 91.9124069 155.9295654
-6.6715631 91.7519913 157.1969910
-5.2462616 91.6067581 158.3396301
-3.8330412 91.4747772 159.3734436
-2.4055562 91.3498611 160.3384399
-1.0002509 91.2356339 161.2086792
0.4115921 91.1289749 162.0080566
1.8178179 91.0300140 162.7412720
3.2239184 90.9406738 163.4017639
4.6280842 90.8571548 164.0063629
6.0216990 90.7807846 164.5525513
7.4259834 90.7134857 165.0321198
8.8199282 90.6478119 165.4674377
10.2173443 90.5896072 165.8545532
11.6142168 90.5383911 166.1875000
13.0058241 90.4896927 166.4786224
14.4046822 90.4499359 166.7151184
15.7900600 90.4148712 166.9006958
22.7666836 90.3149567 167.1639709
24.1749954 90.3099899 167.0793152
31.1954765 90.3679581 165.9717102
32.6057472 90.3984833 165.5968323
36.8592529 90.5212250 164.1568604
38.2866859 90.5733490 163.5635834
39.7138672 90.6355515 162.9109039
41.1617126 90.7076187 162.1683044
42.6014252 90.7823486 161.3727570
44.0445671 90.8716812 160.4928894
45.5135269 90.9684982 159.5149841
46.9701805 91.0741348 158.4597778
48.4484253 91.1960754 157.2865143
49.9366646 91.3300247 155.9925995
51.4384155 91.4793320 154.5570526
52.9583664 91.6498871 152.9487000
54.4830551 91.8394394 151.1541443
56.0378151 92.0627136 149.0863342
-12.4136467 90.9841156 152.5064697
-10.9568472 90.7865143 154.1350098
-9.5103674 90.6046753 155.6065979
-8.0892525 90.4435272 156.9207916
-6.6535501 90.2931519 158.1292267
-5.2294998 90.1541290 159.2333527
-3.8179188 90.0266190 160.2415466
-2.3973722 89.9073334 161.1724091
-0.9849707 89.7962875 162.0209351
0.4229312 89.6971588 162.7936249
1.8189862 89.6040878 163.5008698
3.2279217 89.5193481 164.1437988
4.6337051 89.4366837 164.7392578
6.0227880 89.3646698 165.2669525
7.4329796 89.2960434 165.7421875
8.8200569 89.2344513 166.1643066
10.2146063 89.1781006 166.5416107
11.6117363 89.1283188 166.8665314
13.0018654 89.0843353 167.1419983
14.3992405 89.0439529 167.3807220
15.7848730 89.0087357 167.5652771
22.7580376 88.9131775 167.8129578
24.1599941 88.9096069 167.7359314
31.1786880 88.9657288 166.6399841
32.5824280 88.9908752 166.2837982
36.8352776 89.1095047 164.8763123
38.2623024 89.1615753 164.2946167
39.6871033 89.2195663 163.6587677
41.1282616 89.2868576 162.9371490
42.5657043 89.3604889 162.1624451
44.0068359 89.4438934 161.3076935
45.4746056 89.5344238 160.3638000
46.9306602 89.6382599 159.3381805
48.4029846 89.7509155 158.2141724
49.8857498 89.8751602 156.9737244
51.3800583 90.0186157 155.5927124
52.8918266 90.1776657 154.0522156
54.4102287 90.3539658 152.3536072
-12.3867521 89.5001068 153.5830688
-10.9421616 89.3154907 155.1317139
-9.4913921 89.1432648 156.5452576
-8.0751514 88.9911346 157.8026733
-6.6419363 88.8465271 158.9714813
-5.2180524 88.7147446 160.0444946
-3.8051569 88.5919418 161.0265961
-2.3859298 88.4787216 161.9270630
-0.9852573 88.3768234 162.7383575
0.4277472 88.2767334 163.4997711
1.8281972 88.1870041 164.1957397
3.2322741 88.1028824 164.8296814
4.6331573 88.0236816 165.4132233
6.0228486 87.9568481 165.9201050
7.4370556 87.8876801 166.3951721
11.6048813 87.7303772 167.4834747
12.9939308 87.6858673 167.7602234
14.3985100 87.6455383 167.9923706
15.7865744 87.6129532 168.1670837
17.1825619 87.5849915 168.3099670
18.5716076 87.5628586 168.3969116
22.7462196 87.5203552 168.4222717
24.1541748 87.5152206 168.3368378
25.5508671 87.5164948 168.2175903
26.9456139 87.5207672 168.0538330
28.3461781 87.5324020 167.8397217
29.7451038 87.5459518 167.5837097
31.1579704 87.5676422 167.2646790
32.5603523 87.5942612 166.9159546
33.9736862 87.6261749 166.5072021
35.3973312 87.6648636 166.0442200
36.8118019 87.7062454 165.5385132
38.2383575 87.7593155 164.9635620
39.6595421 87.8131561 164.3362732
41.0969849 87.8782806 163.6408997
42.5366058 87.9488373 162.8785706
43.9744034 88.0259857 162.0541534
45.4379730 88.1148987 161.1360626
46.8939438 88.2140808 160.1321411
48.3597870 88.3195496 159.0451660
49.8387642 88.4394531 157.8441315
51.3334885 88.5726929 156.5126190
52.8329811 88.7214050 155.0482025
54.3450165 88.8861694 153.4323730
55.8955994 89.0795670 151.5748596
57.4461594 89.2930450 149.5099792
-13.8120365 88.2252579 152.8977966
-12.3643951 88.0340576 154.5396118
-10.9214706 87.8580170 156.0220490
-9.4800539 87.6955490 157.3857117
-8.0564766 87.5497818 158.6082916
-6.6231298 87.4130554 159.7439880
-5.2051792 87.2867966 160.7805176
-3.8005364 87.1688538 161.7320251
-2.3733778 87.0596161 162.6191406
-0.9719101 86.9594421 163.4158325
0.4411689 86.8625183 164.1695251
1.8360083 86.7789612 164.8337097
3.2400074 86.7004013 165.4423981
4.6375322 86.6267014 166.0065002
6.0328050 86.5528564 166.5219421
7.4354286 86.4930344 166.9779205
11.6080627 86.3361969 168.0529480
12.9952316 86.2957001 168.3161469
14.3961821 86.2578888 168.5407104
15.7796974 86.2255554 168.7211761
17.1776123 86.1986389 168.8582306
18.5612717 86.1750641 168.9442444
22.7422447 86.1338501 168.9690857
24.1383934 86.1311798 168.8884583
25.5373344 86.1316605 168.7657471
26.9335403 86.1355438 168.6004486
28.3345661 86.1445389 168.3994141
29.7325439 86.1615219 168.1374969
31.1464729 86.1812668 167.8295288
32.5451164 86.2078705 167.4802399
33.9553947 86.2369385 167.0847015
35.3802490 86.2728729 166.6352081
36.7892990 86.3140945 166.1390686
38.2156219 86.3641205 165.5751343
39.6378326 86.4171143 164.9582825
41.0691071 86.4765625 164.2809601
42.5063553 86.5465088 163.5380096
43.9429398 86.6225357 162.7279053
45.4065704 86.7046127 161.8340454
46.8558426 86.7962494 160.8679352
48.3210487 86.8994598 159.8059082
49.8031769 87.0131912 158.6327515
51.2883530 87.1416473 157.3417358
52.7851601 87.2810593 155.9346008
55.8287239 87.6136322 152.6286316
57.3704185 87.8157349 150.6522827
-13.7953396 86.7652740 153.8034821
-12.3450718 86.5812531 155.3901520
-10.8983822 86.4137421 156.8315430
-9.4568396 86.2590332 158.1504517
-8.0440788 86.1211243 159.3280334
-6.6068621 85.9858704 160.4465332
-5.1956501 85.8672485 161.4507446
-3.7838211 85.7555542 162.3802795
-2.3703375 85.6499405 163.2414551
-0.9663298 85.5541458 164.0269623
0.4452070 85.4613800 164.7569427
1.8429637 85.3789520 165.4081879
3.2458963 85.3011017 166.0181732
4.6415758 85.2301941 166.5687256
6.0340719 85.1653824 167.0621643
7.4345722 85.1036148 167.5171967
11.6049442 84.9548798 168.5624237
12.9927645 84.9143524 168.8234100
14.3908167 84.8756027 169.0515137
15.7793770 84.8433838 169.2318573
22.7341709 84.7570419 169.4718628
24.1320496 84.7500916 169.3980408
25.5275841 84.7545013 169.2631378
26.9230747 84.7583542 169.1080933
28.3223648 84.7677536 168.9024048
29.7225056 84.7843857 168.6400452
31.1331272 84.8000183 168.3485107
32.5314217 84.8283997 167.9988098
33.9412270 84.8543854 167.6138611
35.3602524 84.8911362 167.1668701
39.6140442 85.0285645 165.5288391
41.0509338 85.0862961 164.8631287
42.4808846 85.1509094 164.1414948
43.9201889 85.2226181 163.3460083
45.3768501 85.3052902 162.4672852
46.8261185 85.3930817 161.5202026
48.2855835 85.4912262 160.4851685
49.7654228 85.5994568 159.3442688
51.2477455 85.7214737 158.0931702
52.7419205 85.8553467 156.7236633
54.2445602 86.0009155 155.2282410
55.7746506 86.1700363 153.5314636
57.3122864 86.3573303 151.6488190
58.8799591 86.5743408 149.5023193
-15.2281895 85.5077972 152.9278870
-13.7648611 85.3145523 154.6318665
-12.3223848 85.1432571 156.1499481
-10.8848591 84.9836273 157.5426483
-9.4399948 84.8345490 158.8301849
-8.0328465 84.7023773 159.9749451
-6.5975099 84.5740051 161.0662689
-5.1852036 84.4593124 162.0488129
-3.7753458 84.3500824 162.9622955
-2.3559098 84.2474976 163.8091278
-0.9626123 84.1567383 164.5723572
0.4503234 84.0700989 165.2810059
1.8514428 83.9888153 165.9315338
3.2494779 83.9134827 166.5288544
4.6500702 83.8437347 167.0719604
6.0376406 83.7812805 167.5550232
7.4432230 83.7210083 168.0034332
11.6088066 83.5760040 169.0402832
12.9950314 83.5366058 169.2991943
14.3921280 83.5027695 169.5132446
15.7774267 83.4705582 169.6879425
22.7259617 83.3852615 169.9238281
24.1254463 83.3828278 169.8414459
25.5233803 83.3809967 169.7272339
26.9108009 83.3866577 169.5714417
28.3120041 83.3963089 169.3562775
