23.7318058 83.0328445 182.4400330
24.4202385 83.0263367 182.4370117
25.1078625 83.0212097 182.4251709
25.8024216 83.0176697 182.3997498
26.4748688 83.0167313 182.3633575
32.6713181 83.0401688 181.6356964
33.3713760 83.0446396 181.5046387
34.0602188 83.0555115 181.3594513
34.7524109 83.0659943 181.2066193
67.4979553 85.3487396 157.0868225
68.3045807 85.4995499 155.6129761
69.1623154 85.6686172 153.9413605
-17.9492073 85.0591583 160.6060791
-17.2126617 84.9441833 161.6396332
-16.4712143 84.8320007 162.6425171
12.1204891 82.6373138 181.0062256
12.7926235 82.6147308 181.1618958
16.9094467 82.5045242 181.8685608
17.5783768 82.4890671 181.9533234
20.3256054 82.4366760 182.2055359
22.3574505 82.4101410 182.2967529
67.5182343 84.7073517 156.8298340
68.3360825 84.8606873 155.3190460
-17.2154045 84.2905273 161.4429321
-16.4861717 84.1803741 162.4309998
12.1283884 82.0004883 180.8641205
12.7939548 81.9799957 181.0126801
16.9084396 81.8672485 181.7333832
17.5763073 81.8534164 181.8143005
20.3289032 81.8042755 182.0560303
21.0190983 81.7929840 182.0999451
21.6905956 81.7850800 182.1294556
22.3683853 81.7764435 182.1481628
67.5583954 84.0716019 156.5113068
68.3681793 84.2238464 154.9985199
-17.2178288 83.6399841 161.2221832
-16.4754925 83.5286636 162.2316284
12.1209412 81.3640060 180.7000275
12.7926655 81.3444443 180.8514862
20.3390598 81.1691360 181.9034882
21.0176678 81.1591339 181.9429626
21.6977806 81.1498413 181.9761658
22.3708801 81.1430893 182.0010986
67.5771561 83.4342804 156.2034912
68.3835144 83.5867996 154.6799927
69.2568970 83.7588348 152.9216309
-17.9704609 83.1040039 159.9215240
-17.2296066 82.9904938 160.9757690
-16.4809685 82.8801498 161.9944763
12.1210489 80.7293930 180.5336456
12.8003082 80.7088928 180.6877441
13.4726400 80.6871185 180.8204956
15.5462093 80.6312561 181.2087097
16.2432461 80.6160660 181.3180389
18.9746857 80.5575180 181.6443481
19.6489410 80.5469589 181.6975555
20.3425636 80.5357285 181.7469635
21.0260029 80.5258179 181.7899933
21.7040596 80.5161591 181.8230896
22.3752975 80.5090485 181.8404846
67.5956573 82.7995148 155.8736572
68.4148026 82.9531326 154.3138580
-17.2230434 82.3393478 160.7465363
-16.4843082 82.2318878 161.7439117
16.2405682 79.9814682 181.1346436
16.9227028 79.9661865 181.2399902
18.9822273 79.9250412 181.4718933
21.7127018 79.8830032 181.6549835
22.3761292 79.8790359 181.6665497
65.9704895 81.8897934 158.3639679
66.7999954 82.0231400 156.9833527
67.6202850 82.1650848 155.5204163
-16.4888973 81.5848083 161.4807129
16.2433281 79.3477020 180.9544830
16.9317799 79.3344269 181.0558167
17.5935230 79.3187866 181.1455078
18.2853336 79.3037949 181.2269592
22.3859177 79.2441254 181.4851379
66.0085144 81.2570953 158.0024414
66.8184662 81.3901749 156.6398773
-16.5125523 80.9404678 161.1745453
17.6017075 78.6878967 180.9539795
18.2963943 78.6720734 181.0363312
22.4031200 78.6163254 181.3009644
66.0362244 80.6261292 157.6310883
66.8599472 80.7609177 156.2292786
67.6907272 80.9015579 154.7368469
-17.2493572 80.3993301 159.8676453
-16.4948788 80.2928925 160.9108276
17.5978966 78.0547638 180.7498627
18.3024826 78.0416870 180.8314362
18.9973068 78.0314331 180.9004211
19.6748104 78.0189056 180.9546509
20.3644543 78.0065613 181.0084229
21.0615673 77.9999313 181.0543213
21.7218742 77.9872131 181.0761108
22.3975830 77.9800949 181.0960693
66.0614700 79.9956284 157.2490692
66.9011841 80.1334076 155.8006134
-16.4912643 79.6482315 160.6091919
66.0717468 79.3663864 156.8794403
66.9202499 79.5043869 155.3922882
-17.2753448 79.1124573 159.1893311
-16.5067120 79.0074539 160.2571106
66.1196213 78.7393494 156.4179382
66.9472351 78.8782806 154.9428406
67.8091888 79.0254593 153.3042603
-16.5165901 78.3664169 159.8944244
66.1580887 78.1153107 155.9471741
66.9925385 78.2552032 154.4347839
-16.5295792 77.7276611 159.5116577
66.2012177 77.4940796 155.4406586
67.0449219 77.6356277 153.8827820
-16.5310802 77.0873795 159.1276550
-15.8171482 76.9881821 160.1207886
-15.0971565 76.8925095 161.0801544
64.6679535 76.6368408 157.5355225
65.4510269 76.7489624 156.2824097
66.2299042 76.8734131 154.9270325
67.0945969 77.0150986 153.3029785
-15.8213825 76.3503036 159.7292633
-15.0969524 76.2542267 160.7033997
64.6918030 76.0138931 157.0605469
65.4836960 76.1279068 155.7619476
66.2844696 76.2565842 154.3353119
-15.8348932 75.7125702 159.2997589
-15.1131296 75.6186981 160.2767334
64.7381058 75.3919907 156.5215607
65.5128555 75.5082932 155.2237701
66.3248978 75.6396484 153.7458649
-15.8449068 75.0779877 158.8496094
-15.1294107 74.9837646 159.8231354
64.7897873 74.7741089 155.9465637
65.5682526 74.8931274 154.6033783
-15.1132278 74.3494110 159.3966217
-14.3882236 74.2544632 160.3635101
-13.6538181 74.1665421 161.3001556
63.2286911 73.9405518 157.8943329
64.0205917 74.0457077 156.6897125
64.8170166 74.1585693 155.3785858
65.6193542 74.2804337 153.9564209
-15.1398077 73.7141190 158.8982086
-14.3880510 73.6208420 159.9170532
-13.6619196 73.5301895 160.8551483
63.2684822 73.3213882 157.3365326
64.0699692 73.4267883 156.0817871
64.8652496 73.5430222 154.7391357
65.6593857 73.6670380 153.3086243
-14.4012985 72.9883347 159.4277191
-13.6706944 72.8993073 160.3835449
63.3136673 72.7065582 156.7435760
64.1062775 72.8143921 155.4717712
64.9227905 72.9317703 154.0547180
65.7291794 73.0568848 152.5649109
-14.4050331 72.3558426 158.9257813
-13.6867294 72.2684326 159.8772583
63.3565025 72.0895920 156.1196289
64.1506805 72.2013397 154.8100586
64.9631424 72.3217163 153.3660736
-14.4136448 71.7234650 158.3975830
-13.6879129 71.6374435 159.3696747
63.3975868 71.4754486 155.4651184
64.2136688 71.5901642 154.0785065
-14.4300451 71.0942459 157.8351135
-13.6930676 71.0078506 158.8312531
63.4572334 70.8675385 154.7561188
64.2694016 70.9834747 153.3316956
-13.7006340 70.3788300 158.2615356
61.8952980 70.0473862 156.6121216
62.7051239 70.1488037 155.3560486
63.5087738 70.2604218 154.0125732
64.3389740 70.3785019 152.5038757
-13.7239676 69.7518463 157.6448822
61.9442902 69.4355087 155.9106293
62.7589874 69.5394363 154.6027222
63.5720367 69.6517639 153.1893616
-13.7344313 69.1244431 157.0174103
-13.0115242 69.0410004 158.0025482
-12.2786713 68.9564972 158.9724426
60.4082222 68.6449280 157.5137482
61.1880836 68.7277679 156.4032898
61.9989891 68.8264389 155.1622620
62.8162613 68.9346924 153.8149567
63.6231346 69.0457306 152.3779144
-13.0241756 68.4159851 157.3714142
-12.2926750 68.3307571 158.3515015
60.4826279 68.0319672 156.7616272
61.2321739 68.1224213 155.6772156
62.0496216 68.2196274 154.3891907
-13.0360851 67.7873001 156.7176819
-12.3052483 67.7056503 157.7072906
60.5384827 67.4206238 156.0110931
61.2899170 67.5113678 154.8844604
62.0983887 67.6116486 153.5630951
-12.3113041 67.0858154 157.0548096
60.5813637 66.8151779 155.2446899
61.3499146 66.9075470 154.0402832
62.1688766 67.0119629 152.6494446
-12.3263855 66.4580154 156.3310089
-11.5978899 66.3790131 157.3077393
-10.8825445 66.3022537 158.2225952
60.6325302 66.2060394 154.4041290
61.3989029 66.3044281 153.1694336
62.2395325 66.4098434 151.7005005
-11.6095085 65.7589188 156.5919952
-10.8891401 65.6808548 157.5358582
60.7053871 65.6050873 153.4955444
61.4666595 65.7032013 152.2215729
-11.6274395 65.1359863 155.8329010
-10.9138851 65.0596313 156.7861328
-10.1815577 64.9840088 157.7188873
-9.4445362 64.9107819 158.6170044
57.6270142 64.6720123 157.1607208
58.4230118 64.7468262 156.1010742
59.2126312 64.8260345 154.9834747
59.9832268 64.9147720 153.8246613
60.7525558 65.0090485 152.5793762
61.5371552 65.1062927 151.2078705
-10.1987715 64.3660583 156.9683533
-9.4638805 64.2898483 157.8888245
57.6970825 64.0595703 156.3273468
58.4637146 64.1390610 155.2774353
59.2548523 64.2217102 154.1084747
60.0472641 64.3126450 152.8529663
60.8274231 64.4096222 151.5282288
-9.4722538 63.6687698 157.1354675
57.7558899 63.4548988 155.4718933
58.5378227 63.5360222 154.3507385
59.3346863 63.6209793 153.1070557
60.1225967 63.7192307 151.8034973
-10.2269564 63.1178055 155.3782043
-9.4786777 63.0509872 156.3544617
57.8174744 62.8505058 154.5558167
58.6052094 62.9360733 153.3722534
59.3938332 63.0251923 152.0842743
60.2006989 63.1227760 150.6857300
-9.4947824 62.4303665 155.5157776
-8.7759123 62.3623619 156.4287720
-8.0611801 62.2944527 157.2899170
56.2874069 62.0954170 155.7923279
57.0672722 62.1638680 154.7459106
57.8632317 62.2496338 153.6008606
58.6709290 62.3373451 152.3221588
59.4554596 62.4351768 150.9992371
-9.5044813 61.8072205 154.6644440
-8.7814074 61.7437744 155.5984039
-8.0632963 61.6783333 156.4859314
56.3474197 61.4919205 154.8572540
57.1243362 61.5674362 153.7736511
57.9318924 61.6485291 152.5376587
58.7482834 61.7371864 151.1983032
-8.0692186 61.0599022 155.6296692
54.9078598 60.7573471 155.8272552
55.6620636 60.8192863 154.8704071
56.4023666 60.8873520 153.8700562
57.1887321 60.9705734 152.7233124
58.0257683 61.0463371 151.4023285
-8.8277864 60.5039902 153.7415466
-8.0954847 60.4445038 154.6985779
54.9741096 60.1517410 154.8553009
55.7167587 60.2202148 153.8764496
56.4637222 60.2903328 152.8150330
57.2607918 60.3698692 151.5873108
-8.1236467 59.8254700 153.7306213
-7.3730073 59.7676353 154.7005310
-6.6595879 59.6994705 155.5833282
-5.9525185 59.6382790 156.4064941
-5.2427421 59.5781631 157.1840515
53.5006523 59.4253235 155.7707520
54.2623672 59.4854431 154.8364410
55.0280914 59.5498123 153.8413696
55.7912369 59.6159668 152.7783051
56.5418091 59.6932678 151.6560669
57.3360329 59.7819557 150.3635406
-5.9660707 59.0241547 155.4847565
-5.2505178 58.9608154 156.3016510
53.5577469 58.8185120 154.7653198
54.3407211 58.8824463 153.7618256
55.1005974 58.9534378 152.7363281
55.8492737 59.0269012 151.6476135
56.6177559 59.1057472 150.4133148
57.4305763 59.1916428 148.9918976
-5.9831715 58.4112778 154.5027771
-5.2591982 58.3466415 155.3652344
53.6230965 58.2184753 153.6902466
54.3972588 58.2838478 152.6449585
55.1679230 58.3575134 151.5433960
55.9360886 58.4356041 150.3467712
56.7008438 58.5219345 149.0608826
-5.2623482 57.7358932 154.3697968
53.6876526 57.6233826 152.5527802
54.4826050 57.6894798 151.4087372
55.2527237 57.7635880 150.2193451
56.0185356 57.8475609 148.9491882
-5.2716146 57.1288528 153.3114319
-4.5390673 57.0645218 154.2126617
-3.8293881 57.0092201 155.0242920
52.1861191 56.8908005 153.4409180
52.9714966 56.9584465 152.4243774
53.7605209 57.0267067 151.3132935
54.5504227 57.1023293 150.1121063
55.3355179 57.1881332 148.8201904
-5.2789545 56.5163841 152.1849365
-4.5436883 56.4532585 153.1314240
-3.8441298 56.3948669 153.9594116
52.2445717 56.2965393 152.2694702
53.0482254 56.3600693 151.1459656
53.8430290 56.4356079 149.9525452
54.6211319 56.5178299 148.6893768
-4.5541582 55.8405228 151.9978027
-3.8475351 55.7856445 152.8615417
-3.1338835 55.7324905 153.7048187
-2.4145076 55.6768723 154.5008850
-1.6933668 55.6267128 155.2515259
-1.0043118 55.5793610 155.9181824
50.8228378 55.5813789 152.9027252
51.5614128 55.6379356 151.9946594
52.3286324 55.7036896 150.9607544
53.1309814 55.7770844 149.7650299
53.9401512 55.8577042 148.4729156
-3.1517067 55.1190300 152.5421448
-2.4265161 55.0702858 153.3860016
-1.7246578 55.0152817 154.1522827
-1.0106050 54.9706306 154.8945618
50.9028969 54.9885750 151.6341705
51.6299858 55.0457230 150.6687469
52.4056168 55.1156731 149.5366211
-3.1786799 54.5002708 151.3003845
-2.4319277 54.4585495 152.2130585
-1.7176973 54.4081573 153.0350647
-1.0329857 54.3565903 153.7615814
47.9361038 54.1823692 153.8953400
48.6957245 54.2322159 153.0666351
49.4620285 54.2850113 152.1752625
50.2123413 54.3384705 151.2555695
50.9676895 54.3975449 150.2630005
51.7220879 54.4581299 149.1600189
52.4986191 54.5333786 147.9441681
-1.7273316 53.7961006 151.8115845
-1.0300529 53.7475624 152.5820465
47.9866753 53.5790787 152.6675415
48.7636642 53.6310349 151.7600861
49.5384064 53.6833153 150.7969818
50.2952652 53.7455025 149.8096161
51.0509987 53.8107452 148.7192535
-1.7442505 53.1762581 150.5026550
-1.0375447 53.1362228 151.3302002
-0.2941316 53.0972366 152.1824341
0.4165539 53.0463028 152.9212341
43.6036148 52.7420044 155.6210938
44.3495674 52.7797203 155.0057373
46.5459747 52.8897095 152.9918213
47.2825012 52.9360504 152.2222290
48.0566902 52.9895401 151.3397675
48.8401489 53.0386734 150.3574524
49.6125107 53.1043472 149.3512878
50.3874741 53.1671829 148.2191925
51.1558762 53.2321968 147.0038910
-0.3157738 52.4790382 150.8341064
0.4059664 52.4380188 151.6334991
43.6595230 52.1444244 154.4763489
44.4177017 52.1655350 153.7790070
46.6070976 52.2927513 151.6608582
47.3518486 52.3386612 150.8233337
48.1345367 52.3931046 149.8634186
48.9126244 52.4550629 148.8338776
49.6948128 52.5195427 147.6928101
0.4087848 51.8311539 150.2807617
1.1110417 51.7896271 151.0556183
1.8250537 51.7419815 151.8062286
2.5498466 51.6967430 152.5212402
3.2446015 51.6591301 153.1622925
43.7190590 51.5384254 153.2237854
44.4667015 51.5783195 152.5355377
45.2114182 51.6133385 151.7979279
45.9385910 51.6574860 151.0415497
46.6809540 51.7052155 150.2122498
47.4175186 51.7553215 149.3229370
48.2131538 51.8094215 148.2489624
49.0001526 51.8716888 147.1007385
0.3768485 51.2132416 148.7664490
1.0986214 51.1809921 149.6167908
1.8250957 51.1423492 150.4436340
2.5462613 51.0962982 151.1909180
3.2550237 51.0505219 151.8654938
43.7904243 50.9344521 151.8534698
44.5322571 50.9779396 151.1325073
45.2878418 51.0201530 150.3309631
46.0346947 51.0608063 149.4668427
46.7801399 51.1110268 148.5564728
47.5141754 51.1720009 147.5999451
2.5432312 50.4912834 149.7444916
3.2515752 50.4516068 150.4668427
3.9531600 50.4068985 151.1340790
4.6873817 50.3690033 151.8131714
42.3255157 50.2648697 151.8506317
43.0907593 50.2997894 151.1517639
43.8584213 50.3400497 150.3884277
44.5931778 50.3828163 149.6012115
45.3624802 50.4266243 148.7099915
46.1125298 50.4852219 147.8025360
46.8568878 50.5351639 146.7874908
3.2481711 49.8441467 148.9627838
3.9558883 49.8097305 149.6798401
4.6865673 49.7674561 150.3853760
42.3910675 49.6683197 150.3710327
43.1624413 49.7120934 149.6225739
43.9211464 49.7493591 148.7788086
44.6695442 49.7968521 147.8994141
45.4280205 49.8553734 146.9705505
46.2036018 49.8982658 145.8930359
3.9368725 49.1980705 148.0541229
4.6859188 49.1704826 148.8411407
5.3852663 49.1305275 149.5132599
6.0904546 49.0934906 150.1574402
6.8137865 49.0601845 150.7891541
7.5316052 49.0227928 151.3594971
41.0301666 49.0064545 150.0935669
41.7417107 49.0385818 149.4422607
42.4666786 49.0775833 148.7316895
43.2397766 49.1220169 147.8834534
44.0055084 49.1715393 146.9550781
44.7633896 49.2206612 145.9720459
4.6765957 48.5520935 147.1250610
5.3939705 48.5299263 147.8670349
6.0939779 48.4955559 148.5397491
6.8155847 48.4564972 149.2160339
7.5343108 48.4187660 149.8545837
41.0897675 48.4163895 148.4403992
41.8276672 48.4517365 147.6824646
42.5546532 48.4988785 146.8819885
43.3285751 48.5445824 145.9089050
44.1035767 48.5906219 144.8693237
6.0942750 47.9000053 146.7457733
6.8264871 47.8626709 147.5077515
7.5473461 47.8193779 148.2140198
8.2452564 47.7867165 148.8188782
8.9460020 47.7546082 149.3590698
36.7315674 47.6477127 150.3450317
37.4425468 47.6708374 149.8529358
38.1777191 47.6959991 149.2897339
38.9268494 47.7302818 148.6902466
39.6660843 47.7585564 148.0295715
40.4019852 47.7996101 147.3543091
41.1619720 47.8395538 146.5635834
41.9037247 47.8798447 145.7039032
42.6614647 47.9178009 144.7339783
8.9553289 47.1654549 147.6264648
36.7942581 47.0557632 148.6605530
37.5175323 47.0781479 148.0913391
38.2619705 47.1093750 147.4690399
39.0036850 47.1399231 146.7785492
39.7419701 47.1793518 146.0542297
40.5060043 47.2180862 145.2211914
41.2538910 47.2602577 144.3560181
8.9737225 46.5775604 145.6784058
9.6914139 46.5491791 146.3331909
10.3952274 46.5185013 146.9118195
11.0970259 46.4824791 147.4326477
11.8185425 46.4569397 147.9532471
12.5301094 46.4292908 148.3969269
13.2283783 46.4070854 148.7990417
13.9435320 46.3870583 149.1816254
14.6707134 46.3723907 149.5573120
32.4851570 46.3364258 149.5094604
33.1962967 46.3513336 149.1535950
33.9407349 46.3709755 148.7564240
34.6589546 46.3869553 148.3135223
35.3887405 46.4134979 147.8460693
36.1393814 46.4419785 147.3194275
36.8754120 46.4663353 146.7283020
37.5893402 46.4964447 146.1137390
38.3396988 46.5380058 145.4228210
39.1020050 46.5736504 144.6178284
39.8262901 46.6080246 143.7988129
10.4149036 45.9312439 144.8308868
11.1245613 45.8925438 145.4332581
11.8390446 45.8596497 146.0032959
12.5584507 45.8359451 146.5367737
13.2494812 45.8130112 146.9680023
13.9617987 45.7959137 147.3885803
14.6826601 45.7747269 147.7847900
32.5326462 45.7451019 147.7196655
33.2603951 45.7610474 147.3124695
34.0073776 45.7895355 146.8750000
34.7256279 45.8115501 146.3766785
35.4508858 45.8359680 145.8269348
36.2013550 45.8672333 145.2145996
36.9408302 45.8963852 144.5463257
37.6682701 45.9296265 143.8443298
38.4320374 45.9487076 142.9764404
13.9876614 45.2186966 145.3392944
14.7116117 45.1954956 145.7892456
15.4151697 45.1661224 146.1674805
16.1252708 45.1475029 146.5371704
16.8312225 45.1330757 146.8615723
17.5511284 45.1190567 147.1253815
29.7073231 45.0996857 147.0293579
30.4134235 45.1131554 146.7407684
31.1586113 45.1244850 146.3947449
31.8810711 45.1465988 146.0680389
32.5906372 45.1672859 145.6765900
33.3282013 45.1856461 145.1708374
34.0768547 45.2122498 144.6385651
34.7941322 45.2347565 144.0730591
35.5400238 45.2563286 143.4339600
14.0044184 44.6234322 142.9146729
14.7246609 44.6147690 143.4294434
15.4269028 44.5824051 143.8868866
16.1367054 44.5536385 144.2864838
16.8724213 44.5407104 144.6742249
17.5887394 44.5347557 144.9790039
29.7618771 44.5230255 144.8489838
30.4737225 44.5425224 144.5236816
31.2194939 44.5559006 144.1152496
31.9528694 44.5796013 143.7103271
32.6788292 44.5938950 143.1807709
33.4047318 44.6114807 142.6264954
17.6034813 43.9560547 142.4170532
18.3141232 43.9481163 142.7470245
19.0355244 43.9416885 143.0547791
19.7586727 43.9324722 143.2925720
20.4646893 43.9193077 143.4594116
21.1744652 43.9032021 143.6199493
21.8968124 43.8941879 143.7561951
22.6131706 43.8905640 143.7983093
23.3300781 43.8984795 143.8272400
24.0469017 43.9022827 143.8123932
24.7653732 43.9062538 143.7585754
25.4868565 43.9143372 143.6912537
26.1996479 43.9148903 143.5670624
26.9401093 43.9149857 143.3826447
27.6578751 43.9198799 143.1411896
28.3686771 43.9334106 142.9125977
29.0992393 43.9457779 142.6011353
29.8276176 43.9564400 142.2405396
30.5424023 43.9607239 141.8355408
22.6557808 43.3543739 140.8999329
-35.6527443 236.2322083 -60.5967674
-33.8518753 236.1486664 -60.4289436
-32.0527573 236.0932007 -60.4033699
-30.2836056 236.0923767 -60.5582619
-28.4678764 236.1140747 -60.8639107
-40.9254646 234.0672760 -58.4466591
-37.3095551 233.7427673 -57.4688873
-35.5175972 233.6300049 -57.1867256
-33.7265053 233.5503998 -57.0457382
-31.9358692 233.5075378 -57.0557899
-30.1614380 233.4891510 -57.1849136
-28.3727436 233.5205078 -57.4820404
-26.5950012 233.5745239 -57.8928947
-24.8221169 233.6643829 -58.4644775
-23.0517159 233.8073730 -59.2136078
-46.2615776 232.3198242 -57.9697990
-42.6293945 231.8028107 -56.2039070
-39.0021248 231.4380493 -55.0657730
-37.1908569 231.2952576 -54.6818619
-35.4098701 231.2084351 -54.4720039
-33.6170502 231.1326904 -54.3659134
-31.8340988 231.0923004 -54.3803406
-30.0724964 231.0802765 -54.5146065
-28.2864132 231.1016388 -54.7819138
-26.5217495 231.1407776 -55.1594543
-24.7385864 231.2212830 -55.6556740
-22.9749908 231.3273010 -56.2883606
-21.2210712 231.4719849 -57.0721588
-44.3018761 229.6526794 -54.4153137
-42.5022202 229.4366760 -53.7174988
-40.6932602 229.2634735 -53.1761742
-38.9042664 229.1152954 -52.7489014
-37.0981178 229.0002747 -52.4358521
-35.3236694 228.9061127 -52.2471161
-33.5336609 228.8468628 -52.1658707
-31.7483578 228.7977448 -52.1709976
-29.9914093 228.7922363 -52.3098488
-28.2097530 228.8046570 -52.5565529
-26.4431515 228.8461456 -52.9213829
-24.6775055 228.9104919 -53.3691826
-22.9070492 229.0037842 -53.9413223
-21.1565628 229.1290894 -54.6535988
-19.3836918 229.2842407 -55.5054207
-15.8604250 229.7205048 -57.6915321
-51.5309448 228.4867554 -56.2109528
-47.8441162 227.8445892 -53.8927803
-46.0072098 227.5861053 -52.9981461
-44.1930389 227.3603210 -52.2385902
-42.4001503 227.1798096 -51.6409531
-40.5937538 227.0181427 -51.1520920
-38.8061600 226.8904419 -50.7798576
-37.0097542 226.7723999 -50.4929314
-35.2406693 226.6926575 -50.3369217
-33.4621696 226.6369934 -50.2779770
-31.6809845 226.5961304 -50.3026657
-29.9293442 226.5834198 -50.4235840
-28.1484394 226.5904999 -50.6544228
-26.3826847 226.6324463 -51.0032883
-24.6149483 226.6923370 -51.4264908
-22.8565445 226.7753448 -51.9666672
-21.0980911 226.8816528 -52.6092834
-19.3308086 227.0268707 -53.3960114
-17.5753632 227.1867065 -54.2761574
-15.8135462 227.3909302 -55.3325195
-53.2454414 226.5289917 -55.2448273
-49.5504303 225.8800964 -52.8564911
-45.9110947 225.3803101 -51.1133575
-44.1043243 225.1731262 -50.4241295
-42.3141708 225.0031433 -49.8781586
-40.5105743 224.8506775 -49.4295349
-38.7276459 224.7264862 -49.0781517
-36.9377441 224.6208954 -48.8202209
-35.1741295 224.5476837 -48.6869164
-33.3868370 224.4913025 -48.6292114
-31.6121025 224.4530182 -48.6578255
-29.8664913 224.4338379 -48.7690353
-28.0882435 224.4459229 -48.9967537
-26.3313084 224.4854279 -49.3207321
-24.5680428 224.5239105 -49.7059517
-22.8004265 224.6139069 -50.2463379
-21.0478706 224.7112427 -50.8563614
-19.2835312 224.8448792 -51.5999527
-17.5401917 224.9900818 -52.4227867
-15.7675838 225.1877136 -53.4088211
-14.0186167 225.3876190 -54.4962883
-10.4741707 225.9645081 -57.2852745
-51.2880707 223.9766541 -52.0830345
-49.4384079 223.6921844 -51.0678406
-47.6469955 223.4563599 -50.2298584
-45.8226547 223.2397614 -49.4816437
-44.0220337 223.0540619 -48.8700676
-42.2423630 222.8889008 -48.3476868
-40.4478455 222.7450714 -47.9298096
-38.6609268 222.6340790 -47.6172562
-36.8716774 222.5335541 -47.3884125
-35.1100922 222.4665833 -47.2589722
-33.3274231 222.3971863 -47.1876526
-31.5613232 222.3834686 -47.2474709
-29.8114166 222.3605194 -47.3690720
-28.0294533 222.3641357 -47.5769043
-26.2773056 222.3903046 -47.8665810
-24.5196762 222.4354401 -48.2449303
-22.7599106 222.5057983 -48.7384911
-21.0091228 222.5945282 -49.3226700
-19.2377491 222.7185822 -50.0234680
-17.5034790 222.8603363 -50.8016815
-15.7299080 223.0312195 -51.7336311
-13.9731712 223.2299194 -52.7662659
-12.2201271 223.4588470 -53.9326706
-54.8627777 222.4544983 -52.7571640
-53.0157928 222.1239624 -51.5307541
-51.1890602 221.8409729 -50.4760780
-49.3581467 221.5825348 -49.5536575
-47.5694885 221.3577728 -48.7588234
-45.7411385 221.1450806 -48.0495491
-43.9510612 220.9729614 -47.4782562
-42.1605606 220.8101196 -46.9745102
-40.3747177 220.6856079 -46.6000023
-38.6010857 220.5753174 -46.3172874
-36.8172531 220.4862213 -46.1061707
-35.0578308 220.4164734 -45.9890671
-33.2788696 220.3648071 -45.9388428
-31.4989834 220.3242340 -45.9724159
-29.7594051 220.3112030 -46.0937195
-27.9864159 220.3144989 -46.3018875
-26.2335835 220.3479919 -46.6111069
-24.4809933 220.3886261 -46.9732361
-22.7220974 220.4559479 -47.4438477
-20.9651127 220.5473328 -48.0124588
-19.2088432 220.6482849 -48.6477661
-15.6976681 220.9363403 -50.2700195
-13.9426432 221.1304932 -51.2673531
-12.1962357 221.3408661 -52.3652267
-10.4285221 221.5829773 -53.6192780
-58.4795074 221.0430603 -53.9641495
-56.6255264 220.6716614 -52.5056381
-54.7648621 220.3261261 -51.1968040
-52.9293823 220.0249329 -50.0613785
-51.1033134 219.7510376 -49.0679436
-49.2776718 219.5086365 -48.2053528
-47.4944382 219.3023682 -47.4646378
-45.6793900 219.1124115 -46.8172379
-43.8858719 218.9446106 -46.2803879
-42.1077881 218.7986450 -45.8179665
-40.3085594 218.6692200 -45.4523659
-38.5450897 218.5668488 -45.1775169
-36.7642899 218.4757690 -44.9759598
-35.0036469 218.4091797 -44.8732376
-33.2308884 218.3549500 -44.8206749
-31.4668293 218.3294983 -44.8755798
-29.7275753 218.3141785 -44.9951859
-27.9518051 218.3263245 -45.2170067
-26.1950665 218.3432922 -45.4914627
-22.6828308 218.4385834 -46.2788239
-20.9350128 218.5258789 -46.8360443
-19.1686039 218.6277771 -47.4595184
-17.4344769 218.7469025 -48.1644325
-15.6719913 218.8979492 -48.9944000
-13.9133749 219.0657349 -49.9240036
-12.1695681 219.2603302 -50.9678993
-10.3964481 219.5076904 -52.2007370
-5.1123762 220.4096375 -56.7236671
-58.3783264 218.9286194 -52.4347763
-56.5397263 218.5799561 -51.0783081
-54.6871643 218.2600098 -49.8646507
-52.8572807 217.9704285 -48.7850304
-51.0340233 217.7241516 -47.8677406
-49.2085266 217.4904938 -47.0380821
-47.4283447 217.2918091 -46.3381233
-45.6156769 217.1073914 -45.7252464
-43.8268852 216.9479065 -45.2087479
-42.0474014 216.8074493 -44.7778168
-40.2587967 216.6863251 -44.4270134
-38.4974213 216.5868835 -44.1626015
-36.7172012 216.5070343 -43.9937210
-34.9616928 216.4451599 -43.8995590
-33.1914139 216.3965149 -43.8571205
-31.4240150 216.3534546 -43.8843880
-29.6830063 216.3455200 -44.0111542
-27.9092445 216.3494415 -44.2201614
-26.1576653 216.3749390 -44.5017776
-24.4058266 216.4093933 -44.8417282
-22.6468925 216.4686890 -45.2810135
-20.9017792 216.5401917 -45.7923393
-19.1403122 216.6371307 -46.3975754
-17.4037056 216.7482605 -47.0757828
-15.6464891 216.8857117 -47.8685608
-13.8914585 217.0533142 -48.7687225
-12.1435728 217.2405243 -49.7852325
-10.3731899 217.4587708 -50.9322128
-8.6354446 217.7040405 -52.1959229
-6.8560677 217.9929504 -53.6362877
-58.2936211 216.8695068 -51.1262856
-56.4565811 216.5393524 -49.8463249
-54.6131096 216.2371826 -48.7038841
-52.7828369 215.9654846 -47.6908836
-50.9756355 215.7276764 -46.8085632
-49.1483727 215.5054626 -46.0136490
-47.3740883 215.3127136 -45.3504333
-45.5644684 215.1396179 -44.7612762
-43.7727966 214.9835510 -44.2631912
-42.0033493 214.8569031 -43.8628540
-40.2160645 214.7401733 -43.5320778
-38.4552460 214.6415100 -43.2794495
-36.6784363 214.5626831 -43.1095505
-34.9182129 214.4996643 -43.0073471
-33.1459007 214.4476624 -42.9786072
-31.3808594 214.4159546 -43.0282898
-29.6477451 214.4080048 -43.1522789
-27.8720703 214.4135132 -43.3539238
-26.1241779 214.4282074 -43.6197433
-24.3734016 214.4689941 -43.9734917
-22.6194057 214.5276184 -44.4077034
-20.8755207 214.5953979 -44.8997726
-19.1149712 214.6887360 -45.4857903
-17.3849430 214.7924805 -46.1469345
-15.6142769 214.9313660 -46.9192657
-13.8624573 215.0795898 -47.7792435
-12.1202154 215.2571564 -48.7433929
-10.3514194 215.4613953 -49.8334351
-8.6130161 215.6858368 -51.0346146
-6.8408947 215.9664001 -52.4293518
-5.0801663 216.2509155 -53.9120712
-3.3050995 216.6031647 -55.6486893
-1.5386927 217.0097504 -57.6232071
-61.9591408 215.5974731 -52.9599762
-60.0997276 215.2070313 -51.4035110
-58.2177048 214.8453674 -49.9857674
-56.3834419 214.5343781 -48.7753296
-54.5510406 214.2559204 -47.7027245
-52.7233467 213.9950104 -46.7320747
-50.9124451 213.7630005 -45.8776093
-49.0925751 213.5502930 -45.1193161
-47.3191833 213.3697968 -44.4817848
-45.5173798 213.2064667 -43.9324570
-43.7258949 213.0570374 -43.4503059
-41.9654541 212.9283447 -43.0525589
-40.1677704 212.8133698 -42.7345238
-36.6321564 212.6413727 -42.3261108
-34.8796463 212.5843811 -42.2477722
-33.1169586 212.5406189 -42.2343102
-31.3462143 212.5113068 -42.2793846
-29.6092739 212.4981537 -42.3992310
-27.8358173 212.4974060 -42.5894623
-26.0913315 212.5163574 -42.8627892
-24.3452148 212.5560303 -43.2074089
-22.6007805 212.6075745 -43.6211510
-20.8507481 212.6719666 -44.0993576
-19.0889053 212.7644958 -44.6815910
-17.3600578 212.8655090 -45.3208923
-15.5936127 212.9897003 -46.0648155
-13.8469992 213.1349487 -46.9036980
-12.0964270 213.3068542 -47.8461800
-10.3347654 213.5066071 -48.9097862
-6.8231039 213.9711456 -51.3651428
-5.0647230 214.2474365 -52.8066711
-3.2984571 214.5726318 -54.4318466
0.2400222 215.3631897 -58.3521576
-63.7676697 213.9924622 -53.5119858
-61.8764420 213.5735474 -51.8229332
-60.0245476 213.2068329 -50.3473206
-58.1553040 212.8687439 -49.0087357
-56.3190613 212.5683594 -47.8504333
-54.4842758 212.2952728 -46.8025703
-52.6717606 212.0542908 -45.8908539
-50.8667068 211.8347321 -45.0817947
-49.0468788 211.6301270 -44.3539429
-47.2689171 211.4518585 -43.7258644
-45.4727249 211.2937927 -43.1947060
-43.6864090 211.1494751 -42.7261276
-41.9163055 211.0231323 -42.3401909
-40.1299667 210.9171295 -42.0450325
-38.3770180 210.8292542 -41.8288269
-36.6040192 210.7561951 -41.6739044
-34.8462219 210.6973267 -41.5908470
-33.0855827 210.6533813 -41.5751801
-31.3190117 210.6225281 -41.6083450
-29.5771675 210.6102905 -41.7378616
-27.8172379 210.6132355 -41.9355049
-26.0691433 210.6316681 -42.2003098
-24.3181419 210.6630859 -42.5262222
-22.5690422 210.7174683 -42.9409637
-20.8290863 210.7771606 -43.4067230
-19.0688915 210.8620300 -43.9691315
-17.3395443 210.9593201 -44.5884094
-15.5846577 211.0828552 -45.3297119
-13.8211727 211.2283630 -46.1605301
-12.0759735 211.3806305 -47.0472412
-8.5733261 211.7784424 -49.1966057
-6.8070755 212.0196228 -50.4634628
-3.2854090 212.5942841 -53.4154434
-65.5999756 212.4316101 -54.2829628
-63.6851311 211.9823608 -52.4437408
-61.7997131 211.5897980 -50.8375015
-59.9575119 211.2427673 -49.4360046
-58.0912094 210.9202271 -48.1632919
-56.2710686 210.6387024 -47.0596123
-54.4327240 210.3736115 -46.0433044
-52.6255646 210.1430054 -45.1697159
-50.8094635 209.9205170 -44.3554611
-49.0030518 209.7314758 -43.6652145
-47.2294273 209.5628357 -43.0722237
-45.4357300 209.4061584 -42.5506973
-43.6434860 209.2652740 -42.1011963
-41.8790131 209.1476746 -41.7438812
-40.1019897 209.0463867 -41.4563599
-38.3421631 208.9611206 -41.2369156
-36.5691910 208.8809204 -41.0776138
-34.8184776 208.8252869 -40.9945374
-33.0569534 208.7829590 -40.9797592
-31.2801476 208.7470703 -41.0268707
-29.5523643 208.7495728 -41.1757317
-27.7926483 208.7470398 -41.3594475
-26.0450611 208.7687225 -41.6173286
-24.2881851 208.7927094 -41.9397354
-22.5471840 208.8442688 -42.3441925
-20.8044853 208.9031982 -42.7975769
-19.0422592 208.9827728 -43.3484344
-15.5592213 209.2039948 -44.7017288
-13.8045845 209.3380280 -45.4977875
-12.0592260 209.4901123 -46.3709908
-10.3005486 209.6659546 -47.3665085
-8.5590458 209.8627930 -48.4484215
-5.0380664 210.3452759 -51.0032768
-3.2792556 210.6374817 -52.5218353
-1.5076237 210.9664764 -54.2101250
0.2620252 211.3374634 -56.0745506
2.0551066 211.7634430 -58.2116776
-67.4249725 210.9071655 -55.2400131
-63.6260376 210.0242462 -51.5533295
-61.7417030 209.6487427 -50.0162201
-59.8984604 209.3129425 -48.6670532
-58.0421104 209.0045166 -47.4409676
-56.2214127 208.7357330 -46.3742142
-54.3884048 208.4775543 -45.3912048
-52.5826874 208.2560730 -44.5450974
-50.7735062 208.0424957 -43.7573547
-48.9640503 207.8542786 -43.0816078
-47.1912613 207.6915894 -42.5097656
-45.3952789 207.5440826 -42.0091209
-43.6180382 207.4105530 -41.5791016
-40.0719757 207.1896667 -40.9251785
-38.3197098 207.1088867 -40.7318726
-36.5456963 207.0386810 -40.5783958
-34.7934532 206.9785767 -40.4937363
-33.0215378 206.9340820 -40.4820480
-31.2716274 206.9056702 -40.5318909
-29.5326748 206.9026489 -40.6793747
-27.7766075 206.9008484 -40.8659401
-26.0218163 206.9098511 -41.1020775
-24.2622852 206.9445190 -41.4347229
-22.5235443 206.9985046 -41.8386612
-20.7891140 207.0518494 -42.2877312
-19.0266876 207.1376648 -42.8397980
-17.2991562 207.2222595 -43.4381943
-15.5418882 207.3392792 -44.1377716
-13.7819681 207.4703369 -44.9210625
-12.0445795 207.6125793 -45.7705002
-10.2840652 207.7938538 -46.7705193
-8.5461388 207.9819336 -47.8307495
-5.0261197 208.4418640 -50.3034554
-1.4930475 209.0331421 -53.3943939
2.0670302 209.7901001 -57.2386703
-69.3019104 209.4431763 -56.4855576
-67.3563538 208.9327393 -54.3092804
-65.4498291 208.4836731 -52.4311790
-63.5644531 208.0881195 -50.7758827
-61.6858063 207.7298584 -49.3081512
-59.8521576 207.4095306 -48.0078888
-57.9890022 207.1095886 -46.8097229
-56.1746635 206.8493042 -45.7754898
-54.3464012 206.6034698 -44.8297348
-52.5458679 206.3886871 -44.0106392
-50.7487068 206.1899872 -43.2717133
-48.9333649 206.0057831 -42.5990906
-47.1612129 205.8453064 -42.0382614
-45.3702545 205.7004547 -41.5478477
-43.5804558 205.5654449 -41.1142044
-41.8331604 205.4548950 -40.7729645
-40.0436211 205.3574219 -40.5017929
-38.2910156 205.2719421 -40.2951317
-34.7695885 205.1529999 -40.0842896
-33.0025368 205.1042023 -40.0620461
-29.5161171 205.0652466 -40.2442627
-27.7536526 205.0773621 -40.4547577
-26.0021133 205.0884705 -40.6980133
-24.2515411 205.1217957 -41.0257988
-20.7707920 205.2227936 -41.8555069
-19.0128899 205.3002930 -42.4027710
-17.2810402 205.3948364 -43.0057831
-15.5221081 205.4993591 -43.6825638
-13.7658358 205.6280060 -44.4597321
-12.0188646 205.7645569 -45.2915421
-10.2767162 205.9331970 -46.2435684
-8.5287724 206.1255188 -47.3070679
-6.7641726 206.3317566 -48.4580193
-5.0102510 206.5676422 -49.7246094
-3.2582579 206.8325348 -51.1430740
0.2755039 207.4642944 -54.4380074
3.8301568 208.2803650 -58.6020164
5.6300635 208.7974854 -61.1838150
-69.2312622 207.4770508 -55.5989838
-67.2892303 206.9908752 -53.5274696
-65.4073334 206.5727997 -51.7548180
-63.5082321 206.1843567 -50.1315079
-61.6414871 205.8414001 -48.7128067
-59.8100052 205.5336304 -47.4576187
-57.9475632 205.2424469 -46.2926636
-56.1372757 204.9915314 -45.2942162
-54.3155785 204.7534485 -44.3643074
-52.5071106 204.5418396 -43.5586166
-50.7147942 204.3506012 -42.8403969
-48.9053993 204.1726837 -42.1969299
-47.1348915 204.0120544 -41.6304054
-45.3418579 203.8751984 -41.1567459
-43.5606461 203.7409973 -40.7363472
-41.8008156 203.6378174 -40.4107361
-40.0237503 203.5369568 -40.1395645
-38.2704391 203.4589996 -39.9386063
-36.4980202 203.3927765 -39.8112411
-34.7466583 203.3392639 -39.7473717
-32.9867096 203.2983398 -39.7340469
-31.2299557 203.2763977 -39.8001099
-27.7341652 203.2621155 -40.1017151
-25.9851646 203.2780762 -40.3585739
-24.2376328 203.3049622 -40.6734734
-22.4993439 203.3508301 -41.0505981
-20.7568092 203.4066162 -41.4971390
-18.9916229 203.4834900 -42.0286217
-17.2718048 203.5698700 -42.6172256
-15.5120564 203.6790009 -43.3014526
-13.7547159 203.8002167 -44.0654640
-12.0185909 203.9417877 -44.8909531
-6.7573309 204.4861298 -47.9898262
-5.0059419 204.7103271 -49.2257690
-3.2470591 204.9708405 -50.6216393
0.2807293 205.5773163 -53.8300591
2.0834689 205.9493408 -55.7508163
7.4462433 207.4149780 -63.1818810
-69.1615448 205.5401001 -54.8506050
-67.2464371 205.0866394 -52.8945427
-65.3522949 204.6777802 -51.1634941
-63.4696045 204.3097229 -49.6074982
-61.6083374 203.9772339 -48.2288551
-59.7818985 203.6837769 -47.0207901
-57.9179153 203.3993225 -45.8774109
-56.1056213 203.1562195 -44.8975105
-54.2792130 202.9192047 -43.9781914
-52.4819412 202.7145538 -43.1904068
-50.6819267 202.5254517 -42.4836273
-48.8851509 202.3590393 -41.8666077
-47.1097298 202.2010651 -41.3105087
-45.3174133 202.0653687 -40.8473091
-43.5530167 201.9434052 -40.4464226
-41.7824707 201.8326874 -40.1184959
-40.0024643 201.7384644 -39.8480568
-38.2455521 201.6572571 -39.6525574
-36.4789314 201.5989075 -39.5392342
-34.7281952 201.5462036 -39.4736595
-32.9713783 201.5030060 -39.4544296
-31.2140255 201.4776611 -39.5135498
-29.4863396 201.4694824 -39.6431580
-27.7155724 201.4677124 -39.8290939
-25.9688416 201.4839935 -40.0841522
-22.4855652 201.5558167 -40.7792053
-20.7511082 201.6139069 -41.2266541
-18.9810276 201.6839905 -41.7392120
-17.2580471 201.7652588 -42.3104286
-15.5085402 201.8697510 -42.9878273
-13.7376108 201.9950409 -43.7467651
-12.0121994 202.1292114 -44.5665817
-10.2646866 202.2883911 -45.4832840
-8.5068703 202.4625244 -46.4971542
-6.7460303 202.6576691 -47.6045761
-4.9947920 202.8848267 -48.8475189
-3.2388692 203.1270294 -50.1905479
-1.4661950 203.4100037 -51.7012444
0.2921448 203.7149658 -53.3317566
2.0827022 204.0705566 -55.1966171
3.8432727 204.4650574 -57.2438889
5.6413207 204.9239960 -59.5945663
-71.0422058 204.1405029 -56.4475060
-69.1104813 203.6438141 -54.2757912
-67.1878662 203.2013397 -52.3597908
-65.3227386 202.8185730 -50.7105827
-63.4293823 202.4564667 -49.1847687
-61.5652885 202.1323547 -47.8353577
-59.7393265 201.8458557 -46.6400146
-57.8887138 201.5744019 -45.5409164
-56.0762520 201.3346863 -44.5756836
-54.2622948 201.1111755 -43.6891975
-52.4598236 200.9099274 -42.9175491
-50.6593742 200.7250671 -42.2201691
-48.8641129 200.5596161 -41.6122971
-47.0938034 200.4094086 -41.0775108
-45.2993546 200.2726440 -40.6062927
-43.5230446 200.1490936 -40.2074242
-41.7654648 200.0496368 -39.8953705
-39.9900513 199.9551239 -39.6412811
-38.2335434 199.8797302 -39.4548988
-36.4633369 199.8138733 -39.3209000
-34.7199593 199.7634735 -39.2617683
-32.9586143 199.7240906 -39.2514534
-31.1990089 199.6971588 -39.3046799
-27.6984806 199.6930847 -39.6237640
-25.9554501 199.7018127 -39.8726273
-24.2093925 199.7362366 -40.1982613
-22.4763622 199.7824097 -40.5865288
-20.7353935 199.8284760 -41.0098839
-18.9730034 199.8992767 -41.5175858
-17.2450867 199.9837952 -42.0914268
-15.4884682 200.0835724 -42.7591133
-13.7344208 200.2040405 -43.4995995
-12.0047312 200.3352661 -44.3090286
-10.2536201 200.4852448 -45.2126083
-8.4954643 200.6585846 -46.2212601
-6.7341862 200.8549194 -47.3250275
-4.9875145 201.0663757 -48.5307922
-1.4568596 201.5759583 -51.3201408
0.3011056 201.8787994 -52.9353943
2.0927000 202.2183075 -54.7508011
3.8461480 202.5987244 -56.7406235
7.4525666 203.5499573 -61.6606369
-70.9940872 202.2493439 -55.9077225
-69.0758057 201.7807617 -53.8304405
-67.1577072 201.3496399 -51.9630165
-65.2802887 200.9720764 -50.3333130
-63.4014664 200.6286621 -48.8687439
-61.5402908 200.3133850 -47.5388031
-59.7177734 200.0347290 -46.3777733
-57.8631592 199.7693787 -45.2912521
-56.0571823 199.5372772 -44.3493500
-54.2331161 199.3125000 -43.4661407
-52.4330826 199.1172943 -42.7045860
-50.6472206 198.9420929 -42.0384407
-48.8465042 198.7778625 -41.4305801
-47.0801620 198.6306152 -40.9034958
-45.2776413 198.4944305 -40.4311867
-43.5061111 198.3733673 -40.0295639
-41.7561913 198.2762299 -39.7347641
-39.9794579 198.1854858 -39.4852982
-38.2219009 198.1106262 -39.3035278
-36.4516602 198.0473480 -39.1767159
-29.4604492 197.9245911 -39.2903976
-27.6840057 197.9182587 -39.4580154
-25.9447269 197.9413757 -39.7302475
-24.2086182 197.9649658 -40.0375290
-22.4722729 198.0073090 -40.4142418
-18.9632149 198.1297607 -41.3536224
-17.2319889 198.2099915 -41.9284172
-15.4787817 198.3121948 -42.5991211
-13.7290964 198.4246216 -43.3182755
-11.9973631 198.5574951 -44.1328049
-10.2405977 198.7075043 -45.0359230
-8.4897957 198.8738403 -46.0230484
-6.7338119 199.0624695 -47.1056747
-4.9788680 199.2711029 -48.2906723
-3.2233658 199.5064087 -49.6035614
-1.4539342 199.7678375 -51.0409927
0.2958404 200.0550842 -52.6146164
2.0929537 200.3908081 -54.4064407
3.8546910 200.7585907 -56.3632050
5.6392016 201.1800385 -58.5773964
7.4538989 201.6778412 -61.1532593
9.2421837 202.2499084 -64.1036072
-72.9231262 200.9150238 -57.8642769
-70.9642715 200.3921661 -55.5152702
-69.0350647 199.9284668 -53.4615250
-67.1333313 199.5210724 -51.6648674
-65.2617340 199.1547699 -50.0772820
-63.3860779 198.8204803 -48.6373367
-61.5208740 198.5085144 -47.3202858
-59.6915588 198.2357941 -46.1746788
-57.8471947 197.9780884 -45.1142845
-56.0315094 197.7469788 -44.1743889
-54.2188416 197.5338745 -43.3190002
-52.4220810 197.3420563 -42.5654488
-50.6340408 197.1699371 -41.9052238
-47.0625153 196.8644562 -40.7956657
-45.2697830 196.7319794 -40.3260727
-43.4945679 196.6149902 -39.9404030
-41.7428780 196.5158386 -39.6351204
-38.2064362 196.3551025 -39.2110214
-36.4363556 196.2913818 -39.0867844
-34.6976471 196.2451324 -39.0260849
-32.9336777 196.2077332 -39.0345230
-31.1795464 196.1859436 -39.1079102
-29.4469090 196.1696930 -39.2106361
-27.6795750 196.1706543 -39.3855934
-25.9343472 196.1878662 -39.6535988
-24.1964779 196.2209015 -39.9785080
-22.4583797 196.2546082 -40.3302231
-20.7138596 196.3053894 -40.7564621
-18.9557457 196.3744202 -41.2693024
-15.4649410 196.5534821 -42.4948311
-13.7213135 196.6647034 -43.2168159
-11.9889154 196.7948914 -44.0264587
-10.2275763 196.9422455 -44.9227104
-8.4873343 197.1056519 -45.8899689
-6.7286348 197.2857056 -46.9534073
-4.9743214 197.4931641 -48.1328125
-3.2166443 197.7250519 -49.4405823
-1.4442091 197.9836578 -50.8779602
0.3074709 198.2640991 -52.4247818
2.1059842 198.5917664 -54.1960754
3.8617587 198.9477844 -56.1125717
7.4541397 199.8281403 -60.7633476
9.2434616 200.3799744 -63.6311188
-72.8926392 199.0650940 -57.5227280
-70.9412842 198.5600433 -55.2420349
-69.0184784 198.1125793 -53.2432251
-67.1046066 197.7115479 -51.4639816
-65.2365112 197.3538208 -49.9015732
-63.3607101 197.0273743 -48.4862595
-61.4988403 196.7263794 -47.1991806
-59.6811066 196.4595032 -46.0686874
-57.8403549 196.2078552 -45.0229149
-56.0267601 195.9832458 -44.0983505
-54.2065811 195.7709503 -43.2458267
-52.4063454 195.5801392 -42.4958344
-50.6073990 195.4067078 -41.8318405
-48.8193207 195.2537384 -41.2523727
-47.0459976 195.1100769 -40.7366905
-45.2603416 194.9841461 -40.2891045
-43.4892426 194.8689728 -39.9098434
-41.7332001 194.7711487 -39.6085205
-38.2054062 194.6166382 -39.1941605
-36.4308777 194.5521545 -39.0662918
-34.6774635 194.5029755 -39.0039482
-32.9201279 194.4656982 -39.0095673
-31.1675282 194.4450226 -39.0786667
-29.4375229 194.4292908 -39.1831665
-27.6642513 194.4340210 -39.3765945
-25.9314137 194.4440308 -39.6195831
-24.1901855 194.4763031 -39.9416924
-22.4474983 194.5153046 -40.3136368
-20.7084656 194.5686798 -40.7479134
-18.9460564 194.6323395 -41.2452011
-17.2128353 194.7162628 -41.8251877
-15.4624157 194.8069763 -42.4571762
-13.7125788 194.9199066 -43.1850815
-11.9797373 195.0450134 -43.9822845
-10.2166986 195.1907501 -44.8715973
-8.4815950 195.3521576 -45.8422966
-6.7190857 195.5328979 -46.9065094
-4.9695606 195.7307739 -48.0658798
-3.2117527 195.9588318 -49.3559723
-1.4360257 196.2084198 -50.7661552
0.3085899 196.4843903 -52.2991638
2.1074100 196.8004150 -54.0360794
3.8691065 197.1524506 -55.9403915
5.6566324 197.5502930 -58.0725555
7.4670067 198.0106354 -60.5191383
9.2518063 198.5401001 -63.3012390
11.0626040 199.1846619 -66.6526337
-72.8657684 197.2372131 -57.2920341
-70.9100266 196.7451477 -55.0556374
-69.0061111 196.3185272 -53.1258125
-67.0730820 195.9173126 -51.3400269
-65.2235870 195.5729065 -49.8152847
-63.3471375 195.2509460 -48.4105225
-61.4923782 194.9571228 -47.1414719
-59.6663513 194.6922455 -46.0163536
-57.8235741 194.4465942 -44.9847336
-56.0189743 194.2253571 -44.0721474
-54.2024727 194.0182190 -43.2316475
-52.4095230 193.8363495 -42.5044212
-50.6066704 193.6652832 -41.8422432
-48.8082123 193.5082245 -41.2507172
-47.0540962 193.3753967 -40.7607651
-45.2552299 193.2485352 -40.3206062
-43.4835739 193.1363220 -39.9444351
-39.9354362 192.9489441 -39.3793907
-38.1850815 192.8785095 -39.2084732
-29.4267845 192.7038879 -39.2260361
-27.6607971 192.7116394 -39.4402428
-25.9225235 192.7227783 -39.6807785
-24.1782188 192.7489624 -39.9829063
-22.4402180 192.7880249 -40.3575363
-20.6960907 192.8401794 -40.7875900
-17.2152710 192.9837646 -41.8566513
-15.4561529 193.0792542 -42.5019035
-13.7052927 193.1861267 -43.2184906
-11.9691343 193.3122711 -44.0112991
-10.2143726 193.4483490 -44.8761139
-8.4753914 193.6122284 -45.8540115
-6.7155676 193.7910767 -46.9235687
-4.9618564 193.9883423 -48.0760193
0.3237605 194.7300873 -52.2885513
2.1125827 195.0351563 -53.9873657
3.8801904 195.3798218 -55.8728065
5.6606674 195.7626953 -57.9572563
7.4682527 196.2150421 -60.3792229
9.2540760 196.7269745 -63.1027603
11.0724602 197.3567352 -66.4021301
-72.8498993 195.4369202 -57.1913986
-70.8967590 194.9566345 -54.9874954
-68.9917297 194.5361023 -53.0728111
-67.0732956 194.1472931 -51.3226280
-65.2147369 193.8070831 -49.8067589
-63.3364716 193.4899292 -48.4117088
-61.4856110 193.2029266 -47.1629677
-59.6631813 192.9450378 -46.0550194
-57.8175697 192.7031555 -45.0312653
-56.0185852 192.4869843 -44.1294250
-54.1952744 192.2802124 -43.2851944
-52.3910904 192.0976868 -42.5508232
-50.6042862 191.9341431 -41.9103928
-48.8009872 191.7788391 -41.3221512
-45.2440720 191.5206299 -40.3885727
-41.7125969 191.3161011 -39.7227936
-39.9473991 191.2358398 -39.4944878
-38.1859741 191.1614990 -39.3020859
-27.6614075 190.9947357 -39.5312042
-25.9277363 191.0063171 -39.7724609
-24.1743126 191.0310974 -40.0703278
-22.4288101 191.0712280 -40.4423447
-20.6914692 191.1217194 -40.8820496
-18.9366493 191.1882629 -41.3915329
-17.2082806 191.2670441 -41.9590073
-15.4475441 191.3624268 -42.6116562
-13.7002316 191.4668884 -43.3154488
-11.9623013 191.5872345 -44.0916634
-10.2026043 191.7298737 -44.9796410
-8.4700108 191.8846893 -45.9348297
-6.7137756 192.0599060 -46.9923210
-4.9555426 192.2505341 -48.1253281
-3.1970847 192.4701996 -49.3957977
-1.4266522 192.7146759 -50.8023338
0.3267883 192.9793243 -52.3050652
2.1163073 193.2840271 -54.0137405
3.8867674 193.6208954 -55.8757477
5.6700640 194.0038757 -57.9755096
7.4729905 194.4445343 -60.3637390
9.2570896 194.9432526 -63.0427246
11.0735741 195.5485229 -66.2559052
-72.8331985 193.6524200 -57.1727638
-70.8865051 193.1853027 -55.0076599
-68.9784393 192.7724152 -53.1131477
-67.0696869 192.3942566 -51.3950653
-65.2111969 192.0590210 -49.8875046
-63.3283005 191.7442474 -48.4897614
-61.4750862 191.4639893 -47.2602806
-59.6542931 191.2103882 -46.1629562
-57.8123322 190.9717407 -45.1420174
-56.0048637 190.7569580 -44.2385712
-54.1939621 190.5569763 -43.4099731
-52.3918533 190.3772583 -42.6848526
-50.5923653 190.2121735 -42.0344467
-48.8059540 190.0631714 -41.4587288
-45.2447662 189.8078003 -40.5261841
-43.4710426 189.6991577 -40.1606979
-39.9351730 189.5247955 -39.6365662
-38.1790657 189.4518280 -39.4467583
-31.1458836 189.2952118 -39.3644142
-29.4213562 189.2841187 -39.4823112
-27.6607456 189.2854004 -39.6700325
-25.9189911 189.3058319 -39.9417114
-22.4272747 189.3650055 -40.6008568
-18.9269562 189.4832306 -41.5447006
-17.1981163 189.5614014 -42.1191406
-15.4450474 189.6524658 -42.7593689
-13.6912546 189.7601929 -43.4776917
-11.9553432 189.8771515 -44.2492447
-10.1997910 190.0168152 -45.1285439
-8.4636545 190.1693878 -46.0788116
-6.7039638 190.3459320 -47.1439171
-4.9496651 190.5368958 -48.2883186
-3.1910226 190.7460938 -49.5285797
-1.4268922 190.9897614 -50.9339638
0.3270367 191.2521973 -52.4421082
2.1215346 191.5527496 -54.1380463
3.8873887 191.8827362 -55.9874344
5.6765146 192.2607117 -58.0774460
7.4874439 192.6983185 -60.4689789
9.2677355 193.1882935 -63.1287766
-72.8386078 191.8974762 -57.2976570
-70.8874893 191.4323425 -55.1231232
-68.9830093 191.0272675 -53.2450523
-67.0694275 190.6533508 -51.5312271
-65.2045517 190.3204041 -50.0207939
-63.3376846 190.0171051 -48.6597862
-61.4816856 189.7405090 -47.4362831
-59.6625443 189.4906769 -46.3436813
-57.8150711 189.2526550 -45.3157692
-56.0049667 189.0401306 -44.4137955
-54.1923256 188.8459167 -43.6062241
-52.3938751 188.6683350 -42.8802109
-50.6013794 188.5060730 -42.2326469
-48.7977066 188.3557892 -41.6494102
-47.0411110 188.2271423 -41.1697083
-45.2402039 188.1048126 -40.7275925
-43.4741325 187.9999237 -40.3684082
-41.7141190 187.9076996 -40.0769272
-39.9477005 187.8284149 -39.8478050
-31.1498871 187.5987549 -39.5672607
-13.6931038 188.0632782 -43.6983871
-11.9561653 188.1798706 -44.4683380
-10.1931553 188.3179169 -45.3512421
-8.4572277 188.4677429 -46.2904129
-6.6961651 188.6408386 -47.3526230
-4.9474654 188.8307953 -48.4979248
-3.1918018 189.0418396 -49.7527351
-1.4201269 189.2818604 -51.1558380
0.3379230 189.5432434 -52.6679573
2.1310189 189.8377075 -54.3509521
3.8944042 190.1618500 -56.1851997
5.6812177 190.5361023 -58.2737045
7.4742484 190.9582672 -60.6127129
9.2705021 191.4455261 -63.2797623
11.0932121 192.0289459 -66.4402542
-72.8449020 190.1560211 -57.4981155
-70.8950272 189.6992798 -55.3405533
-68.9841309 189.2951660 -53.4506760
-67.0713501 188.9273376 -51.7468071
-65.2148361 188.6044312 -50.2686539
-63.3486099 188.3038330 -48.9070206
-61.4856033 188.0280914 -47.6740799
-59.6626587 187.7783203 -46.5699081
-57.8171387 187.5449677 -45.5531311
-56.0086632 187.3387146 -44.6719208
-54.1955032 187.1461029 -43.8614502
-52.3914948 186.9682159 -43.1269188
-50.6012802 186.8078613 -42.4803391
-48.8053055 186.6629791 -41.9143181
-47.0411987 186.5348816 -41.4312820
-45.2495728 186.4160461 -41.0000420
-43.4790993 186.3096924 -40.6292725
-41.7182236 186.2181854 -40.3351822
