47.7387848 135.7357788 186.0655823
49.1575089 135.8613586 185.2632141
50.5719833 135.9963074 184.3938141
51.9944649 136.1484985 183.4408569
53.4410706 136.3161316 182.3921661
54.8812714 136.5044556 181.2476196
56.3407059 136.7132874 179.9812622
57.8120956 136.9435120 178.5998840
59.3000984 137.2037506 177.0520782
60.8090553 137.5045776 175.3037567
62.3353424 137.8414917 173.3394165
-7.0079780 137.1742554 176.7978821
-5.6139412 136.8715210 178.3013000
-4.2225580 136.5917664 179.6781311
-2.8335509 136.3324280 180.9410400
-1.4532622 136.0944214 182.0889282
-0.0701816 135.8726196 183.1554565
1.2926419 135.6687012 184.1219635
2.6760869 135.4775696 185.0222473
4.0332727 135.2996674 185.8393555
5.3991265 135.1360626 186.5989380
6.7708101 134.9790344 187.3025208
8.1210337 134.8402252 187.9284668
9.4844074 134.7049103 188.5165710
10.8327370 134.5836792 189.0406189
42.1256447 133.9936218 189.1111755
43.5225716 134.0683136 188.5747375
44.9079399 134.1508179 187.9891357
46.3121719 134.2444153 187.3343201
47.7081680 134.3495026 186.6361389
49.1268921 134.4655457 185.8552551
50.5434456 134.6015320 184.9983978
51.9603424 134.7419128 184.0819092
53.4083710 134.9047241 183.0577698
54.8375511 135.0836334 181.9480438
56.2903519 135.2832947 180.7266846
57.7609863 135.5027771 179.3865051
59.2396927 135.7524872 177.8962402
60.7475090 136.0328674 176.2241364
62.2587509 136.3462830 174.3746643
63.8242798 136.7211609 172.1955414
-6.9961815 135.7106628 177.6151886
-5.6042714 135.4219818 179.0630188
-4.2124796 135.1515503 180.3987427
-2.8258832 134.9023743 181.6171570
-1.4512341 134.6758575 182.7256317
-0.0620715 134.4605713 183.7663269
1.2965064 134.2631226 184.7066650
2.6796119 134.0747986 185.5910797
4.0353441 133.9065094 186.3873749
5.3998618 133.7459412 187.1317139
6.7699080 133.5946808 187.8141479
8.1240225 133.4585724 188.4309998
9.4809828 133.3280640 189.0054169
43.4973679 132.6994629 189.0564880
44.8855629 132.7809448 188.4743958
46.2900200 132.8728180 187.8335266
47.6861992 132.9728394 187.1456299
49.0997086 133.0877533 186.3798981
50.5121384 133.2140656 185.5490723
51.9212799 133.3507385 184.6528625
53.3704605 133.5104828 183.6477051
54.8032570 133.6796265 182.5767212
56.2471809 133.8696136 181.3945923
57.7158356 134.0816956 180.0918884
59.1887703 134.3168640 178.6543427
60.6879272 134.5836487 177.0477448
62.1908112 134.8824005 175.2751617
63.7432098 135.2267914 173.2261047
-8.3935280 134.5756683 176.7812195
-6.9813628 134.2661133 178.3480530
-5.5972376 133.9878540 179.7464600
-4.2014308 133.7285767 181.0392151
-2.8185253 133.4892883 182.2253265
-1.4377334 133.2664032 183.3162079
-0.0589863 133.0612183 184.3179932
1.2976238 132.8718567 185.2328796
2.6877546 132.6872101 186.1056824
4.0443101 132.5241547 186.8826599
5.4017324 132.3689880 187.6033630
6.7737284 132.2185364 188.2825623
8.1283264 132.0883789 188.8839722
44.8715744 131.4257507 188.8997803
46.2676010 131.5097046 188.2863464
47.6636810 131.6100769 187.6034393
51.9003906 131.9777374 185.1496429
53.3400841 132.1262817 184.1826019
54.7660065 132.2898712 183.1360779
56.2122879 132.4732971 181.9818268
57.6763191 132.6771088 180.7154388
59.1458168 132.9028320 179.3199921
60.6379395 133.1564178 177.7750092
62.1380005 133.4367676 176.0655212
63.6779976 133.7633209 174.1141357
-9.7703838 133.4517365 175.8453522
-8.3765259 133.1332855 177.4892578
-6.9674411 132.8363342 179.0023499
-5.5780482 132.5702515 180.3562622
-4.1893802 132.3195038 181.6173248
-2.8128469 132.0899200 182.7647705
-1.4330029 131.8750000 183.8262024
-0.0510581 131.6720276 184.8199463
1.3053135 131.4903412 185.7084656
2.6888716 131.3123322 186.5564270
4.0445013 131.1540222 187.3160248
5.4066305 131.0003357 188.0306549
6.7769461 130.8588409 188.6909790
46.2462807 130.1592407 188.6868896
47.6433487 130.2560120 188.0089264
51.8747177 130.6137085 185.5976257
53.3097458 130.7580414 184.6478577
54.7397232 130.9170837 183.6189270
56.1823273 131.0902557 182.5013885
57.6427803 131.2877045 181.2632141
59.1099701 131.5033875 179.9075012
60.5959015 131.7457275 178.4087219
62.0927658 132.0156403 176.7554321
63.6210022 132.3245544 174.8842010
65.1566696 132.6740570 172.7721558
-9.7566528 132.0174103 176.5093994
-8.3578968 131.7078247 178.1154327
-6.9567919 131.4255371 179.5748596
-5.5684290 131.1661682 180.9014282
-4.1812611 130.9245453 182.1263428
-2.8025434 130.7012329 183.2483673
-1.4220289 130.4947510 184.2891846
-0.0463117 130.2996216 185.2485962
1.3136634 130.1187897 186.1303558
2.6941490 129.9466553 186.9659119
4.0508599 129.7908325 187.7150116
5.4068155 129.6423035 188.4129028
6.7789221 129.5057068 189.0567627
46.2333755 128.8215942 189.0245056
47.6288834 128.9135284 188.3651886
49.0342903 129.0167694 187.6427612
50.4412155 129.1333008 186.8488159
51.8514442 129.2587891 186.0016937
53.2877426 129.4002686 185.0599976
54.7102661 129.5536194 184.0542908
56.1594048 129.7224426 182.9572906
57.6065826 129.9109955 181.7491302
59.0734673 130.1203613 180.4268646
60.5585594 130.3506927 178.9677277
62.0499496 130.6108398 177.3620758
63.5786591 130.9070129 175.5416565
65.1013412 131.2377319 173.5212708
66.6677628 131.6240387 171.1787109
-9.7388191 130.5971375 177.1026611
-8.3501396 130.3038177 178.6458282
-6.9395018 130.0251312 180.0848389
-5.5573478 129.7784576 181.3696747
-4.1714077 129.5443726 182.5681458
-2.7913876 129.3273010 183.6712799
-1.4156243 129.1228943 184.6967316
-0.0418418 128.9363403 185.6316071
1.3187915 128.7596130 186.4988708
2.6984987 128.5936737 187.3153229
4.0536265 128.4398956 188.0555115
5.4113388 128.2968750 188.7410736
47.6141815 127.5822449 188.6722717
49.0148277 127.6794891 187.9681702
50.4253922 127.7936630 187.1856232
51.8319092 127.9129333 186.3518677
53.2703972 128.0545959 185.4187622
54.6876297 128.2007751 184.4369812
56.1313629 128.3652191 183.3575287
57.5868225 128.5478210 182.1694336
59.0452957 128.7497711 180.8759308
60.5329208 128.9764862 179.4416504
62.0085106 129.2206726 177.8943176
63.5344009 129.5028839 176.1305084
65.0558929 129.8201752 174.1729126
66.6164474 130.1887817 171.9190674
-11.1363392 129.5056610 175.9489746
-9.7259254 129.1941528 177.6143494
-8.3351326 128.9099884 179.1169128
-6.9278135 128.6418152 180.5222778
-5.5526662 128.4014587 181.7808228
-4.1587734 128.1712341 182.9641113
-2.7856493 127.9623566 184.0393982
-1.4128580 127.7657776 185.0418091
-0.0339746 127.5816193 185.9639893
1.3245375 127.4112396 186.8163452
2.7038455 127.2479706 187.6194611
4.0578823 127.0990906 188.3517761
5.4169950 126.9588013 189.0275269
47.5973816 126.2563400 188.9412537
49.0041580 126.3510132 188.2454834
50.4138031 126.4629822 187.4712677
51.8138428 126.5802307 186.6528168
53.2535019 126.7152786 185.7333221
54.6701889 126.8614044 184.7587891
56.1158142 127.0196915 183.6943512
57.5627899 127.1965332 182.5321045
59.0208588 127.3920670 181.2608337
60.5001450 127.6080246 179.8653870
61.9803085 127.8475037 178.3451691
63.4988632 128.1194305 176.6259613
65.0148087 128.4225464 174.7281494
66.5678024 128.7711487 172.5635681
-11.1216240 128.1058044 176.4333191
-9.7197380 127.8046188 178.0535278
-8.3233881 127.5298538 179.5245514
-6.9232483 127.2711182 180.8961182
-5.5367293 127.0335159 182.1425171
-4.1540394 126.8141708 183.2904510
-2.7796164 126.6082230 184.3537903
-1.4088869 126.4190216 185.3316345
-0.0304515 126.2380295 186.2503204
1.3296708 126.0700912 187.0929871
2.7078309 125.9100189 187.8922424
4.0601048 125.7646103 188.6087799
5.4188504 125.6298828 189.2685394
47.5879211 124.9383774 189.1737823
48.9972725 125.0345383 188.4716187
50.3950996 125.1385956 187.7184601
51.8047180 125.2562790 186.9027863
53.2373924 125.3863220 185.9995880
54.6530876 125.5267715 185.0397491
56.0966110 125.6823425 183.9917603
57.5446396 125.8563232 182.8442078
58.9980621 126.0450211 181.5913391
60.4792366 126.2563095 180.2185974
61.9550133 126.4871979 178.7286987
63.4678383 126.7485657 177.0482635
64.9780579 127.0388031 175.2084351
66.5245514 127.3709106 173.1145630
68.1214905 127.7682953 170.6433716
-11.1108274 126.7200851 176.8442230
-9.7024040 126.4272919 178.4367065
-8.3140163 126.1599655 179.8770142
-6.9073353 125.9070969 181.2272339
-5.5300603 125.6809692 182.4372101
-4.1443329 125.4631348 183.5788574
-2.7698402 125.2628937 184.6257172
-1.3940413 125.0758057 185.5990143
-0.0248063 124.9005280 186.4992371
1.3337232 124.7390060 187.3241730
2.7108588 124.5806351 188.1158142
4.0662146 124.4405212 188.8195190
48.9821625 123.7228394 188.6651001
50.3921204 123.8280334 187.9117737
57.5322647 124.5248566 183.0965729
58.9804611 124.7082367 181.8679962
60.4577026 124.9132385 180.5163879
61.9375153 125.1390457 179.0433655
63.4401398 125.3900833 177.4112854
64.9531326 125.6735535 175.5939636
66.4920578 125.9921722 173.5615692
68.0789642 126.3678894 171.1873474
-12.5268478 125.6599045 175.4580841
-11.1027317 125.3471527 177.1888733
-9.6926184 125.0614014 178.7509155
-8.3053722 124.8024750 180.1655884
-6.9047718 124.5584564 181.4882965
-5.5217142 124.3342438 182.6917877
-4.1386127 124.1248016 183.8075562
-2.7646451 123.9288712 184.8416290
-1.3891290 123.7443085 185.8109436
-0.0209080 123.5740128 186.6943970
1.3436288 123.4147491 187.5132294
2.7162232 123.2621536 188.2884064
4.0733280 123.1217194 188.9927673
48.9809265 122.4201431 188.8122559
50.3844261 122.5206604 188.0693359
57.5142670 123.2028961 183.3044739
58.9669876 123.3824921 182.0903778
60.4412842 123.5824966 180.7566223
61.9130859 123.7991638 179.3158569
63.4262009 124.0458755 177.6984711
64.9261398 124.3182831 175.9254150
66.4670029 124.6274643 173.9274597
68.0470047 124.9885330 171.6177979
-12.5139523 124.2893372 175.7718811
-11.0855198 123.9825287 177.4818573
-9.6852531 123.7073975 179.0104828
-8.2946110 123.4544830 180.4045715
-6.8921833 123.2149734 181.7117157
-2.7583022 122.6010895 185.0194244
-1.3849770 122.4219513 185.9687347
-0.0076305 122.2523804 186.8538513
1.3446590 122.0984039 187.6575012
2.7185488 121.9483719 188.4272614
4.0751090 121.8124542 189.1183167
48.9780769 121.1220703 188.9266357
50.3796959 121.2225647 188.1849976
51.7849236 121.3326569 187.3874969
53.2103500 121.4521408 186.5210571
54.6256027 121.5847244 185.5849915
56.0646324 121.7306213 184.5639191
57.5109596 121.8914185 183.4552460
58.9565887 122.0652313 182.2638702
60.4329300 122.2598877 180.9458923
61.9038506 122.4732056 179.5142670
63.4110756 122.7126617 177.9184875
64.9107666 122.9754791 176.1847382
66.4463882 123.2769623 174.2162628
68.0243683 123.6283951 171.9465942
-12.5052128 122.9301147 176.0211182
-11.0827856 122.6327133 177.7015228
-9.6773529 122.3628998 179.2138062
-8.2876186 122.1151886 180.5930328
-6.8856173 121.8819809 181.8803711
-2.7504475 121.2809830 185.1542969
-1.3776202 121.1051254 186.0942993
-0.0052010 120.9410934 186.9661865
1.3486867 120.7885132 187.7682037
2.7229021 120.6420517 188.5288696
4.0751381 120.5094604 189.2079315
47.5725479 119.7437592 189.6759644
48.9783859 119.8335419 188.9939575
50.3738022 119.9295197 188.2666779
51.7821884 120.0382538 187.4707947
53.2082291 120.1549759 186.6132507
54.6231499 120.2865448 185.6766663
56.0613480 120.4303894 184.6600494
57.5039520 120.5865631 183.5670471
58.9532318 120.7559814 182.3878174
60.4210014 120.9466095 181.0821838
61.8935966 121.1551819 179.6634064
63.3955154 121.3897552 178.0873108
64.9012909 121.6477966 176.3644714
66.4318237 121.9392853 174.4335022
68.0011673 122.2764740 172.2218781
-12.4977646 121.5823517 176.2084045
-11.0778790 121.2922134 177.8642883
-9.6727800 121.0286560 179.3601227
-8.2811384 120.7865524 180.7232971
-6.8801365 120.5588760 181.9936218
-5.5061421 120.3510513 183.1494293
-4.1171455 120.1516876 184.2438812
-0.0006759 119.6352234 187.0396118
1.3500224 119.4859009 187.8352356
2.7264175 119.3422775 188.5884094
4.0805912 119.2106323 189.2715607
47.5758362 118.4627151 189.7014771
48.9800034 118.5497818 189.0278625
50.3772354 118.6444016 188.3036346
51.7825546 118.7506256 187.5134125
53.2087212 118.8680878 186.6504364
57.5001488 119.2874069 183.6412964
58.9478760 119.4554596 182.4612427
60.4185677 119.6438065 181.1593018
61.8934822 119.8473969 179.7558594
63.3930092 120.0755539 178.2004700
64.8890228 120.3278656 176.4965515
66.4232178 120.6125793 174.5861816
67.9941711 120.9417572 172.4014130
69.5737152 121.3177643 169.9209900
-12.4863558 120.2430420 176.3461151
-11.0699015 119.9599457 177.9782562
-9.6640005 119.7026291 179.4557495
-8.2697821 119.4637299 180.8132629
-6.8740139 119.2412643 182.0726929
-5.4992523 119.0368347 183.2204285
-4.1125574 118.8435364 184.2961426
0.0051597 118.3366547 187.0722198
1.3594873 118.1890717 187.8664856
2.7341111 118.0476227 188.6176758
4.0860114 117.9185638 189.2955322
47.5754814 117.1848450 189.7038116
48.9811096 117.2714081 189.0273438
50.3782883 117.3660431 188.3010406
51.7869644 117.4694443 187.5183868
53.2101822 117.5843201 186.6620483
57.5039825 117.9971313 183.6627502
58.9486389 118.1640167 182.4832458
60.4202271 118.3470383 181.1952820
61.8859711 118.5459366 179.8100739
63.3935928 118.7703171 178.2619324
64.8854446 119.0177231 176.5688019
66.4176788 119.2970123 174.6723022
67.9843750 119.6175613 172.5161896
69.5617447 119.9843140 170.0687866
-12.4824467 118.9142151 176.4184265
-11.0669231 118.6383820 178.0306091
-9.6587296 118.3847351 179.5016479
-8.2696705 118.1522980 180.8417969
-6.8739004 117.9341278 182.0895081
0.0055166 117.0451813 187.0610199
1.3690362 116.8985519 187.8583374
2.7427175 116.7596436 188.6056976
4.0911283 116.6329803 189.2805786
48.9858208 115.9998627 188.9872894
50.3840141 116.0917511 188.2672424
54.6309128 116.4321594 185.7058105
56.0704956 116.5680161 184.7068787
57.5101662 116.7168198 183.6271973
58.9509735 116.8776779 182.4684906
60.4217453 117.0576324 181.1890869
61.8929863 117.2523422 179.8107147
63.3939285 117.4748459 178.2616119
64.8892975 117.7164764 176.5845947
66.4266129 117.9924774 174.6914673
67.9843140 118.3048553 172.5626526
69.5607910 118.6634598 170.1395111
71.1977997 119.0955658 167.2479095
-12.4757986 117.5935287 176.4420166
-11.0605202 117.3219070 178.0476074
-9.6532860 117.0748825 179.4983978
-8.2653542 116.8465042 180.8298187
-6.8645840 116.6311569 182.0758362
0.0106682 115.7569122 187.0254669
1.3679471 115.6146393 187.8099518
2.7417650 115.4782867 188.5513763
4.0946665 115.3533096 189.2249146
48.9862976 114.7320251 188.9168701
50.3925400 114.8245544 188.1902771
54.6302109 115.1583633 185.6439209
56.0735130 115.2933044 184.6409607
57.5128937 115.4391327 183.5676575
58.9579430 115.5988541 182.4065094
60.4232864 115.7748260 181.1364136
61.9010468 115.9707642 179.7403717
63.3944473 116.1865997 178.2119598
64.8964767 116.4249420 176.5417786
66.4245453 116.6940994 174.6682129
67.9853210 117.0008392 172.5514221
69.5550079 117.3526917 170.1466827
71.1982727 117.7788773 167.2575073
-12.4775314 116.2833710 176.3984833
-11.0548983 116.0154266 178.0015564
-9.6548233 115.7729263 179.4432220
-5.4832115 115.1409836 183.1492004
-4.0957689 114.9568024 184.2126160
0.0180786 114.4752960 186.9473572
1.3765626 114.3353500 187.7264862
2.7525032 114.2000732 188.4732819
4.1052771 114.0766754 189.1459045
49.0015259 113.4716415 188.7993927
50.3981934 113.5617294 188.0805054
51.8085632 113.6622620 187.2940521
53.2307205 113.7725601 186.4420776
54.6440086 113.8926086 185.5279846
56.0790520 114.0241165 184.5366364
57.5245781 114.1689529 183.4598083
58.9684601 114.3258057 182.3037109
60.4312248 114.5005493 181.0289001
61.9095306 114.6940308 179.6331635
66.4342804 115.4061050 174.5776672
67.9940491 115.7085342 172.4658966
69.5610504 116.0526886 170.0809784
-12.4733686 114.9791718 176.3129883
-11.0549154 114.7166595 177.9045563
-9.6487074 114.4753265 179.3571930
-5.4830298 113.8559723 183.0351257
-4.0925107 113.6745300 184.0954285
0.0215685 113.1999283 186.8260956
1.3791517 113.0620575 187.6044464
2.7557526 112.9289398 188.3480835
4.1036305 112.8081360 189.0150604
47.6107674 112.1345367 189.3151093
49.0068512 112.2146530 188.6547546
50.4143105 112.3050842 187.9273529
51.8116684 112.4016876 187.1575470
53.2428932 112.5132523 186.2901611
54.6543732 112.6315308 185.3782043
56.0913239 112.7611237 184.3894196
57.5415802 112.9046631 183.3081970
58.9849281 113.0609207 182.1441345
60.4487724 113.2328644 180.8740234
61.9187851 113.4219055 179.4917297
66.4470367 114.1253967 174.4362488
68.0057526 114.4237823 172.3260498
69.5724640 114.7647247 169.9359894
-12.4700794 113.6821060 176.1776581
-11.0576925 113.4242630 177.7613831
-9.6489334 113.1867142 179.2102051
-8.2582855 112.9700470 180.5214233
-6.8606911 112.7649689 181.7549286
0.0302951 111.9275131 186.6805115
1.3855237 111.7929153 187.4486389
2.7610831 111.6629639 188.1844330
4.1118693 111.5423431 188.8597565
47.6225891 110.8828812 189.1368561
49.0221825 110.9634781 188.4682007
50.4260712 111.0523987 187.7428894
54.6695786 111.3756180 185.1890869
56.1097794 111.5043488 184.1956787
57.5544052 111.6466675 183.1115112
58.9946632 111.7996140 181.9561157
60.4657021 111.9711227 180.6752625
61.9403839 112.1580734 179.2905884
66.4660492 112.8549957 174.2212830
68.0245209 113.1497955 172.1108704
69.5982666 113.4879303 169.7101288
-13.8855381 112.6693954 174.2541046
-12.4737902 112.3945923 175.9746094
-11.0571041 112.1398010 177.5599060
-9.6504917 111.9054108 179.0091858
-8.2572689 111.6910553 180.3238983
-6.8516560 111.4869080 181.5693970
0.0352872 110.6629028 186.4790649
1.3930000 110.5286102 187.2570801
2.7621086 110.4002075 187.9942932
4.1160703 110.2823563 188.6615295
5.4745440 110.1713257 189.2828674
47.6407318 109.6363449 188.9195251
49.0419807 109.7167664 188.2442169
50.4378967 109.8049393 187.5188599
54.6846352 110.1240387 184.9660645
56.1272507 110.2530670 183.9588928
57.5750732 110.3933945 182.8756866
59.0152473 110.5460510 181.7108002
60.4862747 110.7146912 180.4347076
61.9561348 110.9002380 179.0439301
66.4855270 111.5913391 173.9549866
68.0497894 111.8856964 171.8209686
69.6174545 112.2191238 169.4249573
-12.4766150 111.1132431 175.7243500
-11.0569181 110.8604584 177.3186340
-9.6495132 110.6294098 178.7661438
-2.7095680 109.6958923 184.4959564
-1.3406010 109.5448837 185.3987885
0.0344630 109.4021912 186.2458954
1.3983053 109.2688751 187.0282898
5.4763455 108.9176254 189.0470581
47.6544266 108.3939972 188.6676483
49.0510025 108.4739227 187.9909821
50.4590874 108.5616074 187.2593079
51.8664246 108.6565857 186.4779968
53.2922134 108.7637558 185.6110840
60.5075264 109.4641266 180.1470490
61.9804382 109.6491852 178.7428894
63.4728622 109.8526459 177.2137909
64.9777298 110.0794220 175.5210724
66.5156403 110.3364105 173.6217651
68.0744171 110.6279297 171.4818726
-12.4770460 109.8369522 175.4313354
-11.0510731 109.5865326 177.0337524
-9.6501684 109.3592072 178.4763489
-2.7122052 108.4369431 184.2158356
-1.3348142 108.2861023 185.1310730
0.0396623 108.1446991 185.9834290
1.4022341 108.0138168 186.7626953
5.4834399 107.6663055 188.7869415
46.2792625 107.0844345 189.0029602
47.6716995 107.1555023 188.3817291
49.0717545 107.2350311 187.7009430
50.4762573 107.3218307 186.9669495
51.8902779 107.4172897 186.1741180
53.3156509 107.5238876 185.3043060
60.5305939 108.2201157 179.8050537
62.0035782 108.4035950 178.3981934
63.5081940 108.6073837 176.8454285
65.0094452 108.8327484 175.1446991
66.5499573 109.0884781 173.2264404
68.1145172 109.3800583 171.0619202
-12.4744129 108.5668182 175.0857391
-11.0579185 108.3210831 176.6788940
-9.6551294 108.0950241 178.1355438
-8.2655182 107.8867035 179.4674377
-6.8605494 107.6899719 180.7196655
5.4932718 106.4185867 188.4956665
6.8513575 106.3179779 189.0737610
44.9038925 105.7870789 189.2584229
46.2987823 105.8509750 188.6813049
47.6907578 105.9216766 188.0551910
49.0943527 106.0004730 187.3733215
50.4995956 106.0872040 186.6309052
51.9097672 106.1813965 185.8402710
53.3415184 106.2881851 184.9556580
54.7511635 106.4009705 184.0340881
56.1977768 106.5273361 183.0110626
60.5614204 106.9811707 179.4172974
62.0417099 107.1638870 177.9972839
63.5443344 107.3677597 176.4267883
65.0462646 107.5922852 174.7095947
66.5839920 107.8461914 172.7884216
68.1523666 108.1384506 170.5872650
-12.4804955 107.3048553 174.6730652
-11.0607491 107.0598145 176.2863464
-9.6501513 106.8344116 177.7614594
-8.2624741 106.6286621 179.0966034
-6.8633060 106.4342499 180.3516693
5.4954844 105.1761093 188.1598663
6.8581533 105.0761642 188.7412109
44.9212608 104.5583115 188.8996429
46.3204193 104.6217728 188.3177338
47.7204285 104.6924667 187.6857147
49.1182518 104.7700958 187.0025024
50.5227280 104.8560486 186.2595825
51.9340210 104.9502563 185.4633942
53.3678589 105.0554047 184.5778809
54.7819405 105.1689682 183.6389465
56.2268982 105.2945251 182.6107178
60.5945854 105.7479553 178.9806519
62.0766525 105.9298935 177.5492859
63.5832291 106.1334229 175.9598389
65.0812759 106.3569641 174.2315369
66.6314011 106.6140213 172.2534943
68.1964722 106.9066849 170.0332031
-12.4847031 106.0484467 174.2097168
-11.0645332 105.8045731 175.8393250
-9.6534824 105.5809555 177.3241882
-8.2659464 105.3755798 178.6710052
-6.8617325 105.1827393 179.9386597
-5.4812489 105.0064087 181.0806580
-4.0942435 104.8400269 182.1521912
0.0445016 104.4015198 184.9404907
1.4063966 104.2745667 185.7262573
2.7830515 104.1533966 186.4759979
4.1431961 104.0414810 187.1574707
5.4968309 103.9370270 187.7828979
6.8670630 103.8383026 188.3732910
8.2119026 103.7470093 188.9060059
43.5686913 103.2763824 189.0404358
44.9416771 103.3319550 188.5108643
51.9678230 103.7235718 185.0368652
53.3942719 103.8279724 184.1497650
57.7102661 104.2038269 181.0429688
59.1521149 104.3530502 179.8341827
60.6340942 104.5190125 178.4980927
62.1157951 104.7008896 177.0498047
63.6191635 104.9038773 175.4430847
65.1288223 105.1295929 173.6803284
66.6717911 105.3860168 171.6850891
68.2536316 105.6830978 169.3907166
-12.4915066 104.7982178 173.6871185
-11.0667267 104.5547943 175.3382263
-9.6609669 104.3330154 176.8331757
-8.2654362 104.1287384 178.1981506
-6.8627748 103.9376068 179.4698792
-5.4836216 103.7615662 180.6292877
-4.0907187 103.5964432 181.7121887
0.0428141 103.1604843 184.5201721
1.4101136 103.0354385 185.3074341
2.7895503 102.9154816 186.0656891
4.1431541 102.8050232 186.7415466
5.5044050 102.7025757 187.3734589
6.8722286 102.6032562 187.9703369
8.2181549 102.5131454 188.5025330
9.5864544 102.4289932 188.9987793
42.1990623 102.0041809 189.1126556
43.5935974 102.0537872 188.6135254
44.9706573 102.1090164 188.0846710
51.9978333 102.5007019 184.5747681
53.4237671 102.6045837 183.6853638
57.7433052 102.9789047 180.5456390
59.1937180 103.1286392 179.3180695
60.6751099 103.2944260 177.9660645
62.1606407 103.4778214 176.4911499
63.6656876 103.6816025 174.8630676
65.1768951 103.9082184 173.0629272
66.7230682 104.1674194 171.0251465
68.3080292 104.4671631 168.6859741
-12.4996681 103.5547180 173.1001434
-11.0759087 103.3113480 174.7752075
-9.6625338 103.0897141 176.2950287
-8.2692299 102.8869247 177.6692352
-6.8656158 102.6968842 178.9538269
-5.4812870 102.5216522 180.1288147
-4.0948224 102.3570938 181.2184753
-2.7158787 102.2037506 182.2334595
-1.3407936 102.0599670 183.1686859
0.0480997 101.9253845 184.0532837
1.4164841 101.7995682 184.8536377
2.7884941 101.6797943 185.6154785
4.1477232 101.5725937 186.2931519
8.2228289 101.2841034 188.0580597
9.5925007 101.2003860 188.5601196
10.9433498 101.1226959 189.0069885
40.8410263 100.7415009 189.1017914
42.2230186 100.7851639 188.6554565
43.6222382 100.8344574 188.1584167
44.9944153 100.8898773 187.6172791
52.0306778 101.2811890 184.0783997
53.4636993 101.3848114 183.1659851
54.8742867 101.4976959 182.2088470
56.3280792 101.6219330 181.1492615
57.7839851 101.7599182 179.9921570
59.2343330 101.9096985 178.7500000
60.7187729 102.0766296 177.3752441
62.2084770 102.2613678 175.8639221
63.7216568 102.4664230 174.2082367
65.2279358 102.6931763 172.3849487
66.7848206 102.9572906 170.2851257
68.3708572 103.2610168 167.8858032
-12.4980745 102.3157120 172.4619751
-11.0805521 102.0733032 174.1562042
-9.6696663 101.8518982 175.6940460
-8.2742195 101.6491852 177.0930634
-6.8762083 101.4609375 178.3818970
-5.4880953 101.2863922 179.5803833
-4.0953722 101.1219330 180.6801758
-2.7176900 100.9695282 181.7035370
-1.3362219 100.8273926 182.6524963
0.0421675 100.6934509 183.5381317
1.4099665 100.5674133 184.3519440
2.7940400 100.4503784 185.1227875
4.1528158 100.3422470 185.8040161
8.2277851 100.0571136 187.5803680
9.5962133 99.9731903 188.0851746
10.9545364 99.8970795 188.5377197
12.3009815 99.8268738 188.9443817
39.4995193 99.4875946 189.0284271
40.8681374 99.5239334 188.6222839
42.2545853 99.5684357 188.1630859
43.6467628 99.6194458 187.6605988
45.0183372 99.6739120 187.1158295
52.0690384 100.0652466 183.5307770
53.4979477 100.1698914 182.6149445
54.9180069 100.2822647 181.6375732
56.3686371 100.4079590 180.5599213
57.8314819 100.5460281 179.3836975
59.2815018 100.6961288 178.1237183
60.7608147 100.8634720 176.7305603
62.2548981 101.0493927 175.1949463
63.7771263 101.2565994 173.4862366
65.2866821 101.4877319 171.6223145
66.8484344 101.7538147 169.4677429
-11.0841770 100.8408356 173.4776764
-9.6763830 100.6195831 175.0375671
-8.2782955 100.4169540 176.4603882
-6.8729901 100.2280884 177.7778931
-5.4946175 100.0542603 178.9767303
-4.0975566 99.8903046 180.1027527
-2.7180057 99.7395477 181.1348267
-1.3434585 99.5982208 182.0882568
2.7935526 99.2241440 184.5748444
4.1521783 99.1158447 185.2745972
10.9636307 98.6746063 188.0269165
12.3138132 98.6047592 188.4425354
13.6699162 98.5395813 188.8166809
15.0249300 98.4793701 189.1495972
36.7665253 98.2154922 189.2054749
38.1414337 98.2426376 188.8699188
39.5234528 98.2729416 188.5109558
40.8878670 98.3117065 188.1041870
42.2846336 98.3548203 187.6283569
46.4605484 98.5249176 185.9596710
47.8658638 98.5950089 185.2982483
49.2703362 98.6730423 184.5733337
50.6819611 98.7587433 183.7913666
54.9558487 99.0711136 181.0197144
56.4145813 99.1976318 179.9212036
57.8700485 99.3363724 178.7306366
59.3249702 99.4869537 177.4449463
60.8153152 99.6563110 176.0139771
62.3108635 99.8426208 174.4545593
63.8245773 100.0519409 172.7223206
65.3531265 100.2877426 170.7747803
66.9222870 100.5604401 168.5585938
-11.0973511 99.6138611 172.7315979
-9.6815405 99.3915939 174.3291473
-8.2832508 99.1887283 175.7724304
-6.8805513 99.0001297 177.1094513
-5.4941254 98.8258514 178.3346863
-4.0966101 98.6636047 179.4760132
-2.7168405 98.5126953 180.5128784
-1.3465064 98.3729401 181.4762878
2.7960393 98.0007477 183.9936218
4.1602650 97.8929901 184.7013397
10.9693317 97.4548264 187.4888458
12.3215885 97.3855133 187.9013977
13.6810398 97.3220978 188.2782898
15.0441408 97.2621002 188.6176758
16.4006538 97.2094421 188.9019775
17.7402649 97.1615067 189.1495514
19.1076088 97.1177368 189.3710938
34.0606689 96.9666748 189.1903687
35.4123001 96.9825897 188.9470062
36.7915535 97.0042343 188.6585693
38.1719437 97.0313339 188.3188629
39.5532341 97.0626984 187.9542389
40.9161758 97.0996704 187.5433960
42.3184814 97.1448364 187.0643005
46.4934082 97.3157196 185.3725891
47.9099579 97.3856812 184.6875000
49.3036957 97.4645538 183.9672852
50.7192268 97.5499496 183.1653900
55.0000916 97.8634186 180.3510895
56.4684982 97.9918289 179.2224426
57.9219055 98.1314392 178.0183716
59.3805084 98.2819214 176.7065735
60.8734627 98.4539185 175.2406616
62.3733177 98.6432800 173.6430359
63.8976288 98.8556061 171.8484039
65.4257660 99.0955276 169.8585815
67.0035782 99.3753281 167.5453339
-11.1020737 98.3925858 171.9208374
-9.6891747 98.1700821 173.5452271
-8.2869349 97.9656830 175.0256500
-6.8808990 97.7770004 176.3881683
-5.4980249 97.6032867 177.6283264
-4.1014056 97.4410706 178.7844238
-2.7211795 97.2907791 179.8418884
-1.3482307 97.1510239 180.8180084
0.0350949 97.0196381 181.7355957
1.4120306 96.8960495 182.5779266
2.7996082 96.7804718 183.3672791
4.1641169 96.6736908 184.0832825
5.5324707 96.5730667 184.7556305
6.9013977 96.4796677 185.3639221
8.2463779 96.3944092 185.9121552
9.6260414 96.3125000 186.4408875
10.9826260 96.2377777 186.9069366
12.3327656 96.1704865 187.3224030
13.6908150 96.1055298 187.6990356
15.0546741 96.0469513 188.0426483
16.4137878 95.9956665 188.3317261
17.7511024 95.9481049 188.5752411
19.1208992 95.9050598 188.7994995
20.4819984 95.8679352 188.9770966
21.8192596 95.8341064 189.1061554
23.1899815 95.8065872 189.2109985
24.5509415 95.7830429 189.2696075
25.9006596 95.7655334 189.2954407
27.2509460 95.7514038 189.2731323
28.6224499 95.7434158 189.2129059
29.9917984 95.7398987 189.1211853
31.3319244 95.7395020 189.0011902
32.7174530 95.7470169 188.8186035
34.0907211 95.7585602 188.6107941
35.4419632 95.7727432 188.3675232
36.8202438 95.7956161 188.0706787
38.2021523 95.8223419 187.7292938
39.5796814 95.8547363 187.3575287
40.9491425 95.8933868 186.9384918
42.3481445 95.9385147 186.4513245
46.5358543 96.1091003 184.7322388
47.9408913 96.1809235 184.0420074
52.1875763 96.4416656 181.6129303
53.6212807 96.5468445 180.6553802
55.0487175 96.6598358 179.6252289
56.5146484 96.7893600 178.4806519
57.9774475 96.9290848 177.2487488
59.4396210 97.0831909 175.9034424
60.9310837 97.2576752 174.4050598
62.4380569 97.4500885 172.7507324
63.9651260 97.6668167 170.9120941
65.5007782 97.9112396 168.8461914
67.0901031 98.1997681 166.4291077
-11.1123133 97.1788940 171.0247192
-9.6938038 96.9528503 172.7015991
-8.2904196 96.7477417 174.2176208
-6.8816876 96.5583496 175.6075592
-5.5022039 96.3857117 176.8624573
-4.1046276 96.2229156 178.0397949
-2.7198169 96.0737762 179.1216125
-1.3470592 95.9331360 180.1088409
0.0337061 95.8015518 181.0420227
1.4136978 95.6785049 181.9002075
2.7986317 95.5634613 182.6946564
4.1633210 95.4574280 183.4216919
5.5392451 95.3577728 184.1015320
6.9068751 95.2648163 184.7204895
8.2559557 95.1799164 185.2775879
9.6327343 95.0985107 185.8114014
10.9915066 95.0236969 186.2827148
12.3408890 94.9565201 186.6951141
13.7034683 94.8936157 187.0819092
15.0702858 94.8360062 187.4252930
16.4211998 94.7842865 187.7144928
17.7622967 94.7362671 187.9646606
19.1374779 94.6940765 188.1945953
20.4997520 94.6567307 188.3665619
21.8355217 94.6248093 188.4958496
23.2054596 94.5974121 188.6069183
24.5685539 94.5735703 188.6610107
25.9216423 94.5572815 188.6801605
27.2713470 94.5441895 188.6646118
28.6466408 94.5362778 188.6098633
30.0149574 94.5317383 188.5178833
31.3595238 94.5340195 188.3907623
32.7403488 94.5403671 188.2085724
34.1147766 94.5522766 187.9852600
35.4689178 94.5680084 187.7498169
36.8500099 94.5902252 187.4456787
38.2351799 94.6185226 187.0898132
39.6086388 94.6519775 186.7148590
40.9822540 94.6877136 186.2923584
42.3861389 94.7336884 185.7953491
46.5720558 94.9064941 184.0491486
47.9819794 94.9778442 183.3457642
52.2381172 95.2405548 180.8708191
53.6772766 95.3470001 179.8863068
55.1012535 95.4625320 178.8527679
56.5721970 95.5925064 177.6706085
58.0321083 95.7338715 176.4109802
59.5019951 95.8899078 175.0347900
60.9990082 96.0656662 173.4907074
62.5088272 96.2627258 171.7923889
64.0447617 96.4836578 169.8819275
65.5903168 96.7371674 167.7122803
-9.7056866 95.7426147 171.7786255
-8.2970924 95.5352936 173.3289490
-6.8881168 95.3455505 174.7546387
-5.5079498 95.1711273 176.0428162
-4.1065683 95.0083542 177.2442932
-2.7276127 94.8580170 178.3367310
-1.3518620 94.7189865 179.3438110
0.0411518 94.5873337 180.3033905
1.4141188 94.4645844 181.1682739
2.8047366 94.3498840 181.9794312
4.1709356 94.2439804 182.7191010
8.2586498 93.9670105 184.5914764
9.6427402 93.8869324 185.1338196
11.0012465 93.8131104 185.6051025
12.3550129 93.7460175 186.0262451
13.7158604 93.6841431 186.4149780
15.0800037 93.6259003 186.7705078
16.4376526 93.5747986 187.0624237
17.7784176 93.5285492 187.3171692
19.1555748 93.4853058 187.5477905
20.5173836 93.4489822 187.7231750
21.8553543 93.4175262 187.8511810
23.2255116 93.3910751 187.9570313
27.2945366 93.3377686 188.0209961
28.6709595 93.3305664 187.9678345
32.7673569 93.3373260 187.5478363
34.1405220 93.3486862 187.3276825
38.2630005 93.4166489 186.4083710
39.6445694 93.4486389 186.0361633
41.0179672 93.4847260 185.6042480
42.4187737 93.5329895 185.1002197
46.6084366 93.7068710 183.3239899
48.0224686 93.7790146 182.6016388
49.4299927 93.8572464 181.8488770
50.8547020 93.9460831 181.0013275
52.2858315 94.0438156 180.0755615
53.7288017 94.1507874 179.0813293
55.1575394 94.2674789 178.0125122
56.6279526 94.3993759 176.8071747
58.0989609 94.5433807 175.5086975
59.5658112 94.7014694 174.0934601
61.0759659 94.8819656 172.4858856
62.5887642 95.0814743 170.7284546
64.1241837 95.3100662 168.7479248
-8.3035698 94.3289490 172.3691864
-6.8939285 94.1368866 173.8373108
-5.5071664 93.9611206 175.1616058
-4.1072087 93.7973938 176.3951721
-2.7219732 93.6466599 177.5103607
-1.3525244 93.5080719 178.5261383
0.0380463 93.3769226 179.4946136
1.4180721 93.2541351 180.3806458
2.8068237 93.1387405 181.2086182
4.1726241 93.0337830 181.9615784
8.2686806 92.7588120 183.8666840
9.6488380 92.6784744 184.4163513
11.0150480 92.6045990 184.9020996
12.3625374 92.5383148 185.3188629
13.7253513 92.4781494 185.7148438
15.0914555 92.4189835 186.0771790
16.4523525 92.3667068 186.3694458
17.7963448 92.3231659 186.6249542
19.1701031 92.2803345 186.8554077
20.5382919 92.2431793 187.0435486
21.8702812 92.2138290 187.1612091
23.2477589 92.1876144 187.2724457
27.3209324 92.1350479 187.3348389
28.6966801 92.1277161 187.2642822
32.7953453 92.1347885 186.8494873
34.1692276 92.1482544 186.6210022
38.2985954 92.2177048 185.6925354
39.6814117 92.2497787 185.3079529
41.0539589 92.2873840 184.8677826
42.4577179 92.3350372 184.3486481
46.6581612 92.5098877 182.5401459
48.0742416 92.5832520 181.8082275
49.4833946 92.6621628 181.0287018
50.9032440 92.7521362 180.1717377
52.3387756 92.8506165 179.2257996
53.7866783 92.9593582 178.2087097
55.2208710 93.0772171 177.1063843
56.6924629 93.2102280 175.8789368
58.1688004 93.3576126 174.5274506
59.6420708 93.5190735 173.0704346
61.1533737 93.7036896 171.4195251
62.6701126 93.9098969 169.5923004
64.2232971 94.1463089 167.4909515
-8.3169641 93.1287079 171.3318176
-6.9046021 92.9341278 172.8392487
-5.5064383 92.7560730 174.2089539
-4.1068888 92.5911942 175.4654388
-2.7246492 92.4402542 176.6094971
-1.3454392 92.3007813 177.6675415
0.0376943 92.1703491 178.6405640
1.4183394 92.0470963 179.5483246
2.8096383 91.9329453 180.3915710
4.1748848 91.8274689 181.1478577
5.5502806 91.7276688 181.8586578
6.9263525 91.6362991 182.5075989
11.0235596 91.3989868 184.1387329
12.3754711 91.3343658 184.5655670
13.7389660 91.2727203 184.9654541
15.1083603 91.2135620 185.3239136
19.1905708 91.0762787 186.1294708
20.5572128 91.0411606 186.3092651
21.8914337 91.0109100 186.4276581
23.2644081 90.9847107 186.5379181
27.3475838 90.9357376 186.5984497
28.7273617 90.9283752 186.5340576
30.0950966 90.9258804 186.4339447
31.4383926 90.9279938 186.3042297
32.8292389 90.9369812 186.1053925
34.2064285 90.9499741 185.8777771
35.5623474 90.9658508 185.6228638
36.9452667 90.9899597 185.2998657
38.3420372 91.0183029 184.9161682
39.7183380 91.0530853 184.5334015
41.0903931 91.0916748 184.0927582
42.4997559 91.1393585 183.5573120
43.9054413 91.1920013 182.9946136
45.2832222 91.2482758 182.4068451
46.7071266 91.3152466 181.7093964
48.1211967 91.3911667 180.9602051
49.5364799 91.4699402 180.1598358
50.9590607 91.5612411 179.2835693
52.3993912 91.6620483 178.3125763
53.8512917 91.7722321 177.2608032
55.2836266 91.8913269 176.1311646
56.7627106 92.0296097 174.8620605
58.2414398 92.1792145 173.4617310
59.7150116 92.3440781 171.9541473
61.2419586 92.5333710 170.2339783
62.7615738 92.7463760 168.3178558
-8.3295679 91.9345703 170.2018585
-6.9112797 91.7367935 171.7742615
-5.5141325 91.5567780 173.1743011
-4.1142068 91.3911667 174.4648132
-2.7247117 91.2383575 175.6480408
-1.3443656 91.0973663 176.7286987
0.0399210 90.9667282 177.7266388
1.4184740 90.8429260 178.6450806
2.8103344 90.7288818 179.5039368
4.1792669 90.6248322 180.2837677
5.5568361 90.5239487 181.0094299
6.9336615 90.4328690 181.6760406
11.0311317 90.1961365 183.3257446
12.3866329 90.1315765 183.7682800
13.7539635 90.0691757 184.1695251
15.1240673 90.0125885 184.5352936
19.2095184 89.8775177 185.3470306
20.5765038 89.8414917 185.5282898
21.9140415 89.8124542 185.6563110
23.2863827 89.7858887 185.7576294
27.3697510 89.7366943 185.8251343
28.7534370 89.7315445 185.7581329
30.1219368 89.7289200 185.6472778
31.4688168 89.7307739 185.5139160
32.8575516 89.7409363 185.3188019
34.2365875 89.7535400 185.0746155
35.5979004 89.7713013 184.8180542
36.9839020 89.7953262 184.4931641
38.3744354 89.8269424 184.1132813
39.7580643 89.8574982 183.7116699
41.1317635 89.8978882 183.2532043
42.5468788 89.9459457 182.7083282
43.9455948 90.0005264 182.1401367
45.3295937 90.0577927 181.5380249
46.7546768 90.1267471 180.8187714
48.1752357 90.2015991 180.0581055
49.5867691 90.2826462 179.2390442
51.0178986 90.3751373 178.3339539
52.4602509 90.4767456 177.3363800
53.9129486 90.5894012 176.2555084
55.3526993 90.7116776 175.0813599
56.8362732 90.8516846 173.7646790
58.3174095 91.0068130 172.3254547
59.8056030 91.1743469 170.7407684
61.3293152 91.3703003 168.9504852
62.8691940 91.5941925 166.9130554
-6.9259448 90.5460510 170.5928345
-5.5214219 90.3636703 172.0578156
-4.1144624 90.1945190 173.3965912
-2.7211158 90.0410461 174.6109772
-1.3452667 89.8986816 175.7187195
0.0415851 89.7664337 176.7539978
1.4182678 89.6435471 177.6887817
2.8127275 89.5299988 178.5720825
4.1799660 89.4231491 179.3647614
8.2904778 89.1482239 181.3839417
9.6764479 89.0698853 181.9560547
16.5059128 88.7645950 184.0093536
17.8467560 88.7198105 184.2619476
19.2282028 88.6795044 184.5133514
20.5926933 88.6433029 184.6980743
21.9322433 88.6146393 184.8289337
23.3122215 88.5912781 184.9364624
32.8927536 88.5467834 184.4731140
34.2717514 88.5620575 184.2312622
38.4142265 88.6341782 183.2388000
39.8010406 88.6681519 182.8355103
41.1811409 88.7072754 182.3627625
42.5900803 88.7592926 181.8116455
43.9948425 88.8116989 181.2292175
45.3846054 88.8693695 180.5937958
46.8093109 88.9386368 179.8712311
48.2304764 89.0151825 179.0800629
49.6474152 89.1006851 178.2458801
51.0787964 89.1927414 177.3223267
52.5291977 89.2961960 176.2798462
53.9784088 89.4099426 175.1721344
55.4247818 89.5362244 173.9592590
56.9127350 89.6797028 172.5875244
58.4047318 89.8377380 171.0774384
59.8948326 90.0142899 169.4417572
61.4351654 90.2189941 167.5284576
-6.9300003 89.3632202 169.3332977
-5.5369835 89.1755676 170.8325195
-4.1200876 89.0055161 172.2366333
-2.7267194 88.8476563 173.4911804
-1.3397307 88.7036591 174.6449280
0.0527602 88.5711517 175.7129822
1.4224457 88.4475174 176.6643677
2.8181682 88.3319626 177.5692139
4.1891842 88.2254562 178.3747253
8.2991896 87.9512405 180.4433594
9.6863995 87.8720245 181.0330811
16.5138340 87.5682678 183.1116943
17.8623295 87.5238876 183.3799744
19.2436485 87.4828644 183.6355896
20.6177845 87.4491730 183.8208618
21.9555378 87.4202728 183.9577179
23.3365402 87.3941116 184.0646362
32.9316444 87.3564529 183.5770721
34.3107986 87.3708038 183.3415222
38.4558487 87.4444122 182.3150787
39.8486977 87.4795532 181.8969421
41.2241516 87.5213852 181.4167786
42.6374512 87.5712738 180.8509979
44.0452194 87.6262817 180.2555237
45.4342041 87.6841660 179.6096191
46.8631439 87.7578964 178.8644714
48.2873764 87.8358002 178.0474548
49.7127075 87.9170761 177.1807556
51.1447868 88.0142365 176.2225037
52.5990906 88.1215210 175.1481323
54.0516357 88.2389526 173.9969788
55.5033264 88.3669052 172.7437744
56.9977036 88.5146179 171.3046265
58.4944344 88.6797943 169.7253113
59.9960175 88.8628159 167.9841919
61.5445251 89.0783768 165.9528046
-6.9493546 88.1875839 167.9470215
-5.5447459 87.9962006 169.5302887
-4.1299152 87.8201294 170.9843445
-2.7276001 87.6608505 172.2970123
-1.3449743 87.5149765 173.4788818
0.0435078 87.3801575 174.5682068
1.4264280 87.2563858 175.5615845
2.8154252 87.1401672 176.4888153
4.1935492 87.0337982 177.3279724
5.5728326 86.9334564 178.1009827
6.9563951 86.8419189 178.8080750
8.3101311 86.7577667 179.4438477
9.6951666 86.6792145 180.0429382
11.0674801 86.6048660 180.5776367
12.4216528 86.5399246 181.0386353
19.2720604 86.2915115 182.7018738
20.6401062 86.2560883 182.9021606
24.7407150 86.1810608 183.1999207
26.0901318 86.1671906 183.2202911
32.9650612 86.1672745 182.6347961
34.3524170 86.1810303 182.3865662
35.7188339 86.2006302 182.1104584
37.1084518 86.2254639 181.7612305
38.5068436 86.2606812 181.3421021
39.8910217 86.2964554 180.9031982
41.2717514 86.3373032 180.4143982
42.6901054 86.3875732 179.8274078
44.1011772 86.4432144 179.2130737
45.4904442 86.5050278 178.5453033
46.9250717 86.5763550 177.7769165
48.3562965 86.6568069 176.9348450
49.7822113 86.7437897 176.0402679
51.2190971 86.8420410 175.0498962
52.6693459 86.9507294 173.9375610
54.1365433 87.0714493 172.7269287
55.5832748 87.2048035 171.4323120
57.0942535 87.3593445 169.9055481
58.6013260 87.5296783 168.2363739
60.1050873 87.7228622 166.3845215
-4.1360874 86.6430588 169.6199951
-2.7369335 86.4800949 170.9883728
-1.3432525 86.3299866 172.2255554
0.0570866 86.1958466 173.3650513
1.4239196 86.0693359 174.3728943
2.8228037 85.9518356 175.3430176
4.1956911 85.8446045 176.2014160
5.5798683 85.7437439 177.0010834
6.9660535 85.6518250 177.7293701
8.3222961 85.5666199 178.3817596
9.7086391 85.4878998 178.9947968
11.0772209 85.4137573 179.5344543
12.4415245 85.3506317 180.0172272
19.2896767 85.1005630 181.7129974
20.6636753 85.0667877 181.9095764
24.7651939 84.9933548 182.2204742
26.1273842 84.9796448 182.2388916
33.0048599 84.9814606 181.6418457
34.3931313 84.9957733 181.3795166
35.7596512 85.0168152 181.0961761
37.1523170 85.0421753 180.7264557
38.5530510 85.0766830 180.2978058
39.9441338 85.1115646 179.8530579
41.3254852 85.1561966 179.3513031
42.7447853 85.2062531 178.7451477
44.1599121 85.2666473 178.1128082
45.5526047 85.3278503 177.4192963
46.9896584 85.4002533 176.6220398
48.4232101 85.4850845 175.7542419
49.8544617 85.5731049 174.8206482
51.2924957 85.6731262 173.7829285
52.7537689 85.7871780 172.6224060
54.2243805 85.9119263 171.3580017
55.6812210 86.0489731 169.9825439
57.1955719 86.2091141 168.3828735
-4.1546745 85.4753952 168.1232300
-2.7431331 85.3069916 169.5687256
-1.3513074 85.1549301 170.8567352
0.0500205 85.0165024 172.0477753
1.4253427 84.8866806 173.1114655
2.8217998 84.7684021 174.1047668
4.1992393 84.6597595 174.9948120
5.5840902 84.5574265 175.8121643
6.9680843 84.4652100 176.5681458
8.3268547 84.3798752 177.2396851
9.7177448 84.3000183 177.8701477
11.0905972 84.2280273 178.4272156
12.4537077 84.1621704 178.9150238
13.8239069 84.1023407 179.3627472
15.2039948 84.0451965 179.7752533
16.5704079 83.9951019 180.1113281
17.9306202 83.9530716 180.4020386
22.0360413 83.8525391 181.0061035
23.4164848 83.8259811 181.1098175
27.5237961 83.7834930 181.1617279
28.9131222 83.7808380 181.0787659
35.8069916 83.8341064 180.0043335
37.1944733 83.8623962 179.6323700
38.6003227 83.8961029 179.1922913
39.9986725 83.9337845 178.7320251
41.3771172 83.9779205 178.2105713
42.7993011 84.0311813 177.5906372
44.2203178 84.0902023 176.9219055
45.6145935 84.1569824 176.2079773
47.0579224 84.2303925 175.3800964
48.4943695 84.3149261 174.4812927
49.9247589 84.4061127 173.5033417
51.3717690 84.5112000 172.4275208
52.8400764 84.6273804 171.1998901
54.3156853 84.7590027 169.8617554
55.7845802 84.9049835 168.4108276
58.8317070 85.2654572 164.7810211
-4.1647787 84.3153915 166.4970093
-2.7546268 84.1420288 168.0224609
-1.3562062 83.9849854 169.3816528
0.0448514 83.8409882 170.6231079
1.4276729 83.7110901 171.7416992
2.8230619 83.5892334 172.7647095
4.2067094 83.4781494 173.6996460
5.5947423 83.3778229 174.5585632
6.9794092 83.2821579 175.3319092
8.3407116 83.1964417 176.0262756
9.7303782 83.1156616 176.6685028
11.1082764 83.0436630 177.2502747
12.4702015 82.9780197 177.7556763
13.8461599 82.9163284 178.2166443
15.2268143 82.8603973 178.6385956
16.5965538 82.8127441 178.9899139
17.9548092 82.7665100 179.2753601
22.0598469 82.6665192 179.8814697
23.4501419 82.6447830 180.0014648
27.5579205 82.6028671 180.0529480
28.9514351 82.5971680 179.9623566
35.8514557 82.6545944 178.8544312
37.2533112 82.6851807 178.4670868
38.6534233 82.7194519 178.0041962
40.0516510 82.7592316 177.5311279
41.4417229 82.8033447 176.9706116
42.8673172 82.8610077 176.3468628
44.2840271 82.9215698 175.6543884
45.6876755 82.9866943 174.8997192
47.1338501 83.0643311 174.0401611
48.5728531 83.1529541 173.1023560
50.0066948 83.2475128 172.0806427
51.4605217 83.3540115 170.9412842
52.9326630 83.4793625 169.6602478
54.4218292 83.6153412 168.2323303
55.8983459 83.7689362 166.6677551
-1.3643956 82.8228760 167.7717133
0.0391227 82.6755524 169.0775146
1.4285057 82.5413055 170.2508850
2.8277762 82.4176788 171.3314819
4.2047777 82.3056183 172.3043518
5.5952559 82.1997604 173.1970062
6.9897671 82.1052170 174.0062408
8.3560085 82.0178223 174.7263184
9.7451229 81.9372787 175.3975220
11.1208019 81.8615875 175.9854736
12.4905367 81.7970810 176.5105591
16.6208878 81.6295929 177.7758789
17.9741364 81.5861206 178.0791931
33.1386032 81.4414673 178.2224121
34.5316277 81.4606857 177.9447327
35.9028091 81.4800415 177.6235352
37.3050499 81.5117035 177.2239990
38.7114372 81.5470200 176.7467499
40.1104851 81.5869064 176.2392273
41.4999046 81.6359558 175.6780090
42.9337006 81.6901245 175.0044556
44.3537216 81.7558670 174.2940216
45.7657051 81.8232803 173.4994049
47.2102051 81.9063873 172.5973206
48.6503296 81.9958420 171.6062927
50.0988541 82.0952301 170.5258789
51.5549126 82.2104492 169.3259125
53.0376968 82.3380051 167.9542084
54.5269775 82.4836273 166.4386749
56.0166779 82.6477966 164.7250214
-1.3741703 81.6725616 165.9970093
0.0271137 81.5193939 167.3804169
1.4214617 81.3796844 168.6264648
2.8297138 81.2522812 169.7728271
4.2076044 81.1359100 170.7903137
5.6048317 81.0288239 171.7212372
6.9897761 80.9323120 172.5563660
8.3607311 80.8437805 173.3165588
9.7601509 80.7616501 174.0252533
11.1330986 80.6873932 174.6340027
12.5039635 80.6193161 175.1771088
16.6402359 80.4522400 176.4888611
18.0021286 80.4089737 176.8036804
33.1870956 80.2703781 176.9392395
34.5823174 80.2850494 176.6379395
35.9600220 80.3102264 176.2975616
37.3629379 80.3408661 175.8838501
38.7714081 80.3791122 175.3996887
40.1740074 80.4224319 174.8682861
41.5726852 80.4715271 174.2750854
43.0038986 80.5298157 173.5714264
44.4321594 80.5947113 172.8170319
45.8403130 80.6675186 171.9931946
47.3023186 80.7529755 171.0417786
48.7477608 80.8464508 169.9864807
50.1930618 80.9530792 168.8526001
51.6639633 81.0709534 167.5438843
53.1559525 81.2101669 166.0726929
54.6540565 81.3649445 164.4170227
0.0249405 80.3724976 165.5235596
1.4221774 80.2268143 166.8523560
2.8284919 80.0954742 168.0635376
4.2134628 79.9766083 169.1504974
5.6045928 79.8658600 170.1270905
7.0015106 79.7671051 171.0161133
8.3718815 79.6747665 171.8082275
9.7702141 79.5911560 172.5390167
11.1494160 79.5170670 173.1829376
12.5245924 79.4489059 173.7507782
13.9065075 79.3848801 174.2643738
15.2861519 79.3293304 174.7208710
16.6635761 79.2796326 175.1109161
18.0264664 79.2342224 175.4300842
19.4169502 79.1951523 175.7083435
20.8049355 79.1632690 175.9405823
22.1602421 79.1331787 176.0997314
23.5469017 79.1129150 176.2183228
24.9271126 79.0930252 176.2841797
26.3082523 79.0816727 176.3014526
27.6770706 79.0764847 176.2573853
29.0761051 79.0736847 176.1577148
30.4622765 79.0746078 176.0186310
31.8324184 79.0855026 175.8332520
33.2404633 79.0980148 175.5583191
34.6387711 79.1195221 175.2394409
36.0176544 79.1453705 174.8870850
37.4242363 79.1757050 174.4539795
38.8313599 79.2173309 173.9485168
40.2432289 79.2589645 173.3855591
41.6438751 79.3112411 172.7592621
43.0844193 79.3738098 172.0257263
44.5117760 79.4399185 171.2179108
45.9265671 79.5182648 170.3555603
47.3875427 79.6076813 169.3390503
48.8389740 79.7060242 168.2191620
50.3034821 79.8181686 166.9905701
51.7736282 79.9466553 165.5883789
1.4160372 79.0857620 164.8839417
2.8242521 78.9482422 166.1968231
4.2116342 78.8219757 167.3460236
5.6133108 78.7095261 168.3947754
7.0134716 78.6062317 169.3399506
8.3849163 78.5134125 170.1648102
9.7773170 78.4288177 170.9386902
11.1617470 78.3495331 171.5994263
12.5396729 78.2814560 172.1999512
13.9234772 78.2195435 172.7464752
15.3113165 78.1590347 173.2126465
16.6873322 78.1093597 173.6212463
18.0574112 78.0647125 173.9654846
19.4482346 78.0278168 174.2619324
20.8353386 77.9910583 174.4886017
22.1948204 77.9641800 174.6549988
