-104.6385269 -29.4394875 184.6520844
-103.8488159 -29.1367245 184.6606445
-103.0765762 -28.8019943 184.6499939
-100.9027634 -27.3306618 184.6570740
-100.2296677 -26.7319622 184.6519012
-98.4273682 -24.4713936 184.6338959
-97.8926926 -23.4644432 184.6132050
137.0287018 13.5994396 187.4215546
137.9703522 13.1243410 187.4445190
138.8650513 12.7720509 187.4695282
139.7320404 12.5003414 187.4810333
140.6143341 12.3108616 187.5083466
144.7807617 12.5428171 187.5652161
145.5573578 12.7819252 187.5631561
146.3559570 13.1420174 187.5855103
147.1279297 13.5039968 187.5791626
147.8997192 13.9520359 187.5816498
148.6677856 14.5434475 187.5897980
149.4109497 15.2404013 187.5723267
150.1053772 16.0435333 187.5542145
150.8152466 17.0088921 187.5603180
-112.9210358 -29.7057590 183.6741943
-111.8176575 -30.0442123 183.6914673
-110.7577515 -30.3007355 183.7148285
-109.7874222 -30.4449272 183.7336578
-108.8701096 -30.4864197 183.7511749
-107.9028702 -30.4579258 183.7644196
-105.3021698 -30.0336075 183.7947998
-104.4823837 -29.7740574 183.7995453
-103.6981277 -29.4804993 183.8082733
-102.9357681 -29.1259918 183.8188629
-100.7505722 -27.6602688 183.8161469
-100.0706558 -27.0753822 183.8107605
-98.2716675 -24.8485680 183.7831116
-97.7178574 -23.8599358 183.7723694
-97.2280884 -22.8130875 183.7482910
-96.8031006 -21.5832024 183.7241058
136.2083282 13.4600973 186.6103821
137.1535492 12.8664360 186.6328735
138.0826569 12.4313679 186.6582489
138.9539948 12.1325598 186.6864624
139.8311310 11.8956642 186.7003021
140.7217407 11.7144756 186.7196198
144.8623199 11.9842243 186.7850647
145.6461639 12.2044001 186.7817993
146.4494781 12.5236835 186.7984314
147.2427979 12.8709326 186.7972107
148.0045929 13.3000736 186.7969360
148.7773285 13.8577099 186.8030396
149.5189972 14.4861898 186.7900543
150.2242279 15.2288628 186.7787933
150.9273529 16.1600056 186.7752533
-111.6782074 -30.3517780 182.8434143
-98.1433411 -25.1540127 182.9377136
-97.5847168 -24.1894093 182.9251099
-97.0846405 -23.1470337 182.9085388
-96.6483612 -21.9660530 182.8802338
-96.2374878 -20.4790154 182.8547058
135.4088287 13.4204206 185.7879944
136.3230133 12.7923393 185.8240051
137.2490387 12.2671852 185.8533630
138.1619720 11.8775616 185.8768768
139.0432739 11.6095762 185.8986664
139.9037628 11.4034061 185.9263916
140.8035889 11.2072086 185.9302521
143.3092194 11.1823912 185.9734192
144.1395111 11.3166885 185.9882965
149.6190033 13.9352722 186.0193481
150.3412476 14.6290703 186.0106506
151.0323486 15.4175339 185.9853668
151.7571564 16.4476070 185.9875183
-112.6405334 -30.2885151 181.9713135
-111.5624771 -30.5954418 181.9919586
-98.0359116 -25.3876514 182.0867615
-97.4726181 -24.4544411 182.0724792
-96.9652481 -23.4183769 182.0567017
-96.5152893 -22.2404099 182.0334473
135.4967651 12.8133068 185.0060577
136.4234161 12.2129326 185.0325012
137.3356781 11.7403202 185.0636597
138.2542267 11.3820133 185.0888062
139.1335449 11.1305227 185.1155701
139.9902802 10.9308243 185.1361694
140.8619690 10.7690659 185.1489716
143.3813934 10.7632093 185.1938934
144.2106781 10.8796902 185.2040100
149.6917877 13.4153032 185.2315216
150.4088745 14.0698395 185.2201843
151.1387787 14.8546867 185.2103271
151.8685608 15.8140516 185.2073669
-112.5874252 -30.4372444 181.1191101
-111.4817123 -30.7600002 181.1435242
-106.7069244 -30.9997768 181.2301788
-105.8704376 -30.8508492 181.2424011
-101.9069977 -29.3054333 181.2661285
-101.1766129 -28.8103638 181.2687988
-100.4941940 -28.2851410 181.2664642
-99.8047409 -27.7062283 181.2602234
-99.1538773 -27.0373650 181.2566071
-98.5582047 -26.3272552 181.2477264
-97.9665527 -25.5592346 181.2368622
-97.3849030 -24.6511230 181.2227020
-96.8695908 -23.6367874 181.2041931
-96.4184113 -22.4792042 181.1798248
-96.0243835 -21.0390987 181.1493530
135.5801697 12.2973337 184.2184296
136.4846039 11.7504511 184.2533417
137.4104309 11.2938347 184.2784424
140.0564728 10.5103664 184.3385620
140.9165039 10.3950939 184.3677979
143.4485474 10.3713360 184.4029999
144.2682343 10.4711494 184.4120331
145.0720367 10.6403580 184.4232788
145.8686829 10.8776150 184.4334869
149.7568970 12.9928846 184.4480133
150.4762268 13.6332903 184.4424744
151.2013855 14.3564262 184.4314423
151.9244995 15.2287102 184.4080505
152.6387634 16.2951660 184.4124298
-112.5053711 -30.5604362 180.2624817
-111.4467087 -30.8619442 180.2899628
-106.6772614 -31.0787487 180.3789368
-105.8296967 -30.9210949 180.3894196
-101.8596878 -29.3886318 180.4170074
-101.1437836 -28.8978405 180.4160004
-100.4478607 -28.3681068 180.4137726
-99.7613068 -27.7864590 180.4094849
-99.1231461 -27.1149750 180.4028015
-98.5200119 -26.4119949 180.3953552
-97.9231339 -25.6487980 180.3832703
-97.3389893 -24.7359200 180.3688660
-96.8205643 -23.7434731 180.3508301
-96.3601303 -22.5997467 180.3279724
-95.9732208 -21.1850338 180.2948761
135.6453400 11.8944492 183.4316711
136.5668793 11.3548117 183.4583740
137.4766998 10.9378672 183.4873657
140.0917206 10.1957359 183.5594635
140.9853210 10.0822678 183.5712128
143.5055695 10.0466852 183.6189423
144.3285370 10.1569672 183.6329956
145.1146545 10.3468714 183.6390076
145.9050598 10.5796509 183.6480865
149.8014069 12.6598406 183.6507111
150.5274048 13.2926474 183.6530914
151.2474976 13.9980669 183.6435699
151.9808502 14.8924723 183.6340485
152.6949310 15.9388914 183.6219788
-112.4893494 -30.6011887 179.4078979
-111.4281082 -30.8883896 179.4336090
-103.3796387 -30.1862278 179.5578918
-102.6120300 -29.8461361 179.5623322
-99.1084976 -27.1743546 179.5483551
-98.4863663 -26.4690247 179.5395966
-97.9022751 -25.7012062 179.5287323
-97.3264694 -24.7783279 179.5130310
-96.8046188 -23.7826538 179.4947357
-96.3372269 -22.6534271 179.4712982
-95.9556198 -21.2398853 179.4380493
135.7045288 11.5753794 182.6367340
136.6107635 11.0759897 182.6706085
137.5246582 10.6845522 182.6993561
138.4332428 10.3662996 182.7239838
139.3101349 10.1182632 182.7465057
143.5432281 9.7960596 182.8280029
144.3697662 9.9199476 182.8385925
148.3160248 11.3155928 182.8683472
149.0872803 11.8174429 182.8739014
151.2867126 13.7206821 182.8559418
152.0365906 14.5697927 182.8455048
152.7429810 15.5102196 182.8263855
-112.5242081 -30.5557308 178.5468597
-111.4402618 -30.8566093 178.5760803
-103.4015045 -30.1658325 178.7003479
-102.6350708 -29.8151741 178.7051849
-99.1116409 -27.1493454 178.6934357
-98.5025406 -26.4504642 178.6837769
-97.9163589 -25.6599808 178.6720428
-97.3420105 -24.7406693 178.6545715
-96.8154068 -23.7346764 178.6341705
-96.3553848 -22.5954056 178.6104279
-95.9812393 -21.1724453 178.5779114
134.7537689 12.0099812 181.8102417
135.7492828 11.3387747 181.8440094
136.6465759 10.8671007 181.8767853
137.5804138 10.4807281 181.9017029
138.4679108 10.1807413 181.9315338
139.3474884 9.9204855 181.9514465
143.5917206 9.6228991 182.0393219
144.4085999 9.7305183 182.0479126
148.3424072 11.1033354 182.0817566
149.1201172 11.5880404 182.0803680
151.3239441 13.4683504 182.0683289
152.0729980 14.2684793 182.0549927
152.7908630 15.2114334 182.0419769
-112.5513306 -30.4704456 177.6882629
-111.4934006 -30.7648869 177.7155304
-110.4414825 -30.9877396 177.7426147
-109.4853134 -31.0804920 177.7628174
-97.9560013 -25.5502586 177.8067627
-97.3906021 -24.6583652 177.7946625
-96.8677063 -23.6472721 177.7737122
-96.4140625 -22.4609318 177.7461853
-96.0364990 -20.9801598 177.7078094
135.7851563 11.1674948 181.0497131
148.3580627 10.9410019 181.2899017
149.1585999 11.4370584 181.2936401
149.9063416 11.9681740 181.2879181
150.6336975 12.5945082 181.2845764
151.3687286 13.2931633 181.2824402
152.1034698 14.0676241 181.2655792
152.8231964 15.0061369 181.2513885
-112.6702576 -30.2804317 176.8127747
-111.5565186 -30.5951099 176.8547668
-110.5334167 -30.8169518 176.8790588
-109.5661163 -30.9157810 176.9009094
-98.0243912 -25.4095993 176.9504700
-97.4611435 -24.4790764 176.9321442
-96.9496002 -23.4458466 176.9086914
-96.5126953 -22.2494049 176.8832245
135.8063049 11.0740175 180.2540131
148.3901367 10.8660841 180.4991608
149.1684418 11.3468361 180.4991455
149.9259949 11.8637648 180.4976654
150.6553497 12.4493809 180.4917755
151.3817749 13.1287289 180.4853821
152.1274414 13.9499302 180.4749298
152.8410645 14.8757639 180.4594116
153.5814819 16.0505714 180.4374847
-111.6668854 -30.3353119 175.9875336
-110.6310349 -30.5642490 176.0117950
-109.6840134 -30.6865864 176.0329285
-106.8561096 -30.6456375 176.0898895
-106.0118561 -30.5040798 176.0952148
-105.1628723 -30.2970181 176.1119080
-104.3540192 -30.0535736 176.1195374
-103.5778580 -29.7589054 176.1220551
-102.8215790 -29.4019775 176.1270599
-98.1317673 -25.1660557 176.0816956
-97.5707321 -24.1954842 176.0582886
-97.0676880 -23.1451111 176.0365143
-96.2945251 -20.3654842 175.9620209
134.8109894 11.6845303 179.4150085
135.8199463 11.0406466 179.4552917
145.2377930 9.6083946 179.6826630
146.0147247 9.8311472 179.6896973
149.9429779 11.8243780 179.7031555
150.6605835 12.3796968 179.7005920
152.8459167 14.8182440 179.6646881
153.5962524 15.9870768 179.6401978
-111.8282089 -29.9844017 175.1116180
-110.7851410 -30.2365208 175.1401672
-109.8057785 -30.3950844 175.1728210
-106.9819489 -30.3741894 175.2230225
-106.1180649 -30.2412834 175.2322693
-105.2794266 -30.0326195 175.2427673
-104.4648819 -29.7716446 175.2481689
-103.6940155 -29.4856567 175.2572632
-102.9310760 -29.1336212 175.2560883
-98.2576065 -24.8430691 175.2102661
-97.7157974 -23.8687687 175.1910553
135.8063202 11.0808220 178.6541290
145.2350616 9.6464481 178.8854523
146.0173950 9.8701897 178.8949280
149.9409027 11.8351545 178.9066162
150.6686707 12.4157696 178.9011841
152.8450775 14.8543797 178.8661346
153.5694122 15.9874725 178.8432617
-112.0018463 -29.5673656 174.2394562
-110.9507980 -29.8356895 174.2734833
-110.0076828 -29.9940586 174.2810211
-109.0430832 -30.0832596 174.3144226
-108.1003799 -30.0872078 174.3271637
-102.2879868 -28.4013519 174.3929596
-101.5473633 -27.9143696 174.3919220
-99.5626831 -26.0646267 174.3713684
-98.9745865 -25.2978516 174.3497467
-98.4218369 -24.4604073 174.3429260
-97.8939743 -23.4168568 174.3164520
135.7970123 11.1788950 177.8500671
151.3852997 13.1493826 178.0967560
152.1301727 14.0009365 178.0811615
152.8328094 14.9572535 178.0649872
153.5676117 16.1348457 178.0384216
-111.1884613 -29.3303814 173.3897400
-110.1968842 -29.5375690 173.4171600
-109.2372894 -29.6481113 173.4362335
-108.2441177 -29.6817894 173.4640045
-102.4455566 -28.0025501 173.5188293
-101.7145996 -27.5006371 173.5138550
-99.7522964 -25.6163502 173.4936066
-99.1745987 -24.8382397 173.4770050
-98.6299133 -23.9696693 173.4612427
-98.1161041 -22.8989468 173.4354858
134.7619781 11.9942379 176.9938965
135.7774200 11.3474321 177.0451965
151.3665771 13.2769670 177.2949982
152.1130371 14.1376390 177.2786713
-110.4435043 -28.9527569 172.5374756
-109.4463501 -29.1305218 172.5744476
-108.4617004 -29.1770630 172.5782623
-107.4976196 -29.1409245 172.5946655
-106.6305771 -29.0422955 172.6121216
-105.7785416 -28.8673897 172.6227875
-104.9596024 -28.6305618 172.6325989
-104.1809616 -28.3332558 172.6367798
-103.4210892 -27.9674377 172.6392517
-102.6575623 -27.5173225 172.6410522
-101.9262161 -26.9902821 172.6363678
-101.2435760 -26.4354057 172.6377106
-100.5933304 -25.8025360 172.6286316
-99.9767380 -25.0711536 172.6098328
-99.4112015 -24.2730904 172.5935516
-98.8880005 -23.3617077 172.5792542
135.7258911 11.5895491 176.2337189
136.6506653 11.0640402 176.2717133
137.5605621 10.6412773 176.3025513
138.4605255 10.3034201 176.3344727
139.3151093 10.0480509 176.3568573
140.1624451 9.8519430 176.3824005
141.0578003 9.7128839 176.4096680
141.9136353 9.6658392 176.4317780
142.7314453 9.7126608 176.4555359
143.5654297 9.7756147 176.4608307
144.3956604 9.8688688 176.4717560
146.7880859 10.5146122 176.5019379
147.5839081 10.8413601 176.5030060
148.3572540 11.2216072 176.5092163
149.1461334 11.7010651 176.5046997
149.8891907 12.2082758 176.5065765
150.6146698 12.7760944 176.5031128
151.3382263 13.4743137 176.4926300
152.0826416 14.3186111 176.4740143
-110.7434235 -28.2591953 171.6415710
-109.7918320 -28.4348335 171.6633911
-108.7296295 -28.5679893 171.7032928
-107.7541351 -28.5703087 171.7156830
-106.8619080 -28.4759254 171.7301483
-106.0264969 -28.3143272 171.7425079
-105.2041168 -28.0842934 171.7529602
-104.4205551 -27.7887402 171.7595520
-103.6566849 -27.4236565 171.7643127
-102.8977509 -26.9543476 171.7602386
-102.1838989 -26.4009304 171.7449951
-101.5104141 -25.8276730 171.7560577
-100.8660126 -25.1522369 171.7378387
-100.2610092 -24.4043808 171.7240295
-99.7219391 -23.5744019 171.7084198
135.6826172 11.8852205 175.4242249
136.5947723 11.3576565 175.4587860
137.5132904 10.9039831 175.4944763
138.4089661 10.5489836 175.5255737
139.2929382 10.2642193 175.5563812
140.1468658 10.0620098 175.5833282
141.0263214 9.9455996 175.6085815
141.8750610 9.9371986 175.6302490
143.5481415 9.9999218 175.6540527
144.3741608 10.0925264 175.6762848
146.7634888 10.7433395 175.6931763
147.5544739 11.0508614 175.7065430
148.3289948 11.4458637 175.7047729
149.1055145 11.9311466 175.7063904
149.8680573 12.4733973 175.6962280
150.5787354 13.0498276 175.6931152
151.2921448 13.7582169 175.6833038
152.0325470 14.6259317 175.6669769
152.7599335 15.6602459 175.6324921
-110.1147079 -27.6333790 170.7702789
-109.0632324 -27.8035641 170.8201752
-108.0748596 -27.8332024 170.8363190
-107.1917877 -27.7450523 170.8442383
-106.3284836 -27.5972748 170.8518219
-105.4953995 -27.3912067 170.8591461
-104.7214508 -27.1031990 170.8617859
-103.9733582 -26.7422314 170.8674164
-103.2002411 -26.2755413 170.8755798
-102.4964142 -25.6792240 170.8604584
-101.8413849 -25.0454464 170.8551788
-101.2078018 -24.3801689 170.8597870
-100.6264114 -23.5938034 170.8489380
-100.1233902 -22.6457729 170.7978363
135.5838318 12.3183041 174.5961914
136.5332031 11.7305098 174.6435547
137.4653015 11.2288475 174.6825104
138.3715515 10.8483353 174.7172241
139.2536621 10.5681667 174.7499847
140.0988312 10.3949509 174.7649078
140.9662170 10.2784472 174.7924194
141.8233795 10.2188787 174.8159027
142.6625671 10.2074852 174.8359222
143.5087891 10.2681189 174.8496246
144.3247375 10.3945160 174.8527679
146.7237396 11.0221548 174.8891907
147.5213013 11.3348265 174.8942566
149.8185272 12.7924528 174.8907013
150.5343323 13.4105787 174.8812103
151.2432556 14.1406965 174.8723755
151.9703217 15.0524073 174.8543243
152.6830750 16.1383228 174.8196259
-109.5048065 -26.8292847 169.8714142
-108.5026703 -26.8847694 169.9262085
-107.5854721 -26.8351898 169.9422150
-106.6946030 -26.7469196 169.9632568
-105.8485870 -26.5689545 169.9766083
-105.0741730 -26.2755604 169.9769287
-104.3348999 -25.9028454 169.9772797
135.5151215 12.8341522 173.7774353
136.4851074 12.1727839 173.8329926
137.3996735 11.6579714 173.8667755
138.3050232 11.2735052 173.8927917
139.1744995 10.9931507 173.9241638
140.0366516 10.7937584 173.9517517
140.9078369 10.6399336 173.9798889
141.7824402 10.5487843 174.0084381
142.6130981 10.5606394 174.0175781
143.4573822 10.6226740 174.0434113
144.2641754 10.7441502 174.0429382
146.6691284 11.3570509 174.0803528
147.4681854 11.6943655 174.0844269
149.7520447 13.1959534 174.0797424
150.4685669 13.8456087 174.0707855
151.1848907 14.6300240 174.0515137
151.8885345 15.5604248 174.0438232
-108.0550537 -25.7584476 169.0421753
-107.1679459 -25.6625767 169.0562286
-106.3276443 -25.4784908 169.0654144
-105.5646591 -25.1865578 169.0641479
-104.8093643 -24.8386669 169.0879211
136.3948364 12.7402573 173.0034332
137.3141174 12.1962461 173.0451202
138.2319336 11.7722368 173.0858917
139.1057281 11.4611721 173.1115265
141.7157288 10.9999876 173.1835480
142.5413666 11.0028763 173.1940155
144.9980164 11.3139582 173.2420502
145.7860260 11.5015478 173.2680206
146.6101532 11.7884569 173.2666473
147.3985138 12.1627798 173.2616119
149.6836090 13.6972246 173.2548065
150.3894501 14.3719511 173.2488403
151.0922241 15.2039585 173.2322235
151.8023376 16.2108231 173.2029114
-106.1457062 -23.8320065 168.0979919
137.2032166 12.8193665 172.2032471
138.1280670 12.3871317 172.2523193
139.0173340 12.0264225 172.2929077
141.6253967 11.5160303 172.3643188
142.4658966 11.4884520 172.3936005
144.9213257 11.8018475 172.4240570
145.7110138 12.0114355 172.4293671
146.5309296 12.3157501 172.4368439
147.3184814 12.6869240 172.4549408
149.6009369 14.2930174 172.4329071
150.2996674 15.0311060 172.4222565
150.9924316 15.9118662 172.4062958
138.8816071 12.7270107 171.4386139
139.7620239 12.4427996 171.4916382
140.6526031 12.2386932 171.5210419
143.2265472 12.1364031 171.5720062
144.0577545 12.2237978 171.5932617
144.8398132 12.3796234 171.6004486
145.6295929 12.5679455 171.6323090
147.2255249 13.4099884 171.5961304
148.0018921 13.8416672 171.6185760
148.7655182 14.3736210 171.6160889
149.4864044 15.0114927 171.6181946
150.1842957 15.8249378 171.5953217
139.6322632 13.2437763 170.6532135
140.5413666 13.0113897 170.6827850
143.1188507 12.8331852 170.7422943
143.9477081 12.8936644 170.7736511
144.7306824 13.0737152 170.7627563
145.5108032 13.3026552 170.7864532
146.3046875 13.7450809 170.7712555
147.1028595 14.1646175 170.7905426
147.8720093 14.5901585 170.8134918
148.6312561 15.2112083 170.7771301
139.4582977 14.1999664 169.7760925
140.3869324 13.9205828 169.8397217
141.2927856 13.6952915 169.8851471
142.1317291 13.6333046 169.8916016
142.9949341 13.6277294 169.9133759
143.8282013 13.6997862 169.9352264
144.6054993 13.8842516 169.9393921
145.3694916 14.1672449 169.9526062
140.1924744 15.0513401 168.9635468
141.1205139 14.8036089 169.0252075
141.9695740 14.6881304 169.0380859
142.8246002 14.6684084 169.0655823
143.6575623 14.7905970 169.0747986
144.4372559 14.9361753 169.1044769
145.2043457 15.2214756 169.1182251
143.4317169 16.1318378 168.2006226
-107.0745316 -23.4256897 140.4944763
-106.3080215 -23.0664120 140.5005951
-105.6207047 -22.5320549 140.4995728
-109.0271759 -25.3472366 139.7121277
-108.1890869 -25.2258682 139.7527008
-107.3444443 -25.0263996 139.7573547
-106.5092621 -24.7474174 139.7684021
-105.7313385 -24.3978348 139.7647705
-104.9949341 -23.9736843 139.7438507
-102.9931183 -22.0593262 139.7091522
-110.5194855 -26.3612251 138.8792267
-109.5142212 -26.4438000 138.9189911
-108.5716400 -26.4352131 138.9572144
-107.7288895 -26.2910309 138.9848175
-106.8932266 -26.0774384 138.9897766
-106.0755768 -25.8099651 138.9968719
-105.2901917 -25.4615364 139.0035095
-104.5497284 -25.0356255 138.9969635
-103.8159485 -24.5082951 138.9719543
-103.1234207 -23.9001541 138.9546661
-102.4997482 -23.2190666 138.9359283
-101.9252090 -22.4174862 138.8877411
-101.3844757 -21.4438496 138.8466644
-111.0370865 -27.2212334 138.0376434
-110.0831680 -27.3588142 138.0894318
-109.1016922 -27.3866005 138.1376801
-108.1621094 -27.3559589 138.1590271
-107.3346405 -27.1759262 138.1923370
-106.5063629 -26.9509640 138.2045746
-105.6853256 -26.6885719 138.2106018
-104.9215851 -26.3425026 138.2138367
-104.1931229 -25.8939610 138.2167816
-102.0848999 -24.1919899 138.1654053
-101.4844360 -23.4599056 138.1327820
-100.9136353 -22.5919132 138.0836945
-100.3981171 -21.6012802 138.0435638
-109.7689362 -28.1110477 137.3384552
-108.7947311 -28.1466122 137.3564758
-107.8391342 -28.1022644 137.3716431
-107.0120773 -27.9152565 137.3960114
-106.1833115 -27.6802044 137.4109344
-105.3670654 -27.4022350 137.4167023
-104.6070938 -27.0606956 137.4181519
-103.8778152 -26.6315689 137.4203644
-101.7536316 -24.9709625 137.3758087
-101.1207352 -24.2732792 137.3477173
-100.5404663 -23.4780617 137.3078918
-100.0139542 -22.5496845 137.2545776
-99.5413208 -21.4727650 137.2039490
-111.3823929 -28.6271000 136.4277191
-110.3839798 -28.7795601 136.4707031
-109.4211960 -28.8344231 136.5086517
-108.4927368 -28.8214169 136.5499725
-104.3516693 -27.6692314 136.6182709
-103.5933380 -27.2857533 136.6051025
-102.8436127 -26.7808952 136.6018829
-102.1512527 -26.2189751 136.5981750
-101.4757538 -25.6439037 136.5720978
-100.8277664 -24.9522266 136.5526886
-100.2259140 -24.1880341 136.5180359
-99.6807938 -23.3406906 136.4763336
-99.1891174 -22.3504028 136.4080963
-98.7287903 -21.0869865 136.3451538
-112.1501160 -29.0086212 135.5707855
-111.0994797 -29.2490902 135.6244507
-110.1259537 -29.3652287 135.6718445
-109.1928482 -29.4030857 135.7056427
-108.2431946 -29.3727837 135.7373352
-104.1304321 -28.1898022 135.8153687
-103.3758011 -27.8093300 135.8056946
-102.6230240 -27.3225269 135.8030548
-101.9128571 -26.7790527 135.7938690
-101.2400894 -26.2135410 135.7653656
-100.5811310 -25.5386887 135.7434540
-99.9627228 -24.8211479 135.7095947
-99.3952866 -23.9971523 135.6780396
-98.8895798 -23.0631466 135.6151886
-98.4217606 -21.8552437 135.5496216
-97.9881516 -20.5319786 135.4881744
-111.9007950 -29.5604172 134.7635193
-110.8714905 -29.7535362 134.8132629
-109.9362640 -29.8371162 134.8599701
-109.0343018 -29.8441353 134.8968964
-108.0563431 -29.8130932 134.9214630
-105.4731827 -29.3149815 134.9791870
-104.6880951 -28.9985447 134.9926910
-103.9254761 -28.6454449 134.9903107
-103.1841507 -28.2592773 134.9938049
-102.4184723 -27.7909946 134.9794006
-101.7006607 -27.2534962 134.9720154
-99.7505112 -25.3398819 134.8977051
-99.1732101 -24.5347786 134.8611298
-98.6457977 -23.6068344 134.8154907
-98.1621170 -22.5240192 134.7479095
143.2743683 18.5116558 140.7795410
-112.7389297 -29.7619228 133.8884125
-111.7054291 -30.0144272 133.9465942
-110.7000351 -30.1730499 134.0002289
-109.7452621 -30.2424126 134.0340576
-108.8501740 -30.2315922 134.0838318
-107.9025497 -30.1938457 134.1098022
-105.3119202 -29.6874828 134.1640778
-104.5160675 -29.3831768 134.1740570
-103.7561111 -29.0415840 134.1806946
-103.0150146 -28.6556797 134.1714020
-102.2480392 -28.1708508 134.1667938
-101.5304108 -27.6538868 134.1525116
-99.5602951 -25.7489071 134.0882721
-98.9837341 -24.9652653 134.0534973
-98.4439774 -24.0907154 134.0033264
-97.9333725 -23.0519733 133.9360657
-97.4464493 -21.8872414 133.8775940
140.1167297 16.8378258 139.9825745
141.0177917 16.6076527 140.0064240
141.8603821 16.5825920 140.0436096
142.6881256 16.6424904 140.0681763
143.5258179 16.8045959 140.0850830
144.3188629 17.0526123 140.0911102
145.0885010 17.4014053 140.0885162
145.8553314 17.8934231 140.0805359
-112.5691299 -30.1597214 133.0662994
-111.5094604 -30.4212761 133.1201324
-103.6123428 -29.3812389 133.3465881
-102.8738022 -28.9599514 133.3546600
-99.4146805 -26.1203136 133.2608948
-98.8259354 -25.3582249 133.2250671
-98.2772598 -24.5071831 133.1774902
-97.7590561 -23.4686871 133.1198425
-97.2644424 -22.2950325 133.0567169
138.5668030 16.0539875 139.1550293
139.4525757 15.6818209 139.2166290
140.3320313 15.4473410 139.2812347
141.2242432 15.3063164 139.3209839
142.0564423 15.2919846 139.3610229
146.0876770 16.4653282 139.4037933
146.8456726 17.0808067 139.4043121
-112.4064102 -30.4884510 132.2383881
-111.3849335 -30.7286949 132.2990570
-103.4875412 -29.6330643 132.5171509
-102.7552185 -29.2325859 132.5161285
-99.2945099 -26.3824120 132.4311523
-98.7012177 -25.6460400 132.3976288
-98.1492767 -24.7971020 132.3538513
-97.6173553 -23.7751579 132.2917633
-97.1210175 -22.6560669 132.2278442
138.7501526 14.8446789 138.4559784
139.6277161 14.5351009 138.5226288
140.5211792 14.3266716 138.5650330
141.3704987 14.2561445 138.6231079
142.2286530 14.2113104 138.6371155
146.2601471 15.3645582 138.7105103
147.0227051 15.8801565 138.6906281
147.7740936 16.5083542 138.6901093
148.5306396 17.2373695 138.6818390
-113.3935242 -30.3679333 131.3347778
-112.3151855 -30.7136765 131.4046173
-111.2703171 -30.9584885 131.4631653
-110.2821503 -31.0901489 131.5119171
-109.3506470 -31.1332893 131.5528717
-99.1990662 -26.5991917 131.5962830
-98.6069717 -25.8804989 131.5610809
-98.0497589 -25.0387154 131.5176392
-97.5165329 -24.0403576 131.4584961
-97.0049133 -22.9096088 131.3924713
138.9298401 13.8284483 137.7410583
139.7768860 13.5981236 137.8070221
140.6748047 13.4183798 137.8439941
141.5242615 13.3587265 137.8876648
142.3513184 13.3568716 137.9181976
143.2052917 13.4388771 137.9503326
144.0266724 13.5946112 137.9710083
144.8178101 13.7753258 137.9721832
145.5994263 14.0530024 137.9918060
146.4016266 14.4323463 137.9939728
147.1698761 14.8779125 137.9804840
147.9248047 15.4333172 137.9637909
148.6762543 16.1200695 137.9343262
149.4084473 16.9460373 137.9040680
150.1075592 17.9058571 137.8846588
-113.3226242 -30.5292244 130.4916382
-112.2284698 -30.8784676 130.5632782
-111.1974335 -31.1111012 130.6222229
-110.2245712 -31.2385502 130.6717834
-109.2668686 -31.2923794 130.7119904
-99.1261826 -26.7831745 130.7568207
-98.5332336 -26.0514603 130.7221375
-97.9767990 -25.1989231 130.6766357
-97.4514084 -24.1866169 130.6171265
-96.9455948 -23.0823269 130.5489197
137.2416840 13.8177233 136.8604584
138.1569672 13.3732176 136.9537506
139.0762634 13.0073919 137.0096893
139.9240265 12.7960005 137.0689087
140.8062897 12.6407070 137.1032562
141.6563263 12.6086817 137.1479950
142.4726868 12.6357403 137.1813049
143.3222809 12.7086163 137.1923523
144.1453705 12.8880587 137.2372437
144.9473114 13.0549021 137.2496796
145.7200165 13.2838125 137.2532196
146.5193787 13.6521730 137.2647705
147.2946930 14.0793228 137.2589874
148.0545807 14.5852356 137.2445068
148.8173523 15.2212000 137.2256165
149.5466309 15.9497175 137.1919861
150.2405243 16.7959595 137.1435852
-113.2851105 -30.6302433 129.6445007
-112.2005234 -30.9616032 129.7142639
-111.1644592 -31.1982880 129.7748108
-104.8726959 -30.7206383 129.9877930
-104.0611496 -30.4402351 129.9969788
-101.7799072 -29.2645836 129.9932861
-101.0604477 -28.7568302 129.9827576
-100.3836136 -28.2075939 129.9648895
-99.7183762 -27.5789051 129.9410858
-97.9438705 -25.2659397 129.8265686
-97.4235153 -24.2312565 129.7637482
-96.9212875 -23.1785240 129.6998901
136.4402771 13.5409517 136.0621033
137.3524628 13.0462847 136.1463928
138.2930756 12.6227112 136.2104645
139.1695557 12.3364439 136.2774658
141.7600250 11.9953489 136.4143677
142.5826416 12.0133924 136.4465179
143.4299774 12.0747328 136.4631195
144.2514191 12.2106304 136.4915924
146.6235962 12.9913006 136.5180817
147.3997498 13.3996887 136.5182037
148.1746063 13.8772631 136.5159912
148.9323578 14.4370813 136.4859009
149.6783905 15.1496849 136.4689178
150.3742523 15.9181442 136.4242706
151.0688629 16.8865986 136.3854370
-113.2803345 -30.6668091 128.7895508
-112.1795425 -30.9918385 128.8606720
-111.1475143 -31.2342014 128.9213104
-104.8399048 -30.7705021 129.1386719
-104.0481186 -30.4820690 129.1457214
-101.7719650 -29.3138618 129.1435547
-101.0430527 -28.8120213 129.1326141
-100.3681870 -28.2558002 129.1150055
-99.7081757 -27.6165009 129.0888824
-97.9419632 -25.3072243 128.9734802
-97.4200745 -24.2726498 128.9098969
-96.8982544 -23.1969719 128.8443756
136.5618744 12.8245602 135.3266602
137.4703827 12.3750944 135.4049072
138.3930664 12.0114202 135.4728241
139.2702637 11.7492266 135.5269318
141.8433838 11.4037161 135.6513367
142.6726685 11.4126921 135.6869354
143.5158539 11.4813967 135.7145081
144.3398132 11.6162071 135.7348328
146.7236938 12.4138317 135.7747498
147.5000763 12.7884359 135.7675781
148.2656097 13.2592897 135.7683868
149.0239105 13.8232250 135.7490540
149.7806091 14.4849949 135.7336731
150.4842834 15.1827927 135.6918182
151.1822815 16.0747433 135.6484833
151.8976593 17.1418076 135.5970917
-112.1874237 -30.9736614 128.0029907
-111.1639023 -31.2084255 128.0634003
-104.8461609 -30.7343140 128.2826385
-104.0415344 -30.4602184 128.2908630
-103.2706909 -30.1562576 128.2988892
-102.5352936 -29.7702770 128.2946625
-101.7689514 -29.3060818 128.2875824
-101.0491943 -28.8027706 128.2776794
-99.0739059 -26.8984241 128.1999359
-98.4901352 -26.1676178 128.1663361
-97.9498901 -25.2921925 128.1161652
-97.4145050 -24.2510796 128.0508575
-96.9030762 -23.1876392 127.9848709
134.7265472 13.5235424 134.4105835
135.7590637 12.7747107 134.4972687
136.6615601 12.2430630 134.5763092
137.5880432 11.8062782 134.6468506
148.3461151 12.7455235 135.0166626
149.1117859 13.2899742 135.0045929
151.2855072 15.3949871 134.9105835
152.0167847 16.4417572 134.8518982
-112.2403870 -30.8656044 127.1351700
-111.2083817 -31.1034832 127.1973267
-104.8878021 -30.6571827 127.4180374
-104.0827255 -30.3981552 127.4289474
-103.3055878 -30.0869942 127.4373703
-102.5548859 -29.7046394 127.4394913
-101.7975540 -29.2385445 127.4281693
-101.0810852 -28.7221870 127.4143829
-99.1121445 -26.8248768 127.3394089
-98.5363922 -26.0594215 127.2952728
-97.9904480 -25.1892223 127.2494125
-97.4511185 -24.1774292 127.1926880
-96.9277725 -23.0538750 127.1106720
135.8347168 12.2804155 133.7400970
136.7394562 11.7728567 133.8245697
137.6391144 11.3670368 133.8953400
148.4168243 12.2869911 134.2532806
149.1827087 12.8031330 134.2480316
151.3744049 14.8522911 134.1657867
152.0906830 15.8488426 134.1109924
-112.3338699 -30.6755543 126.2589798
-111.2975311 -30.9219704 126.3193359
-110.2964172 -31.0831223 126.3732910
-109.3534470 -31.1453629 126.4136276
-106.5949478 -30.9815979 126.5228043
-105.7578964 -30.7857246 126.5347748
-104.9253540 -30.5563126 126.5531082
-104.1257248 -30.2928028 126.5612030
-98.0672913 -25.0095081 126.3697128
-97.5255890 -23.9759216 126.3092117
134.9340363 12.4995966 132.8876648
135.9105988 11.8559389 132.9782257
151.4333191 14.3810120 133.4073944
152.1568146 15.3363829 133.3578796
152.8932343 16.3846836 133.3113098
-112.4453506 -30.4358902 125.3737030
-111.3907242 -30.6914616 125.4452438
-110.3976669 -30.8554935 125.4984894
-109.4462204 -30.9336834 125.5416031
-106.6706848 -30.8076038 125.6540680
-105.8216171 -30.6300163 125.6693573
-104.9878387 -30.4061298 125.6891251
-104.1919327 -30.1234550 125.6996841
-98.1688690 -24.7654171 125.4922638
-97.6453705 -23.7048302 125.4284973
134.9972382 12.1437874 132.1149139
135.9644012 11.5095053 132.2109070
151.4986267 14.0167465 132.6463318
152.2348633 14.9220314 132.6022186
-111.5459595 -30.3627434 124.5523605
-110.5327377 -30.5603371 124.6073914
-109.5713501 -30.6628113 124.6559830
-108.6481552 -30.6896515 124.7016602
-107.7020111 -30.6441383 124.7377777
-100.6419678 -27.5565186 124.7667236
-99.9896851 -26.9195328 124.7445374
-99.3827896 -26.1942062 124.7085953
-98.8223114 -25.3803692 124.6596069
-98.3059235 -24.4202614 124.5914001
-97.7937088 -23.3416405 124.5289383
134.0204926 12.6200590 131.2364197
135.0564117 11.8461580 131.3395386
136.0246429 11.2197905 131.4334717
150.1042023 12.3792105 131.9308319
150.8341827 12.9887896 131.9110260
151.5547028 13.7002783 131.8789978
152.2749329 14.5680780 131.8311005
153.0251160 15.6106520 131.7823029
-111.7442398 -29.9397392 123.6492081
-110.6884155 -30.1874447 123.7231522
-109.7164307 -30.3104706 123.7686691
-108.8227386 -30.3340893 123.7985001
-107.8655624 -30.3139439 123.8415833
-100.7936401 -27.2309113 123.8880768
-100.1549072 -26.5539093 123.8417892
-99.5391388 -25.8193264 123.8126373
-98.9913940 -25.0139084 123.7675171
-98.4783936 -24.0473557 123.7091141
-97.9739914 -22.8687897 123.6118774
134.0754547 12.3862162 130.4543915
135.0767059 11.6464729 130.5603333
136.0402679 11.0283499 130.6549530
150.1385956 12.1632233 131.1564941
150.8595123 12.7452402 131.1347198
151.5845642 13.4635754 131.1050873
152.3210297 14.3412199 131.0594635
153.0583954 15.3390808 131.0069427
-111.9669571 -29.4481163 122.7268524
-110.9163742 -29.6920490 122.8065796
-109.9295883 -29.8517742 122.8680801
-108.9947739 -29.9137726 122.9042358
-108.0435410 -29.9110603 122.9421463
-107.0927048 -29.8400745 122.9858093
-106.2298431 -29.6769562 123.0081024
-103.8530807 -28.8440475 123.0349350
-103.1219559 -28.4277611 123.0357895
-102.3760757 -27.9259338 123.0076675
-101.6409149 -27.3893127 122.9993591
-100.9824677 -26.7873154 122.9730301
-100.3490295 -26.0884151 122.9324341
-99.7407150 -25.3361759 122.8984909
-99.1931610 -24.5089951 122.8594971
-98.6963043 -23.4941196 122.7886200
134.0965118 12.2404251 129.6655273
135.1287384 11.4783564 129.7743530
136.0852356 10.8731031 129.8686371
143.8677521 9.3990984 130.3323517
144.6926270 9.5220013 130.3565216
153.0862732 15.1273794 130.2268372
-110.1825027 -29.2719498 121.9528198
-109.2219009 -29.3913898 122.0069351
-108.2771301 -29.3872166 122.0320129
-107.3171005 -29.3123608 122.0740051
-106.4614639 -29.1575279 122.0849915
-104.0643082 -28.3399353 122.1155014
-103.3425751 -27.9190884 122.1016159
-102.5694122 -27.4531784 122.1162186
-101.8461227 -26.8957882 122.0918045
-101.1989594 -26.2727242 122.0679703
-100.5772171 -25.5613251 122.0343704
-99.9866562 -24.7661228 121.9857254
-99.4540176 -23.8758068 121.9310303
134.1109619 12.1619396 128.8708954
135.1414490 11.4005756 128.9822845
136.0971832 10.7997427 129.0763092
143.8880463 9.3231878 129.5438080
144.7099152 9.4342489 129.5700684
153.0996246 15.0289755 129.4390869
-109.5207291 -28.7396488 121.0746536
-108.5472946 -28.7450562 121.1095886
-107.5906525 -28.6884079 121.1411133
-106.7403946 -28.5545025 121.1580124
-105.8742752 -28.3735847 121.1891861
-105.0729141 -28.1219273 121.2082977
-104.3213196 -27.7878590 121.2100296
-103.5695343 -27.3714142 121.1958084
-102.8104782 -26.8822346 121.1950150
-102.1130524 -26.2922153 121.1707840
-101.4827881 -25.6300468 121.1438370
-100.8717499 -24.8572769 121.0891571
-100.3025818 -24.0432339 121.0592880
134.1163635 12.1620302 128.0680084
135.1379242 11.4043570 128.1816559
136.1028595 10.7860146 128.2781372
140.5316467 9.2827997 128.6057281
141.3959503 9.1872663 128.6523285
142.2504425 9.1634455 128.6926270
143.0554047 9.2005949 128.7230988
143.8820343 9.2784081 128.7523346
144.7206726 9.3933506 128.7783051
151.6331787 13.1961155 128.7417297
152.3726349 14.0657043 128.6952362
153.1025848 15.0118456 128.6443787
-108.9049377 -27.9706612 120.1709900
-107.9087448 -27.9627495 120.2211380
-107.0371780 -27.8329926 120.2241211
-106.1740799 -27.6679897 120.2635422
-105.3888702 -27.3973331 120.2660599
-104.6252365 -27.0789585 120.2752991
-103.8739014 -26.6771450 120.2795792
-103.1339035 -26.1387272 120.2596817
-102.4524536 -25.5040226 120.2295151
-101.8293076 -24.7993279 120.1834259
-101.2376022 -24.0409565 120.1596603
-100.7207489 -23.0796432 120.0836258
134.0973816 12.2214918 127.2575378
135.1303711 11.4612942 127.3762207
136.0931854 10.8397932 127.4741974
140.5347443 9.3161297 127.8095932
141.3775482 9.2372742 127.8474731
142.2261963 9.2031946 127.8917618
143.0594940 9.2194672 127.9280853
143.8882599 9.2876482 127.9557419
144.7145081 9.3988838 127.9852905
151.6397400 13.1985388 127.9458847
152.3751678 14.0647364 127.8997116
153.1206512 15.0619802 127.8413467
-108.3239136 -27.0407295 119.2711029
-106.5783615 -26.7727146 119.3117752
-105.7762680 -26.5088005 119.3148880
-105.0457687 -26.1584892 119.3088608
-104.3114548 -25.7052383 119.2991257
-103.5617142 -25.1724358 119.2942047
135.1097260 11.6026344 126.5609512
136.0732117 10.9762421 126.6596603
136.9868622 10.4882593 126.7431412
137.8890533 10.0910006 126.8200226
143.8778381 9.3520355 127.1530533
144.7207642 9.4700108 127.1832199
151.6287231 13.2312851 127.1483078
152.3699188 14.1141949 127.1017456
153.1019135 15.1403542 127.0360489
-107.9780273 -25.7076664 118.2823944
-105.5408020 -24.9899940 118.3448639
-104.8001099 -24.5590897 118.3202591
135.0802765 11.8005104 125.7405014
136.0487061 11.1593742 125.8451614
136.9628296 10.6436272 125.9318848
137.8831024 10.2317305 126.0113602
143.8660126 9.4800739 126.3508530
144.6975555 9.5989475 126.3800659
151.6176758 13.3943262 126.3354034
152.3461151 14.2847910 126.2886124
153.0748596 15.3363447 126.2193451
136.0097351 11.4207401 125.0219345
136.9265900 10.8904066 125.1089172
137.8361206 10.4707489 125.1853104
148.5993195 11.2288857 125.6092682
149.3846588 11.7306499 125.5887222
150.1440277 12.2883015 125.5740509
150.8599091 12.8846464 125.5539627
151.5841217 13.6319132 125.5170975
152.3155212 14.5509043 125.4665604
153.0471039 15.6144428 125.3930588
135.9453583 11.7839966 124.1798325
136.8642883 11.2354889 124.2729263
137.8010712 10.7633381 124.3635712
148.5816040 11.4661665 124.7867432
149.3506012 11.9798946 124.7691574
150.1034393 12.5379734 124.7575989
150.8334656 13.1742783 124.7236633
151.5466003 13.9472389 124.6845932
152.2751007 14.8788109 124.6322937
135.8742676 12.2096844 123.3327789
136.8144531 11.6379919 123.4351273
137.7431946 11.1426992 123.5226440
138.6486511 10.7638187 123.5994034
139.5111542 10.4961424 123.6619949
142.1170197 10.0897121 123.8260117
142.9359894 10.1179628 123.8583145
143.7640686 10.1880655 123.8895035
144.5979767 10.2888584 123.9151840
146.9927979 10.9942093 123.9597092
147.7791595 11.3471184 123.9633408
150.0610809 12.8691339 123.9235992
150.7748413 13.5096703 123.9042206
151.4875946 14.3150063 123.8602371
152.2210236 15.3001728 123.7912903
136.7331085 12.1306238 122.5864487
137.6681519 11.6196394 122.6782150
138.5851440 11.1991453 122.7603989
139.4438019 10.9158640 122.8154449
142.0521545 10.4683285 122.9880905
142.8757019 10.4946651 123.0219879
143.7160645 10.5501099 123.0552063
144.5440826 10.6266890 123.0902252
146.9422455 11.3450975 123.1299057
147.7271729 11.7171402 123.1331329
150.0075684 13.2930555 123.0826340
150.7155151 13.9771805 123.0490646
151.4156494 14.8100824 123.0066071
152.1445007 15.8650389 122.9368057
137.5717773 12.1998062 121.8144913
138.4967651 11.7396936 121.9107819
139.3780670 11.4022827 121.9847488
140.2279205 11.1847153 122.0328751
141.1244507 10.9937639 122.0989304
141.9826355 10.9223890 122.1468887
142.8088531 10.9443731 122.1754684
143.6498566 10.9775200 122.2044830
144.4896393 11.0474882 122.2576981
148.4313202 12.6249561 122.2746582
149.2027740 13.1752481 122.2594910
149.9284821 13.8156891 122.2357025
150.6211090 14.5358868 122.2077866
151.3275452 15.4544058 122.1419754
137.4342651 12.9012575 120.9159012
138.3888245 12.4087257 121.0395737
139.2710266 12.0460072 121.1095505
140.1386566 11.7632866 121.1720810
141.0486298 11.5222502 121.2484207
141.8930359 11.4532757 121.2806320
142.7401123 11.4287128 121.3450089
143.5842590 11.4619989 121.3721313
144.4077301 11.5817556 121.3875504
148.3423462 13.1734457 121.4347534
149.0998993 13.7802410 121.4039230
149.8321381 14.4980850 121.3732834
150.5309296 15.2888870 121.3224487
139.1530151 12.7700605 120.2319717
140.0527039 12.4363241 120.3168335
140.9418945 12.2042847 120.3828354
141.7821350 12.1367178 120.3979492
142.6306152 12.1017742 120.4470215
143.4825134 12.1094580 120.5027084
144.3177032 12.2054119 120.5303040
145.1159973 12.3515882 120.5647583
145.8993530 12.6138382 120.5626450
146.7081604 12.9370699 120.5822296
147.4806519 13.3751545 120.5689468
148.2340546 13.8953791 120.5691299
148.9901886 14.5628891 120.5479889
149.7246704 15.3597221 120.4813080
139.8937378 13.3160515 119.3973923
140.7804871 13.0852470 119.4859848
141.6894989 12.9097328 119.5739136
142.5104370 12.8903637 119.5975647
143.3543701 12.8995657 119.6268311
144.1972656 12.9596748 119.6626587
144.9931488 13.1396847 119.6732407
145.7699738 13.4052572 119.6819534
140.5960236 14.2028742 118.5484009
141.4521942 14.1465235 118.5843887
142.3118439 14.0609713 118.6457748
143.1915894 13.9414501 118.7208710
144.0559540 13.9511013 118.7653885
144.8469696 14.1325216 118.7789764
145.6182251 14.4097300 118.7873611
-106.2740021 -22.9836864 89.6585922
-105.5360565 -22.5615025 89.6511917
-104.8168411 -22.0185127 89.6189651
-104.1812668 -21.3312969 89.5652924
-103.5969925 -20.5659218 89.5259781
-109.1192703 -25.0346794 88.9006729
-108.1968918 -25.0264912 88.9474411
-107.3262329 -24.8928299 88.9838562
-106.4876633 -24.6449337 89.0074692
-105.7044525 -24.3325558 89.0086365
-104.9724579 -23.9019356 89.0033722
-104.2513428 -23.3631706 88.9800873
-103.5715561 -22.7683697 88.9324875
-102.9643478 -22.0652866 88.8824387
-102.3476181 -21.2627850 88.8219910
-109.5906143 -26.1538773 88.1435623
-108.6395493 -26.1576462 88.2110138
-107.7532654 -26.0884552 88.2551880
-106.8694229 -25.9359398 88.2681732
-106.0472641 -25.6711788 88.3056641
-103.7909622 -24.4431019 88.2893982
-103.0970993 -23.8914585 88.2429123
-102.4679337 -23.2129784 88.2066650
-101.8340607 -22.4457359 88.1480637
-101.1754303 -21.6418705 88.0919342
-58.8714676 -15.0719690 89.7531128
-57.9284286 -15.0569534 89.7725220
-57.0797844 -14.8543463 89.7999649
-56.2806358 -14.6040745 89.7924271
-54.7961121 -13.6907387 89.7610703
-110.1607208 -27.0404186 87.3706894
-109.1629410 -27.1167240 87.4311295
-108.2330399 -27.0937557 87.4819031
-107.3873138 -26.9406452 87.5289383
-106.5343781 -26.7476101 87.5555115
-105.6591263 -26.5592613 87.5626602
-103.3889465 -25.3800755 87.5545807
-102.6943436 -24.8307552 87.5299683
-102.0537262 -24.2083950 87.4859772
-101.4205704 -23.4799328 87.4295731
-100.7818375 -22.6807365 87.3685760
-100.1837692 -21.8046112 87.3175507
-59.1938057 -16.5502167 89.0377808
-58.2861824 -16.5674095 89.0962906
-57.4093399 -16.4433861 89.1406708
-56.5744247 -16.2245598 89.1613388
-55.7605591 -15.9511318 89.1701660
-55.0205612 -15.5743084 89.1736069
-54.2743950 -15.0733147 89.1600189
-53.5766220 -14.5407934 89.1125565
-52.9223022 -13.8444719 89.0795593
-110.7377014 -27.7661495 86.5521469
-109.7933044 -27.8885994 86.6284637
-108.8120041 -27.9114189 86.6996155
-107.8916016 -27.8581333 86.7423935
-107.0645294 -27.6937866 86.7809219
-106.2010880 -27.5122776 86.8103027
-105.3334351 -27.3189621 86.8215332
-104.5404892 -27.0164413 86.8305969
-103.8064041 -26.6180687 86.8262253
-101.7077637 -25.0068130 86.7473221
-101.0663681 -24.2966785 86.7056046
-100.4425735 -23.5310040 86.6394424
-99.3720932 -21.6343422 86.4703217
-58.7490578 -17.7211018 88.3770370
-57.8738899 -17.6688843 88.4238281
-55.3707886 -17.0283794 88.4843826
-54.6186638 -16.6389484 88.4856720
-53.8716850 -16.2083225 88.4709854
-53.1342659 -15.6870127 88.4388275
-52.4725533 -15.0297794 88.3965759
-51.8256683 -14.2926893 88.3308716
-51.2226601 -13.4199867 88.2638779
-7.0436368 -6.0827737 89.9844437
-111.4582520 -28.3063202 85.7212753
-110.4676514 -28.4823799 85.8219223
-109.4890366 -28.5753288 85.8880386
-108.5064163 -28.6019077 85.9395065
-107.5902786 -28.5502415 85.9810181
-106.7532272 -28.4032593 86.0161285
-105.9202499 -28.1987782 86.0542145
-105.0637970 -27.9582329 86.0646667
-104.2827835 -27.6370792 86.0723877
-103.5371323 -27.2422085 86.0706940
-101.4151459 -25.6730213 85.9932861
-100.7626114 -25.0281391 85.9435501
-100.1284180 -24.2419987 85.9014053
-99.5584717 -23.4071865 85.8229141
-99.0648727 -22.4555988 85.7207031
-98.5847321 -21.3304043 85.6104965
-60.2844810 -18.5461826 87.5456924
-59.3259506 -18.6508522 87.6148987
-58.3930550 -18.6759529 87.6613159
-57.5201187 -18.5814590 87.7115479
-55.0411453 -17.9345074 87.7781296
-54.2705040 -17.5686550 87.7708359
-53.5042229 -17.1601543 87.7590027
-52.7922554 -16.6445827 87.7506409
-52.1023598 -16.0345840 87.7141647
-51.4365654 -15.3269157 87.6538544
-50.8239365 -14.5000305 87.5843735
-50.2539177 -13.6028099 87.5104599
-7.3779683 -7.8411145 89.3182831
-6.5729475 -7.5933042 89.3346939
-5.7841697 -7.2375937 89.3346329
-5.0165296 -6.7977252 89.3435669
-111.1656418 -28.9793816 84.9727173
-110.1686096 -29.1257324 85.0509796
-109.2193680 -29.1800537 85.1138840
-108.2697601 -29.1718483 85.1802597
-107.3467102 -29.1242008 85.2167664
-106.5081177 -28.9826870 85.2523575
-105.6657104 -28.7707367 85.2782440
-104.8340302 -28.5047703 85.2944870
-104.0490494 -28.1741772 85.2998428
-103.3025818 -27.7878551 85.2947235
-102.5458908 -27.3310089 85.2830200
-101.8414688 -26.8042698 85.2659912
-101.1695633 -26.2593613 85.2326431
-100.5022659 -25.6441574 85.1801682
-99.8665161 -24.8768215 85.1271515
-99.2911758 -24.0562229 85.0584946
-98.7642441 -23.1508579 84.9758301
-98.2718811 -22.1102257 84.8624344
-60.9060287 -19.2652683 86.7382202
-59.9517212 -19.4255657 86.8202133
-58.9861145 -19.5120888 86.8869095
-56.3707199 -19.2237225 87.0161972
-55.5193138 -19.0119801 87.0379944
-54.7376900 -18.7406979 87.0449524
-53.9774284 -18.3622398 87.0576706
-53.1975822 -17.9579277 87.0379181
-52.4648247 -17.4920235 87.0176468
-51.7684708 -16.9340897 86.9893265
-51.1006699 -16.2377033 86.9472580
-50.4715385 -15.4510517 86.8795776
-49.8874207 -14.6167116 86.7994690
-49.3443451 -13.6290054 86.7065582
-10.5467873 -9.0068502 88.4573288
-9.6185541 -9.1666021 88.5182724
-8.7318563 -9.1873217 88.5820236
-7.8528762 -9.1383524 88.6236038
-7.0161901 -8.9845362 88.6592712
-6.2137914 -8.7518206 88.6803818
-5.4173489 -8.4399529 88.6795654
-4.6346793 -8.0047035 88.6717148
-3.9240539 -7.5211992 88.6500931
-3.2205069 -6.9291553 88.6084595
-2.5562117 -6.1418090 88.5628738
-1.8979876 -5.3502154 88.5138702
43.3548050 2.4125807 90.2234573
44.1186981 2.8531001 90.2317734
44.8544273 3.4370248 90.2034531
-111.9653625 -29.3111744 84.1092834
-110.9022980 -29.5575809 84.2017593
-109.9355774 -29.6601086 84.2796555
-109.0002670 -29.6917114 84.3432236
-108.0496063 -29.6958313 84.3931046
-107.1330795 -29.6289349 84.4402466
-106.3011246 -29.4735489 84.4753342
-105.4658508 -29.2459431 84.4933701
-104.6290283 -28.9679031 84.5065918
-103.8504181 -28.6371136 84.5126877
-103.1015015 -28.2614651 84.5149231
-102.3360138 -27.8361855 84.4897003
-101.6261902 -27.3262253 84.4796829
-100.9541702 -26.7837334 84.4497833
-100.2859726 -26.1191807 84.4127655
-99.6433563 -25.4012127 84.3512573
-99.0475769 -24.6208897 84.2917175
-98.5106354 -23.7464409 84.2068253
-98.0057602 -22.7036591 84.1054611
-97.5244370 -21.5942612 83.9909744
-61.5981979 -19.7918053 85.9147568
-60.6495171 -20.0082874 86.0112228
-59.6685257 -20.1659374 86.0806808
-58.7106819 -20.2248058 86.1471558
-56.1135292 -19.9225082 86.2798615
-55.2607269 -19.7209721 86.2861099
-54.4798012 -19.4408131 86.2934265
-53.7132263 -19.0521088 86.3092422
-52.9442520 -18.6353531 86.2964935
-52.2220497 -18.1818180 86.2803955
-51.5138855 -17.6375542 86.2542725
-50.8242912 -16.9653873 86.2038193
-50.1985970 -16.2264690 86.1616669
-49.5842781 -15.4588318 86.0840225
-49.0108719 -14.5357590 85.9982986
-48.5079041 -13.4495916 85.8915176
-11.1698074 -9.9110041 87.6809006
-10.1861429 -10.1272049 87.7737656
-9.2938213 -10.2085600 87.8502655
-8.4132242 -10.2082911 87.8974609
-7.5493436 -10.1146526 87.9452972
-6.7018538 -9.9681091 87.9746628
-5.8834033 -9.7665682 87.9836273
-5.0906262 -9.4366131 87.9917068
-4.3168192 -8.9993000 87.9876022
-3.6054115 -8.5373421 87.9738541
-2.8805010 -7.9922185 87.9377060
-2.1857839 -7.3417120 87.8878174
-1.5248432 -6.5633392 87.8338013
40.3529816 0.5005533 89.4524384
41.2361717 0.4278091 89.4908524
42.0947723 0.5006210 89.5562820
42.9311028 0.6625921 89.5927124
43.7432938 0.9050512 89.6086960
44.5442314 1.1844878 89.6037292
45.2990799 1.6240050 89.5853577
-112.8329086 -29.4768696 83.2256393
-111.7489471 -29.8084221 83.3285522
-110.7137909 -30.0068378 83.4206238
-109.7452621 -30.0971508 83.4908142
-108.7866364 -30.1504650 83.5482483
-107.8623734 -30.1365509 83.6142044
-106.9387589 -30.0478382 83.6497345
-106.1205444 -29.8736629 83.6805191
-100.7619171 -27.2012730 83.6570892
-100.1040878 -26.5519848 83.6182785
-99.4534302 -25.8594265 83.5708160
-98.8576202 -25.1057644 83.5006866
-98.3189926 -24.1964684 83.4235077
-97.7993240 -23.2134380 83.3255005
-97.3132248 -22.1317368 83.2125473
-61.3450356 -20.4548683 85.1737595
-60.4060822 -20.6485100 85.2633133
-57.6001015 -20.7900772 85.4482956
-56.7429657 -20.7058430 85.4855042
-55.8794365 -20.5134888 85.5152130
-55.0585480 -20.2329388 85.5333176
-53.4887619 -19.6417751 85.5410614
-52.7218132 -19.2369289 85.5344315
-51.9841309 -18.7758484 85.5221863
-51.2751465 -18.2354374 85.5046082
-50.5912323 -17.5844727 85.4627075
-49.9478798 -16.8871498 85.4060440
-49.3258324 -16.1390400 85.3518524
-48.7377167 -15.2933912 85.2706146
-48.2091103 -14.2274523 85.1664200
-11.8783722 -10.5742359 86.8949432
-10.8549566 -10.8702526 86.9931488
-9.8959074 -11.0402126 87.0729523
-9.0055799 -11.1029119 87.1342239
-8.1344519 -11.0674801 87.1864395
-4.0623527 -9.8254499 87.2793884
-3.3252668 -9.4220467 87.2591705
-2.5869830 -8.8883286 87.2438431
-1.8794825 -8.2823524 87.2046127
-1.2102004 -7.5434976 87.1507645
-0.5836318 -6.7229619 87.0895462
39.7932777 -0.6901223 88.7429428
40.7159157 -0.8297813 88.8164520
41.5669289 -0.8183644 88.8770065
42.4330177 -0.7384028 88.9063568
43.2657166 -0.5529621 88.9422684
44.0669060 -0.3185739 88.9660721
44.8676605 -0.0562152 88.9643936
45.6564484 0.3164668 88.9566650
46.3795509 0.8898726 88.9405365
47.0685768 1.5151894 88.8908997
-112.6125946 -29.9243622 82.4337616
-111.5700989 -30.2163773 82.5371246
-110.5405731 -30.3885975 82.6223526
-109.5889511 -30.4705448 82.6946793
