-96.6835327 -23.3312626 75.2738495
-96.3525620 -22.3568554 75.1969604
-96.1056366 -21.2853012 75.1043243
-95.9432907 -20.0318203 74.9863281
-95.8945541 -18.5347424 74.8139954
-59.6320190 -23.1704540 78.8380508
-58.4974403 -23.2503529 78.9567261
-57.4266586 -23.2416363 79.0584488
-56.4183502 -23.1374054 79.1445465
-55.4630203 -22.9749660 79.2197952
-54.5717888 -22.7528477 79.2806320
-53.7206535 -22.4583454 79.3302460
-52.8845863 -22.1178112 79.3736801
-52.1187248 -21.7336998 79.4044876
-51.3507767 -21.2986507 79.4309387
-47.0575218 -16.9292908 79.3647690
-46.5853386 -16.0718517 79.3152924
-46.1719513 -15.2033253 79.2590332
-45.8333054 -14.1977739 79.1810837
-45.5693588 -13.0927849 79.0840225
-45.3751831 -11.8272114 78.9635849
-45.2753143 -10.3852406 78.8139038
-10.6003256 -14.0236511 82.5630569
-9.4491863 -14.1547775 82.6873703
-8.4451227 -14.1822176 82.7943954
-3.9692299 -13.2362108 83.1253357
-3.1713200 -12.8719501 83.1592636
-2.4508452 -12.4602938 83.1806793
-1.7532077 -11.9823437 83.2002411
2.3518970 -7.4271350 83.0919189
2.7485769 -6.4699640 83.0230331
3.0723360 -5.4511552 82.9488525
3.3758919 -4.3559089 82.8438568
3.6441441 -3.0936973 82.7381973
39.5247955 -3.6047304 86.2691116
40.5963974 -3.7154739 86.3698196
41.5650215 -3.7187028 86.4779587
42.4894676 -3.6324954 86.5571289
43.3563805 -3.4575601 86.6409378
44.2339020 -3.2567530 86.6821442
45.0084000 -2.9814911 86.7309036
45.7696953 -2.6321008 86.7671661
47.9262886 -1.3279974 86.8164902
48.5691948 -0.7804877 86.8191910
49.1616974 -0.1394386 86.8133087
49.7029114 0.5423733 86.7858734
50.2137642 1.3281840 86.7544556
50.6808434 2.1782327 86.6939545
51.0715370 3.1404669 86.6281509
51.4069519 4.2236109 86.5543747
92.0556107 9.2459126 89.8955612
93.5680161 9.8675165 89.9826279
94.2750854 10.3023481 90.0019989
94.9230194 10.8236647 90.0174637
-108.6819611 -30.9750195 74.0618515
-107.5722275 -30.9343643 74.1741791
-106.4641190 -30.8501377 74.2750778
-105.4772263 -30.6883183 74.3534012
-102.8320313 -29.7447414 74.5118256
-102.0722885 -29.3134499 74.5257263
-101.3041992 -28.8565922 74.5570526
-100.5942993 -28.3418045 74.5577927
-96.8555450 -23.1200581 74.3510742
-96.5349884 -22.1523323 74.2768097
-96.3020782 -21.0428753 74.1675491
-96.1719589 -19.7065754 74.0353088
-59.6204948 -23.2234364 77.9828568
-58.4801979 -23.2894573 78.1030579
-57.4046593 -23.2815990 78.2067490
-56.4040489 -23.1806946 78.2907486
-55.4427872 -23.0223751 78.3678741
-54.5427322 -22.8111763 78.4328461
-53.6658249 -22.5251179 78.4865417
-52.8247566 -22.1778049 78.5311279
-52.0562363 -21.7945709 78.5610580
-51.3000183 -21.3650913 78.5867310
-47.0174103 -16.9889355 78.5162277
-46.5400505 -16.1412506 78.4677124
-46.1394730 -15.2709923 78.4132996
-45.8026886 -14.2325306 78.3278656
-45.5201035 -13.1498909 78.2371063
-45.3204651 -11.9300919 78.1206741
-45.2393951 -10.4619503 77.9663467
-9.2495565 -14.4692392 81.9116592
-8.2216225 -14.4907284 82.0127792
-3.7662067 -13.5289574 82.3386383
-2.9808588 -13.1637659 82.3737640
-2.2657983 -12.7479582 82.4010162
-1.5587200 -12.2814341 82.4157944
2.5592558 -7.7405553 82.3127594
2.9799523 -6.8151693 82.2489471
3.3102553 -5.8319368 82.1722565
3.6119585 -4.7163210 82.0794907
3.8810852 -3.4878378 81.9619293
39.9538422 -4.2874789 85.5651550
40.9664421 -4.3531532 85.6779556
41.9670143 -4.3435330 85.7626114
42.8634987 -4.2345166 85.8390884
43.7257385 -4.0526829 85.9128952
44.5758057 -3.8289878 85.9571152
45.3577385 -3.5535042 86.0034485
46.1196289 -3.2039442 86.0384903
48.2303619 -1.8475530 86.1099930
48.8869324 -1.3177923 86.1067047
49.4958534 -0.7191394 86.0996780
50.0627022 -0.0652599 86.0785599
50.5876617 0.6810752 86.0477371
51.0716667 1.5318258 86.0019608
51.4857864 2.4377310 85.9364243
51.8367004 3.4736848 85.8530731
52.1346169 4.6802993 85.7636642
91.0076370 7.7153444 89.1966476
91.9234085 7.7816415 89.2670059
92.7297745 7.9890761 89.3324814
93.4852524 8.2570572 89.3794708
94.2417984 8.6068020 89.4107285
94.9575272 9.0300951 89.4233246
95.5896149 9.5668125 89.4319992
96.1800995 10.1678085 89.4121475
-107.7816620 -30.6460991 73.2466125
-106.7103958 -30.5716877 73.3380661
-105.6885223 -30.4374561 73.4242249
-104.7554321 -30.2052975 73.4891968
-103.8675995 -29.8925133 73.5338821
-103.0185623 -29.5235462 73.5805206
-102.2544250 -29.1059189 73.6003876
-101.4883499 -28.6486435 73.6360321
-100.7839508 -28.1183968 73.6378250
-100.1045380 -27.5402851 73.6465378
-99.4966278 -26.9322281 73.6352921
-98.9129715 -26.2243099 73.6177750
-98.3832016 -25.4753551 73.5737610
-97.9090881 -24.6742268 73.5353470
-97.4711304 -23.7629566 73.4645844
-97.0868454 -22.8503838 73.4158554
-96.7809067 -21.8354321 73.3295364
-96.5692978 -20.7101116 73.2301178
-96.4708328 -19.3500843 73.0818253
-58.4806671 -23.2797108 77.2418213
-57.4068260 -23.2762165 77.3488541
-56.3847961 -23.1803970 77.4350891
-47.0045929 -16.9998817 77.6624146
-46.5385284 -16.1567001 77.6127243
-46.1454620 -15.2456427 77.5509109
-45.8111076 -14.2325659 77.4676208
-45.5258522 -13.1373348 77.3735046
-45.3365440 -11.9043560 77.2541656
-45.2697601 -10.4053783 77.0959320
-10.1922398 -14.6290083 81.0015182
-9.0887423 -14.7212334 81.1193161
-8.0590239 -14.7391500 81.2213593
3.5184662 -6.1151528 81.3949051
3.8260739 -5.0383768 81.3013229
4.0916014 -3.8005707 81.1865616
4.2728653 -2.3729978 81.0496140
39.2654762 -4.7346907 84.7391891
40.3207664 -4.8673406 84.8467026
41.3116760 -4.9060163 84.9577713
42.2623482 -4.8638506 85.0465469
43.1757011 -4.7548990 85.1146469
50.9086685 0.1543728 85.3226547
51.4066887 0.9757077 85.2858505
51.8469315 1.8388928 85.2280121
52.2260094 2.8283045 85.1520157
52.5321503 3.9806151 85.0537033
90.7064133 6.5841007 88.4968033
91.5742035 6.6364732 88.5885010
92.4290619 6.7938099 88.6646652
93.2630463 6.9951539 88.7128372
94.0279846 7.2646260 88.7564316
94.7774124 7.6253061 88.7899475
95.4791260 8.0498991 88.8059616
96.1320343 8.5412350 88.8136749
96.7482224 9.1153364 88.8067856
-108.1357956 -30.2318516 72.2634048
-107.0018845 -30.1943779 72.3923035
-105.9563293 -30.0959148 72.4787064
-105.0152054 -29.8862953 72.5426788
-104.0998840 -29.5975475 72.6034470
-103.2552719 -29.2347221 72.6426468
-102.4729843 -28.8255100 72.6725616
-101.7188187 -28.3680763 72.6996002
-100.9973602 -27.8234634 72.6963196
-100.3293610 -27.2547417 72.7109985
-99.7540665 -26.6231232 72.6843719
-99.1745529 -25.9106102 72.6588516
-98.6207657 -25.1800194 72.6528168
-98.1515274 -24.3738499 72.6018982
-97.7316818 -23.4584522 72.5380020
-97.3753815 -22.4710884 72.4549103
-97.1059723 -21.4412899 72.3751450
-96.9538956 -20.2235374 72.2476044
-58.5459595 -23.2043457 76.3683243
-57.4577675 -23.2095108 76.4763947
-56.4286461 -23.1275005 76.5660248
-47.0331993 -16.9543877 76.7968597
-46.5751038 -16.0839081 76.7433014
-46.1882820 -15.1827040 76.6809845
-45.8481140 -14.1916618 76.6037140
-45.5736809 -13.0680351 76.5020676
-45.3947296 -11.7924156 76.3736115
-45.3443756 -10.3096514 76.2173843
-10.0409689 -14.8294344 80.2008057
-8.9559460 -14.9217148 80.3195038
-7.9571214 -14.9280453 80.4193420
3.6950710 -6.3846307 80.6005249
4.0115008 -5.2989397 80.5112762
4.2603364 -4.0745206 80.3950958
4.4384584 -2.6463876 80.2560883
39.5952225 -5.2474966 84.0115967
40.6087914 -5.3484092 84.1254349
41.6090546 -5.3762207 84.2259827
42.5488663 -5.3198647 84.3140945
43.4313126 -5.1950560 84.3796844
51.1764870 -0.2728558 84.5998459
51.6885796 0.4941077 84.5538406
52.1459770 1.3331614 84.5065842
52.5437698 2.2840612 84.4360428
52.8727417 3.3966837 84.3397903
53.1333542 4.6337910 84.2265625
91.1918869 5.6545029 87.8626175
92.0654144 5.7450194 87.9379730
92.9162903 5.9177990 88.0048828
93.7225418 6.1375790 88.0596695
94.4648132 6.4275222 88.1025238
95.2115936 6.8112879 88.1285629
95.9032745 7.2689276 88.1636581
96.5805130 7.7312241 88.1685562
97.2200165 8.2472172 88.1624680
97.8246231 8.8760166 88.1502914
98.3660812 9.5594902 88.1209183
98.8674927 10.3618002 88.0750351
99.3076019 11.3538332 88.0214996
99.7037430 12.3938684 87.9732666
-106.3016968 -29.6548138 71.5197983
-105.3427048 -29.4770145 71.5845108
-104.4258728 -29.1977615 71.6473007
-103.5726471 -28.8385487 71.6805344
-102.7595444 -28.4617844 71.7331619
-102.0037994 -28.0026150 71.7557068
-101.2945480 -27.4556942 71.7650452
-100.6597977 -26.8693752 71.7676392
-100.0612411 -26.2236824 71.7401428
-99.4638214 -25.5387154 71.7181396
-98.9304810 -24.7836037 71.6797409
-98.4692993 -23.9623222 71.6397095
-98.0796814 -23.0280247 71.5676270
-97.7615814 -21.9815807 71.4756012
-97.5490646 -20.8741741 71.3737335
-58.6527176 -23.0669937 75.4797821
-57.5431976 -23.0848980 75.5969238
-56.4997177 -23.0148144 75.6925201
-48.1760178 -18.3617573 75.9865341
-47.6251564 -17.6509247 75.9644165
-46.2680893 -15.0605612 75.7997742
-45.9335213 -14.0778904 75.7254562
-45.6741524 -12.9486542 75.6217499
-45.5071602 -11.6650963 75.4959564
-9.9394817 -14.9790039 79.3920746
0.8168725 -11.2554541 80.0367584
1.4165308 -10.6205521 80.0233612
3.8181181 -6.5615897 79.8014069
4.1307507 -5.4699025 79.7079315
4.3826218 -4.2569838 79.5951385
4.5564594 -2.8405225 79.4521027
39.8543663 -5.6768532 83.2709808
40.8852310 -5.7677336 83.3818741
41.8756485 -5.7842369 83.4824448
47.6238403 -4.0528612 83.8633957
48.3444405 -3.6408613 83.8726730
49.0041847 -3.1568990 83.8937531
49.6643677 -2.6110029 83.8917618
52.4007835 0.9076286 83.7726135
52.8120461 1.8527224 83.7034073
53.1567383 2.9088390 83.6183929
53.4413567 4.1107903 83.5058136
53.6647949 5.4751248 83.3759842
89.7175369 4.9487147 86.9915237
90.7008972 4.8690300 87.1147003
91.6135864 4.8985190 87.2064438
92.4637604 5.0068231 87.2755432
94.8494110 5.7364345 87.4221497
95.5788879 6.1238146 87.4626465
96.3062820 6.5497999 87.4824371
96.9677887 6.9946542 87.4972382
97.6062698 7.5186224 87.5027237
98.2381363 8.1117659 87.4863358
98.7974548 8.7712879 87.4735794
99.3132935 9.5221262 87.4349976
99.7823029 10.4461870 87.3852463
100.2152939 11.3688936 87.3081894
-105.8271942 -28.8838997 70.5742111
-104.8843689 -28.6366730 70.6396027
-104.0064545 -28.3131714 70.6793442
-103.2194138 -27.9177341 70.7136307
-102.4701309 -27.4454765 70.7346268
-101.7576599 -26.9158726 70.7333832
-100.4400864 -25.7545986 70.7493210
-99.8346710 -25.0778236 70.7504959
-99.3301697 -24.2809887 70.7002182
-98.9032135 -23.4363174 70.6468887
-98.5409012 -22.4408417 70.5640793
-98.2637711 -21.3676910 70.4784393
-98.1100922 -20.1786690 70.3673706
-58.8088531 -22.8638706 74.5754395
-57.6844482 -22.8882732 74.7027359
-56.6543274 -22.8302383 74.7923050
-48.2809677 -18.2015667 75.1007462
-47.7401695 -17.4675312 75.0585861
-46.3926468 -14.8761673 74.9020081
-46.0757828 -13.8567200 74.8196106
-45.8337593 -12.7247620 74.7182617
-45.6914444 -11.3683634 74.5758209
-9.8889446 -15.0678892 78.5716171
0.8905697 -11.3769760 79.2248230
1.4923755 -10.7182178 79.2094803
3.8753161 -6.6351180 78.9805679
4.1889787 -5.5518727 78.8875885
4.4569998 -4.3660908 78.7806549
4.6167660 -2.9539900 78.6346130
40.0520096 -6.0266266 82.5214462
41.0666695 -6.1060586 82.6325073
42.0723114 -6.1188693 82.7299347
47.8195381 -4.3790936 83.1091843
48.5312462 -3.9468153 83.1263428
49.1884308 -3.4625146 83.1440048
49.8534775 -2.9382143 83.1447754
52.6207237 0.5450582 83.0215149
53.0386963 1.4638690 82.9598236
53.4087982 2.4749489 82.8787460
53.7186241 3.6340787 82.7760696
53.9475822 4.9443212 82.6464310
90.0949860 4.2312813 86.3428574
91.0824280 4.1886992 86.4381943
91.9776993 4.2533588 86.5200500
92.8038101 4.3913269 86.5965500
95.1857300 5.1421242 86.7558823
95.9366608 5.4930892 86.7745514
96.6547241 5.8983364 86.7978287
97.3120270 6.3779140 86.8178406
97.9211884 6.9004045 86.8244553
98.5642319 7.4771261 86.8092270
99.1392365 8.1185236 86.8055878
99.6911163 8.8261318 86.7674713
100.1961823 9.6738253 86.7160873
100.6331787 10.6086292 86.6641235
101.0170364 11.5795670 86.5893631
142.5454254 18.6274433 89.9555359
-106.3874664 -28.2125664 69.5650482
-105.3768082 -28.0089855 69.6617432
-104.4668121 -27.7196617 69.7186737
-103.7060623 -27.3109608 69.7136002
-102.9233627 -26.8834534 69.7556839
-102.1562271 -26.3931522 69.7929611
-101.4913559 -25.8364010 69.7898941
-100.8725128 -25.2064533 69.7753677
-100.3262329 -24.4562206 69.7304382
-99.8274307 -23.6619816 69.7065811
-99.4353333 -22.7535839 69.6348801
-99.1343079 -21.7044659 69.5458603
-98.9252167 -20.5541325 69.4346313
-57.9009857 -22.6255398 73.7870865
-56.8167534 -22.5850697 73.8966064
-55.8451958 -22.4701672 73.9750977
-54.9293976 -22.2758904 74.0418320
-54.0603256 -22.0161743 74.0946808
-53.2044945 -21.7088566 74.1518707
-52.3958969 -21.3366585 74.1813126
-51.6260567 -20.9064579 74.2169724
-50.8985176 -20.4351330 74.2428360
-50.2401543 -19.9028606 74.2395859
-49.6037445 -19.3151226 74.2399139
-48.9961395 -18.6667271 74.2046204
-48.4254150 -18.0059795 74.2149582
-47.8991356 -17.2615147 74.1710739
-47.3867645 -16.4644470 74.1348877
-46.9292984 -15.5912809 74.0871277
-46.5704079 -14.6510820 74.0127869
-46.2742233 -13.5924644 73.9120789
-46.0588264 -12.4052563 73.8053360
-9.8724289 -15.0874596 77.7396698
-8.7569275 -15.1881838 77.8639526
-7.7611094 -15.1959677 77.9625320
-4.9527659 -14.7776289 78.1962662
-4.1233048 -14.5164423 78.2502136
-1.7615100 -13.4809608 78.3681107
-1.0398653 -13.0355854 78.3904495
4.4876413 -4.3809638 77.9481888
4.6455531 -2.9680398 77.8019867
39.1870728 -6.2032580 81.6456375
40.2765274 -6.3372540 81.7618408
47.9908714 -4.6419778 82.3477097
48.6947289 -4.2142630 82.3653564
52.7920151 0.2377872 82.2656174
53.2286530 1.1345506 82.2064362
53.6221504 2.1486855 82.1312866
53.9462624 3.2804790 82.0328979
54.1861725 4.5061545 81.9077377
89.4729156 3.6969535 85.5458221
90.4335632 3.6182256 85.6577148
91.3975754 3.6183753 85.7504730
96.9410553 5.3571467 86.1073532
97.5911255 5.8202372 86.1205750
98.2211990 6.3267093 86.1285477
98.8739777 6.9082689 86.1277161
99.4675980 7.5232830 86.1092453
100.0149384 8.2087116 86.0866241
100.5424728 9.0309010 86.0531235
101.0132599 9.8728285 85.9892349
101.4118576 10.8302774 85.9219360
101.7497787 11.9000835 85.8362656
140.9226532 16.3991280 89.2320633
143.2077789 17.1727905 89.3974609
145.1672974 18.7177315 89.4064865
145.6897736 19.4307804 89.3671875
146.1772614 20.3089790 89.3620148
-105.0620956 -26.9844456 68.7020721
-104.2456665 -26.6331291 68.7276993
-103.4405289 -26.2139473 68.7518158
-102.6955643 -25.7190170 68.7716751
-102.0448532 -25.1173553 68.7605667
-101.4714432 -24.4459286 68.7405701
-100.9698715 -23.6519794 68.6897354
-100.5204315 -22.7959538 68.6492081
-100.1814041 -21.8289700 68.5737991
-58.1560974 -22.3045368 72.8483276
-57.0649796 -22.2667141 72.9727325
-56.0738640 -22.1664543 73.0623016
-55.1431580 -21.9917469 73.1340637
-54.2467270 -21.7523327 73.1937485
-53.3731117 -21.4550724 73.2537689
-52.5788345 -21.0988331 73.2898483
-51.8004456 -20.6793232 73.3193741
-51.0746994 -20.1834679 73.3346176
-50.4191360 -19.6582260 73.3345184
-49.7773132 -19.1038742 73.3530045
-49.1650505 -18.4447823 73.3189774
-48.6068192 -17.7552299 73.3041534
-48.0865746 -16.9898338 73.2536392
-47.5870399 -16.1691113 73.2140350
-47.1608505 -15.2649736 73.1542282
-46.8083191 -14.3030281 73.0792465
-46.5404358 -13.2295256 72.9848862
-46.3783112 -11.9384165 72.8480988
-9.9005499 -15.0473328 76.8958664
-8.7827625 -15.1630659 77.0220490
-7.7571201 -15.1862679 77.1282654
-4.9675131 -14.7507763 77.3581848
-4.1277337 -14.5031109 77.4154816
-1.7613106 -13.4801683 77.5357208
-1.0381012 -13.0455484 77.5563049
4.4727616 -4.3557739 77.1109848
4.6265359 -2.9013431 76.9554901
40.4102287 -6.5865231 80.9962006
48.1489563 -4.8860846 81.5772095
48.8355904 -4.4588757 81.6017990
52.9436989 0.0047201 81.4985580
53.3879738 0.8689580 81.4423141
53.7939186 1.8788962 81.3673248
54.1254730 2.9966023 81.2731171
54.3773537 4.2131834 81.1541901
89.7740555 3.1376359 84.8524399
90.7367096 3.0814185 84.9600449
91.6679306 3.1048794 85.0479355
97.2002029 4.8744860 85.4041977
97.8687515 5.3209844 85.4184570
98.5147095 5.8161759 85.4283905
99.1495819 6.3958807 85.4255676
99.7440643 7.0096598 85.4100952
100.3005142 7.6897144 85.3943939
100.8383636 8.4449348 85.3585739
101.3308334 9.2573061 85.3090591
101.7525711 10.1806536 85.2461472
102.1132431 11.2309608 85.1560135
139.7301636 15.1622772 88.5180359
140.6401672 15.1500893 88.6020126
141.4921570 15.2210207 88.6634521
142.2424011 15.4325571 88.7310486
143.0425110 15.6749115 88.7723389
143.7777557 16.0196285 88.8073425
144.4531097 16.4438438 88.8277435
145.1200104 16.9310932 88.8504410
145.7608032 17.4556446 88.8471909
146.3256226 18.0723000 88.8249969
146.8559265 18.8092213 88.7901764
-102.8821793 -24.1066322 67.6876831
-102.3043365 -23.4444447 67.6765518
-101.8125305 -22.6109371 67.6111221
-57.3850632 -21.8744202 72.0164490
-56.3654709 -21.7708092 72.1292038
-55.4285049 -21.6192379 72.1995316
-52.8110123 -20.7759171 72.3688049
-52.0441437 -20.3517151 72.3905411
-50.0088806 -18.7694378 72.4218445
-49.3995171 -18.1236267 72.4112778
-48.8530350 -17.4197273 72.3790359
-48.3289795 -16.6477871 72.3424149
-47.8671837 -15.8179731 72.2991486
-47.4525299 -14.8421755 72.2144012
-47.1188660 -13.8843861 72.1471634
-9.9731836 -14.9416008 76.0437012
-8.8372717 -15.0796232 76.1757584
-7.8248777 -15.1101494 76.2769928
-6.8413315 -15.0423870 76.3692169
-5.8914294 -14.9014902 76.4511490
-5.0136409 -14.7028847 76.5126572
-4.1726942 -14.4658670 76.5692291
0.9089737 -11.4062357 76.7347946
1.4990066 -10.7431908 76.7149429
3.0370359 -8.4506760 76.6044312
3.4806783 -7.5508618 76.5447006
4.4061937 -4.2555614 76.2536545
4.5458140 -2.7578905 76.0884018
39.4595413 -6.6173596 80.0914001
40.5453072 -6.7691331 80.2184677
45.1558914 -6.3673759 80.6408691
45.9669952 -6.0968132 80.6921844
54.5095177 4.0085921 80.3816299
89.0556870 2.7873144 84.0363083
90.0500946 2.6534956 84.1468201
98.7568283 5.4002433 84.7122498
99.3661575 5.9813671 84.7163239
99.9605179 6.5824952 84.6974106
100.5340118 7.2313390 84.6784973
101.0911026 7.9656444 84.6508255
101.5919189 8.7640076 84.6084442
102.0326462 9.6547461 84.5537415
102.4135132 10.6486311 84.4699860
102.7587738 11.8021994 84.3791275
139.3095398 14.1887512 87.8144684
140.2353973 14.1130838 87.9067612
141.1232300 14.1434021 87.9972153
141.9192352 14.2788382 88.0653610
142.6714478 14.4932861 88.1333542
143.5069275 14.7142906 88.1647797
145.6130066 15.8733101 88.2439041
146.2411194 16.4130249 88.2564468
146.8183136 17.0207996 88.2414932
147.3651733 17.7179012 88.2016602
147.8756866 18.5466194 88.1640320
-56.7232056 -21.2862968 71.1715927
-55.7614632 -21.1549549 71.2499237
-53.1172714 -20.3683357 71.4299622
-52.3397064 -19.9388447 71.4615784
-50.3200989 -18.3482666 71.4789886
-49.7224693 -17.6723251 71.4490891
-49.1643829 -16.9729156 71.4359207
-48.6595573 -16.2092037 71.4006653
-48.2108994 -15.3274174 71.3438950
-47.8250198 -14.3470659 71.2662659
-8.9258652 -14.9082260 75.3138199
-7.9138789 -14.9650097 75.4173431
-6.9269319 -14.9169025 75.5135880
-5.9524555 -14.7940903 75.5973969
-5.0598888 -14.6174650 75.6710663
-4.2165880 -14.3730545 75.7244797
0.8638167 -11.3250761 75.8910446
1.4467999 -10.6458597 75.8639603
2.9700603 -8.3411055 75.7511978
3.4032054 -7.4310598 75.6914139
4.2944665 -4.1127191 75.3964691
39.5427094 -6.7484665 79.3026657
40.6057281 -6.8829575 79.4271011
45.2396049 -6.4996099 79.8553162
46.0525856 -6.2326050 79.9076004
54.6022568 3.8569653 79.5979462
54.7826424 5.3924561 79.4363022
89.2836761 2.3759618 83.3143616
90.2547150 2.2538719 83.4319458
98.9407883 5.0264101 83.9869919
99.5649643 5.6046453 83.9881668
100.1653900 6.2091203 83.9831009
100.7466660 6.8558884 83.9711075
101.2992401 7.5724840 83.9398270
101.8192978 8.3565626 83.8974533
102.2695389 9.1832256 83.8437347
102.6765518 10.1505413 83.7711334
103.0231323 11.2453957 83.6743088
138.7896729 13.4059687 87.0829010
139.7524872 13.2758169 87.1904297
140.6606903 13.2507229 87.2922592
141.5212708 13.3078775 87.3691406
142.3090668 13.4691286 87.4404602
143.1016083 13.6657372 87.4924011
143.8867493 13.8990269 87.5314789
145.9960327 15.0697927 87.6288986
146.6266327 15.5941162 87.6283569
147.2070465 16.1925564 87.6274490
147.8018799 16.8252754 87.5933762
148.3558044 17.5721722 87.5600662
-56.1709671 -20.6056881 70.2941284
-55.1987648 -20.4540157 70.3767548
-54.3165817 -20.1952095 70.4272919
-53.4925423 -19.8721771 70.4803772
-52.7253990 -19.4524422 70.5044708
-51.9848824 -18.9650879 70.5259323
-51.3046417 -18.4413223 70.5359955
-50.6728477 -17.8499966 70.5338821
-50.0950241 -17.1718903 70.4948273
-49.5429039 -16.4641361 70.4860382
-49.0686760 -15.6248894 70.4230194
-48.6615028 -14.6978378 70.3558350
-48.3024788 -13.6806602 70.2810287
-9.0739012 -14.6909628 74.4386139
-8.0436039 -14.7704973 74.5470963
-7.0497279 -14.7409372 74.6393967
-6.0732336 -14.6381702 74.7288513
-5.1717405 -14.4606800 74.8020554
-4.3350949 -14.2038031 74.8579330
-0.4916995 -12.2833881 75.0255737
0.1547390 -11.7624512 75.0359573
1.8974186 -9.7816792 74.9806366
2.3947437 -9.0305052 74.9444809
2.8673816 -8.1743784 74.8947067
3.2806718 -7.2142391 74.8115921
3.6243079 -6.2244544 74.7322845
3.9237289 -5.1353669 74.6412659
4.1254749 -3.8149464 74.5047073
39.6035233 -6.8290920 78.5064926
40.6660576 -6.9563808 78.6314926
45.3092422 -6.6015043 79.0664215
46.1305084 -6.3367853 79.1192245
54.6721268 3.7444665 78.8075333
54.8467979 5.3242917 78.6375427
88.4327545 2.2203622 82.4607544
89.4835587 2.0146198 82.5888290
90.4429321 1.9171404 82.7016068
97.7986908 3.7646840 83.2392883
98.4541702 4.2232695 83.2585373
99.1082230 4.7143478 83.2601089
99.7504578 5.2693229 83.2668762
100.3615570 5.8459220 83.2534943
100.9438095 6.4853549 83.2351227
103.2520599 10.8384981 82.9637070
103.5760956 12.0633335 82.8595123
139.1899261 12.5872192 86.4554901
141.8825836 12.5880938 86.7247925
142.6728210 12.7544098 86.7910080
144.9346771 13.5545530 86.9356842
145.6471863 13.9050360 86.9546127
146.3292999 14.3469086 86.9696732
146.9604187 14.8843126 86.9745026
147.5314331 15.4782915 86.9885025
148.1432037 16.0788383 86.9587784
148.7204437 16.7805958 86.9284973
149.2164764 17.6190033 86.8871765
149.6629333 18.5229149 86.8190079
150.0742493 19.6226425 86.7457352
-54.7949715 -19.5262299 69.4529495
-53.9702148 -19.2235851 69.4905777
-53.1679649 -18.8384876 69.5277863
-52.4312782 -18.3638058 69.5405426
-51.7565689 -17.8463821 69.5471573
-51.1303596 -17.2539330 69.5432892
-50.5532379 -16.5636387 69.5223389
-50.0318794 -15.7712479 69.4791870
-49.5951881 -14.9212894 69.4372635
-49.2175026 -13.9394302 69.3546600
-8.2393188 -14.5015059 73.6567459
-7.1932654 -14.5061817 73.7721558
-6.2059002 -14.4135160 73.8617477
-5.3223138 -14.2194033 73.9259109
-4.4878201 -13.9682350 73.9748688
-0.6353463 -12.0990105 74.1527100
0.0169127 -11.5582180 74.1602707
1.7678100 -9.5720549 74.1016464
2.2512922 -8.8091831 74.0699539
2.7100813 -7.9352956 74.0104675
3.1036260 -6.9796600 73.9346695
3.4445791 -5.9587426 73.8518753
3.7149360 -4.7986245 73.7420654
39.5980110 -6.8448286 77.6940689
40.6664925 -6.9710569 77.8216553
45.3321915 -6.6418333 78.2625427
46.1643715 -6.3869705 78.3212280
54.6985092 3.6708939 78.0115051
54.8680534 5.2651119 77.8322830
88.6066895 1.9022558 81.7231674
89.6579437 1.7144637 81.8534698
90.6108627 1.6366900 81.9652023
97.9503784 3.4901609 82.4978180
98.6103821 3.9369280 82.5210190
99.2771988 4.4171095 82.5272293
99.9196930 4.9562860 82.5317078
100.5217743 5.5436869 82.5247116
101.0983658 6.1926255 82.5065994
103.4485474 10.4777222 82.2392654
103.7598267 11.6773138 82.1301041
138.5726013 12.0260496 85.6884689
139.5429840 11.8903418 85.7991333
142.1650085 11.9614944 86.0713959
142.9506531 12.1413336 86.1295090
145.2228851 12.9497747 86.2681961
145.9173431 13.3198328 86.3049164
146.6105347 13.7670078 86.3201828
147.2527313 14.2640123 86.3141403
147.8404846 14.8197012 86.3165054
148.4391632 15.4427233 86.3186722
149.0345306 16.1180248 86.2850876
149.5686798 16.8667374 86.2429276
150.0495911 17.7221069 86.1925812
150.4859314 18.6970997 86.1177063
150.8695374 19.8239174 86.0457993
-55.4413071 -18.6765652 68.3957901
-54.5766907 -18.3958988 68.4830246
-53.7563591 -18.0308113 68.5212479
-53.0108490 -17.5687580 68.5349503
-52.3242073 -17.0598698 68.5517273
-51.7079926 -16.4792423 68.5520554
-51.1274490 -15.7503433 68.5279617
-50.6733475 -14.9142885 68.4639969
-50.2777672 -13.9830523 68.3836899
-9.5985756 -14.0056171 72.6103287
-8.4580660 -14.1566038 72.7625580
-7.4403405 -14.1656246 72.8681946
-6.4296908 -14.0985632 72.9613113
-5.5310535 -13.9263220 73.0339813
-4.6660199 -13.7040415 73.0886688
0.4616394 -10.7100697 73.2690430
1.0580661 -10.0554953 73.2677460
2.5187464 -7.6342597 73.1206894
2.9065545 -6.6648626 73.0492554
3.2204156 -5.5835762 72.9451065
3.4512234 -4.4089751 72.8330765
40.6417236 -6.9408469 77.0041275
41.6664276 -7.0161176 77.1208420
42.6503067 -7.0108247 77.2192535
46.9312592 -6.0856485 77.5532379
47.7055931 -5.7546587 77.5956039
48.4477501 -5.3677807 77.6295166
49.1324806 -4.9141054 77.6467209
49.7810402 -4.4179273 77.6535797
50.4454193 -3.8709321 77.6503677
53.2473145 -0.4678867 77.5427246
53.6981697 0.3994913 77.4845657
54.0971260 1.3818456 77.4077301
54.4320564 2.4853315 77.3126450
54.6711731 3.7605872 77.1842575
88.7345505 1.6558499 80.9808731
103.6097565 10.1676302 81.5082169
103.9397202 11.3723841 81.3988419
138.8762360 11.4138041 85.0258255
139.8285675 11.3071547 85.1380463
140.7138367 11.2719650 85.2456360
141.6296234 11.2813807 85.3225174
142.4356537 11.4194565 85.3976746
143.2314606 11.5984116 85.4544983
143.9988861 11.8194857 85.5129242
144.7637024 12.0984650 85.5630035
145.4857025 12.4176121 85.5981827
146.1885071 12.7819090 85.6226807
149.3132782 15.5517588 85.6320953
149.8567047 16.2559929 85.5960846
150.3715210 17.0430660 85.5461884
150.8330688 17.9750690 85.4863281
151.2312164 18.9998932 85.3987350
-53.1293449 -15.9516144 67.4505768
-52.5311813 -15.3174534 67.4245758
-51.9802551 -14.5981131 67.4067612
-7.7331347 -13.7464962 71.9555664
-6.6750278 -13.7275982 72.0718231
-5.7557292 -13.5885353 72.1382446
-4.8770008 -13.3882751 72.2001877
0.2616891 -10.3925924 72.3828049
0.8373522 -9.7115917 72.3628235
2.2657492 -7.2553115 72.2133560
2.6302593 -6.2375579 72.1244659
2.9228039 -5.1375084 72.0275192
40.6093102 -6.8659177 76.1826935
41.6109924 -6.9438238 76.2954636
42.6094208 -6.9604635 76.4022751
46.9058990 -6.0398817 76.7392578
47.6741791 -5.7136226 76.7820282
48.4093628 -5.3151016 76.8110580
49.0923271 -4.8483300 76.8194656
49.7431602 -4.3523140 76.8305817
50.4017105 -3.8279161 76.8410187
53.2261429 -0.4177077 76.7253189
53.6695366 0.4758391 76.6612854
54.0489311 1.4529101 76.5872803
54.3689156 2.5893865 76.4803543
54.6121407 3.8731825 76.3537064
87.7356873 1.7333289 80.0781479
88.8514328 1.4766954 80.2240906
103.7352982 9.9485216 80.7632141
104.0700912 11.0967178 80.6580887
104.3394165 12.5305052 80.5175629
138.1749573 11.0445242 84.2332687
139.1219177 10.8878422 84.3582687
140.0517883 10.7984829 84.4663010
140.9717407 10.7560244 84.5563660
141.8372803 10.8344898 84.6431122
142.6442566 10.9732180 84.7155838
143.4594879 11.1298580 84.7797394
144.2329865 11.3379192 84.8275604
144.9729156 11.6314516 84.8783035
145.7200928 11.9510050 84.9090271
146.4270630 12.2969036 84.9442902
149.5476227 15.0191231 84.9386597
150.0940399 15.7351694 84.9187469
150.6254730 16.4939346 84.8783569
151.1136017 17.3691235 84.8250198
151.5422974 18.3307686 84.7545624
-8.0703735 -13.2625494 71.0050201
-6.9939995 -13.2636194 71.1446228
-6.0339394 -13.1573200 71.2280197
-5.1468062 -12.9789801 71.2910385
-2.6805580 -12.0711107 71.4454498
-1.9554811 -11.6381426 71.4665833
1.0552291 -8.4948921 71.3931427
1.5199211 -7.6701283 71.3318100
1.9507111 -6.7918372 71.3037033
2.2852211 -5.7146020 71.2001648
40.5162849 -6.7168446 75.3403168
41.5227661 -6.8007059 75.4548798
42.5439415 -6.8374443 75.5722961
45.2320061 -6.4682379 75.8093109
46.0689850 -6.2218370 75.8662415
49.6976509 -4.2602639 76.0087051
50.3516197 -3.7341919 76.0176315
53.9577065 1.6073178 75.7513123
54.2744789 2.7681072 75.6368866
54.5232964 4.0195446 75.5177994
88.9346771 1.3428071 79.4612350
95.2869415 1.6082947 80.0984879
96.0762405 1.8679740 80.1500549
96.8196182 2.1565042 80.1924210
97.5607376 2.5139155 80.2279282
98.2707596 2.9153776 80.2535934
98.9409943 3.3447776 80.2724075
103.8319931 9.7935600 80.0067902
104.1803284 10.9348001 79.9050522
138.4005127 10.5509100 83.5502930
139.3730164 10.4064989 83.6689224
140.2919006 10.3358278 83.7778091
141.1777191 10.3494749 83.8748703
142.0144196 10.4447012 83.9522629
142.8600006 10.5649424 84.0231934
143.6609955 10.7125111 84.0832291
144.4202118 10.9415636 84.1423569
145.1630707 11.2485676 84.1930771
145.8941040 11.5451450 84.2242050
146.6265411 11.8786316 84.2526169
147.3134003 12.3082085 84.2816544
147.9650726 12.7873230 84.2889404
148.5621033 13.3062277 84.2978134
149.1628113 13.9204788 84.2817993
149.7375641 14.6196947 84.2650681
150.2857208 15.3159151 84.2325287
150.8273926 16.0505180 84.1996765
151.3439178 16.8647900 84.1476517
151.7938232 17.7739887 84.0835114
152.2057800 18.8066330 84.0140152
-7.4227695 -12.6543732 70.1554642
-6.4362106 -12.5687580 70.2726822
-5.5022259 -12.4409370 70.3577881
-3.0352359 -11.5530767 70.4983978
-2.2941115 -11.1311779 70.5317459
0.7078663 -7.9723864 70.4683838
1.1575164 -7.1395087 70.4215927
1.5282480 -6.1328568 70.3274460
40.3683472 -6.4977007 74.4755707
41.4101906 -6.5945706 74.6114426
42.4080696 -6.6331253 74.7194748
45.1142578 -6.2971597 74.9574585
45.9747505 -6.0666614 75.0257111
49.6112518 -4.1125045 75.1664810
50.2694778 -3.5815835 75.1812134
53.8388138 1.8524976 74.8907394
54.1238327 2.9998255 74.7872086
54.3510475 4.3520727 74.6441803
88.9777145 1.2625489 78.6879120
95.3566437 1.5237067 79.3306351
96.1385345 1.7745714 79.3833847
96.8893280 2.0476391 79.4299545
97.6154785 2.4041772 79.4638062
98.3299866 2.8172672 79.4883423
99.0073547 3.2441368 79.5079498
103.8956757 9.6402197 79.2468109
104.2582169 10.8049021 79.1421585
137.6107178 10.3675737 82.7329483
138.6231689 10.1399870 82.8592224
139.5683441 10.0060444 82.9796219
140.4878235 9.9444818 83.0836945
141.3531952 9.9711981 83.1702423
142.2056732 10.0590219 83.2482834
143.0239563 10.1934052 83.3292694
143.8214569 10.3529510 83.3861008
144.5968170 10.5847530 83.4344330
145.3474579 10.8840857 83.4864731
146.0809174 11.1860361 83.5278168
146.7926025 11.5322790 83.5570755
147.4786377 11.9454422 83.5788422
148.1436615 12.4130068 83.5941086
148.7642059 12.9087667 83.5886765
149.3570404 13.5252953 83.5835876
149.9326935 14.2007828 83.5615005
150.4951782 14.9005299 83.5424805
151.0398560 15.6302710 83.5216827
151.5626831 16.4016247 83.4639053
152.0211182 17.2923603 83.4118042
152.4262238 18.2916393 83.3277359
152.7527466 19.5171661 83.2103195
-5.9224954 -11.7838402 69.4114456
-5.0247860 -11.5872650 69.4769745
-4.2102547 -11.2852821 69.5187759
-3.4334285 -10.9390049 69.5620422
-2.6859112 -10.5341873 69.6012802
-2.0072014 -10.0043497 69.5965958
-1.4038309 -9.3911953 69.5484314
-0.7870888 -8.8053827 69.5773392
-0.2322714 -8.0971804 69.5545120
0.2532496 -7.2979980 69.5125580
0.6554573 -6.3581433 69.4321442
41.2389717 -6.3207564 73.7496414
42.2606163 -6.3746204 73.8662567
43.2166023 -6.3420873 73.9600525
44.1055069 -6.2438684 74.0377655
52.9265175 0.1261905 74.2009735
53.3362122 1.0491210 74.1328506
53.6631813 2.1269317 74.0353928
53.9140739 3.3662565 73.9096451
89.0108719 1.2395957 77.9090958
90.0207596 1.0721117 78.0330200
91.0019608 0.9630840 78.1533127
95.3873367 1.4608639 78.5586777
96.1676712 1.7070794 78.6101151
96.9150238 1.9959350 78.6560822
97.6479721 2.3679285 78.6881256
102.0811386 6.1437936 78.6967545
102.6139603 6.9218373 78.6571579
103.0848999 7.6970925 78.6128845
103.5318069 8.5720263 78.5542297
103.9365387 9.5868835 78.4732208
104.2914200 10.7603750 78.3641891
137.7949677 10.0131207 82.0263443
138.7799225 9.7960300 82.1571732
148.9246826 12.5910244 82.8931808
149.5284882 13.1713734 82.8885880
150.1241150 13.8151274 82.8708954
150.6920776 14.4749517 82.8459244
152.2330475 16.8737297 82.7234268
152.6360779 17.8487015 82.6440964
152.9783325 19.0301590 82.5309601
153.2835846 20.4928741 82.3979950
-3.9664235 -10.1514473 68.5592270
-3.2173078 -9.7545605 68.6070175
-2.5266790 -9.2284451 68.6084824
-1.8956478 -8.6544361 68.6107635
-1.3033582 -8.0087633 68.5834503
40.9952011 -5.9518495 72.8586731
42.0675926 -6.0483665 72.9966049
43.0146866 -6.0332880 73.0810318
43.9609222 -5.9606767 73.1893616
52.7420692 0.4287314 73.3342667
53.1293411 1.3868496 73.2584763
53.4289017 2.5196419 73.1488800
53.6552048 3.8425300 73.0035477
88.9615173 1.2798632 77.1073914
89.9967728 1.0984617 77.2404175
91.0003281 0.9732242 77.3637848
95.3768539 1.4538765 77.7719727
96.1601639 1.7096854 77.8237762
96.9004211 2.0145633 77.8704453
97.6295700 2.3782206 77.8980484
102.1196365 6.1248856 77.9199448
102.6337357 6.8835998 77.8833313
103.1081314 7.6932454 77.8291626
103.5423279 8.5802526 77.7701340
103.9421234 9.6000700 77.6881256
104.2914200 10.7671061 77.5768890
137.9703674 9.6944780 81.3169479
138.9281769 9.5000420 81.4456787
149.0532532 12.3140831 82.1852798
149.6645660 12.8743477 82.1786957
150.2760010 13.5058556 82.1687241
150.8543854 14.1503534 82.1488724
152.3907166 16.5187149 82.0206909
152.8027344 17.4944935 81.9470062
153.1676483 18.6344757 81.8420563
153.4908142 20.0339527 81.7104340
-3.8742490 -8.7773352 67.5619431
-3.2037847 -8.2303209 67.5771637
40.7147942 -5.4755630 71.9664307
41.8149910 -5.6250114 72.1089783
42.7923470 -5.6458359 72.2047729
43.7241440 -5.5937433 72.3008804
44.6212883 -5.4654107 72.3794937
45.4820404 -5.2609553 72.4456787
50.4383240 -2.2202153 72.6012421
51.0145149 -1.5718737 72.5846710
51.5648422 -0.8420069 72.5590744
52.0743065 -0.0301520 72.5118408
52.5048904 0.8512400 72.4413834
52.8660202 1.8360442 72.3686523
53.1463432 2.9993010 72.2563248
88.9291077 1.3615484 76.3090668
89.9774704 1.1673391 76.4473953
90.9554062 1.0406303 76.5648804
93.6941986 1.1293797 76.8503418
94.5394669 1.2844919 76.9246368
95.3669891 1.4999726 76.9862595
96.1265869 1.7679592 77.0276184
96.8641815 2.0755055 77.0708847
97.6248398 2.4248765 77.1102753
99.7020416 3.6896868 77.1794586
100.3453217 4.2173452 77.1833954
100.9437256 4.8027649 77.1712265
101.5172119 5.4221730 77.1664276
103.9165115 9.6708145 76.8911285
104.2546844 10.8227320 76.7811661
138.0958557 9.4481592 80.5981369
139.0518494 9.2609587 80.7262192
149.1698914 12.0556288 81.4676132
149.7866974 12.6256027 81.4659500
153.3281250 18.3209362 81.1377640
153.6577148 19.6493282 81.0082626
40.3508110 -4.8695359 71.0376892
41.4696960 -5.0790505 71.1913452
42.4889565 -5.1474366 71.3052368
43.4628448 -5.1335368 71.4107971
44.3690605 -5.0343828 71.4878006
45.2382050 -4.8492384 71.5718002
50.2058792 -1.8254045 71.7230835
50.7679291 -1.1481097 71.6902542
51.2968979 -0.3993697 71.6561127
51.7956886 0.4496645 71.6153030
52.2023354 1.3923142 71.5362701
52.5337715 2.4259048 71.4463577
88.8066330 1.5300493 75.4709549
89.8986893 1.3093269 75.6300507
90.8995590 1.1629727 75.7562943
93.6361008 1.2586024 76.0344315
94.4839020 1.4019958 76.1137543
95.3126678 1.6050109 76.1796570
96.0883408 1.8677771 76.2336960
96.8393784 2.1606255 76.2716827
97.5988846 2.4931788 76.3179932
99.6550598 3.7705221 76.3852539
100.2997360 4.3186779 76.3797684
100.8842697 4.8989811 76.3667145
101.4741364 5.5434160 76.3510666
103.8514099 9.7894106 76.0865479
104.1892166 10.9855251 75.9647141
138.2026520 9.2496462 79.8703690
139.1540375 9.0680094 79.9973602
149.2809906 11.8450851 80.7463760
149.8912201 12.4113131 80.7409973
153.4518738 18.0578747 80.4227524
153.7924347 19.3753719 80.2952118
42.1264801 -4.5591636 70.3682175
43.1032524 -4.5667343 70.4869919
44.0666351 -4.5169139 70.5980911
44.9153099 -4.3175654 70.6385193
45.7159004 -4.0708499 70.7003784
46.5007439 -3.7674315 70.7492905
47.2794800 -3.3982325 70.7978134
47.9966278 -2.9641235 70.8220139
49.9172249 -1.3258970 70.8213959
50.4693222 -0.6464992 70.7949829
50.9801216 0.1416427 70.7535934
51.4365005 1.0683831 70.6809616
51.8128815 2.0437932 70.6002731
89.8280792 1.4850792 74.8167267
90.8098068 1.3422753 74.9383926
91.7741470 1.2819043 75.0510712
92.6920929 1.3188004 75.1460724
95.2284470 1.7447425 75.3647537
96.0258179 1.9905318 75.4216232
96.7944107 2.2689972 75.4787598
97.5309753 2.6096070 75.5153046
100.8206177 5.0354824 75.5640640
101.4137344 5.6872215 75.5476608
101.9701691 6.3970752 75.5201111
102.4977264 7.1589775 75.4846878
103.7575378 10.0031214 75.2615051
137.2547760 9.3993015 78.9822235
138.2517700 9.1016617 79.1314850
139.2400055 8.9135714 79.2618942
148.0637817 10.7572498 79.9929733
148.7422485 11.2032557 80.0089951
151.7057343 14.2293119 79.9536133
152.2329102 14.9920454 79.9146576
153.5465546 17.8487644 79.6987762
153.9003601 19.1567993 79.5727539
42.6633453 -3.8734193 69.5157242
43.6461716 -3.8253858 69.6544724
44.5476456 -3.6762528 69.7304382
45.3705292 -3.4656122 69.7840347
46.1640053 -3.1909425 69.8390579
46.9015923 -2.7987595 69.8535233
47.6306953 -2.3428578 69.8795547
49.5684357 -0.7054240 69.8916855
50.1032829 -0.0046299 69.8658295
50.5656548 0.8314494 69.8069839
50.9827728 1.7895405 69.7379990
89.6814804 1.7405090 73.9768219
90.6710510 1.5937934 74.1058655
91.6443253 1.5103228 74.2204590
92.5865250 1.5157574 74.3263397
95.1567535 1.9204487 74.5545044
95.9467163 2.1594040 74.6097412
96.6875000 2.4550602 74.6516647
97.4287262 2.7983899 74.6894455
100.7407990 5.2048898 74.7600250
101.3256912 5.8756199 74.7275925
101.8754272 6.5960822 74.6958008
102.3867340 7.3806057 74.6548386
103.6227188 10.2707481 74.4274216
137.2903137 9.3048639 78.2374191
138.3181000 9.0109558 78.3871536
139.2767334 8.8354445 78.5134201
148.1256256 10.6288443 79.2568359
148.7904205 11.0857563 79.2714691
151.7687225 14.0921888 79.2180405
152.2903442 14.8784399 79.1753082
153.6145630 17.7186127 78.9622040
153.9740906 19.0384274 78.8335495
44.0279198 -2.8543596 68.7331924
44.9016075 -2.6712306 68.8263016
45.7104225 -2.4178138 68.8823471
46.4900322 -2.0610180 68.9219589
47.1937180 -1.6318378 68.9424133
47.8683929 -1.1488360 68.9571304
48.5305061 -0.5971085 68.9658890
49.1191063 0.0539380 68.9486084
49.6107712 0.8277206 68.8846130
90.5094986 1.9161513 73.2647018
91.4946213 1.8053013 73.3870468
92.4482651 1.7812351 73.4925613
101.7488251 6.8283854 73.8781586
102.2444611 7.6742263 73.8065643
102.6852112 8.5165482 73.7607269
103.0901489 9.4833679 73.6842422
103.4437943 10.6395836 73.5660248
137.3126526 9.2978144 77.4912567
138.3192139 9.0017347 77.6237640
139.2730713 8.8199997 77.7510757
140.2498474 8.6978121 77.8764954
141.1239014 8.6592884 77.9729233
152.8010101 15.6474466 78.3745422
153.2574615 16.5672340 78.3084335
153.6547852 17.6359558 78.2178574
154.0158081 18.9661083 78.0846100
44.2602119 -1.6717947 67.8041458
45.1044998 -1.4291617 67.8976364
46.6479645 -0.7118120 67.9502563
47.3194351 -0.2021076 67.9353638
91.2744293 2.1976430 72.5172501
92.2549744 2.1399164 72.6384277
101.5858307 7.1370153 73.0322037
102.0692215 7.9769659 72.9767532
102.5004120 8.8800735 72.9055481
102.8688278 9.8965654 72.8244858
139.2823181 8.8423920 76.9866791
140.2545471 8.7087564 77.1163101
141.1472626 8.6521311 77.2191010
152.8235321 15.6109715 77.6244583
153.2679596 16.5364780 77.5546494
153.6652679 17.6308479 77.4591599
154.0268402 18.9560738 77.3252258
91.0369034 2.6409929 71.6458359
92.0296631 2.5771077 71.7846909
92.9395676 2.5781119 71.8737183
93.7974930 2.6567848 71.9526215
94.6828537 2.8091097 72.0364456
95.4730759 3.0260408 72.0852509
96.2550583 3.2717247 72.1517868
97.0021439 3.6163661 72.1870193
99.0544281 4.9310083 72.2500687
99.6941528 5.4827423 72.2477341
100.2890015 6.0923877 72.2396088
100.8454132 6.7710123 72.2157593
101.3702927 7.5497179 72.1659393
101.8457794 8.3973227 72.1169510
102.2411041 9.3615360 72.0383453
102.5816116 10.4829473 71.9293137
139.2292175 8.9297485 76.2011566
140.2169342 8.7631502 76.3411636
141.1343231 8.6849737 76.4487686
143.7190247 8.8673048 76.7184372
144.4941406 9.0295830 76.7785263
148.1917877 10.5329561 77.0020218
148.8515778 10.9748020 77.0182190
149.4804688 11.4784212 77.0221176
150.0886230 12.0397120 77.0165329
150.7119598 12.6665611 77.0014877
151.2829895 13.2928247 76.9897385
153.6526184 17.6996155 76.6877060
92.6580200 3.0955791 70.9948654
93.5718842 3.1265702 71.0869141
94.4476395 3.2505777 71.1684189
95.2687607 3.4360754 71.2341385
96.0453033 3.6892912 71.2868576
96.7823334 4.0345640 71.3221207
98.8305969 5.3752065 71.3824463
99.4625473 5.9484282 71.3804398
100.0401535 6.6012244 71.3523865
100.5845642 7.2933760 71.3279800
101.0955200 8.0654802 71.2907104
101.5521622 8.9743710 71.2274857
101.9175110 10.0239592 71.1131287
139.1843567 9.0368872 75.4237595
140.1829987 8.8498602 75.5660477
141.0971375 8.7769861 75.6743851
143.6948547 8.9362612 75.9481506
144.4880829 9.0828114 76.0167160
148.1699677 10.5976954 76.2338638
148.8388214 11.0465202 76.2443924
149.4575195 11.5400238 76.2532272
150.0700989 12.0823708 76.2552643
150.6845398 12.6876459 76.2444077
151.2654724 13.3496094 76.2190552
153.6073456 17.8219223 75.9034958
92.2947845 3.7501335 70.0762482
93.2397766 3.7379086 70.1975021
94.1336899 3.8358858 70.2639847
94.9615784 4.0002484 70.3363037
95.7420502 4.2339878 70.3989410
96.5193024 4.5347767 70.4550858
97.2408218 4.9188395 70.4820786
97.8961639 5.3653340 70.4934540
98.5348434 5.9064689 70.4840012
99.1640091 6.5236630 70.4869232
99.7203217 7.2263675 70.4290848
100.2656250 7.8974175 70.4348373
100.7638168 8.7211342 70.3916473
138.1222229 9.4321117 74.4926910
139.1259308 9.1930733 74.6369476
140.1030121 9.0124960 74.7683258
141.0237885 8.9322424 74.8817291
146.7006073 9.9826498 75.3785629
147.4118652 10.3352118 75.4089966
151.7461853 14.1855516 75.4104691
152.2635193 15.0084829 75.3565521
152.7324982 15.8786287 75.2954025
153.1589203 16.8328266 75.2284546
153.5359192 17.9711590 75.1156235
92.7983017 4.5191092 69.2169800
93.7786942 4.5244989 69.3782120
94.5863495 4.7096810 69.4016418
95.3680954 4.9222789 69.4646301
96.1417999 5.2143407 69.5173721
96.8725128 5.5824389 69.5668030
97.5505295 6.0190849 69.5926208
98.1942978 6.5712485 69.5757294
98.8210983 7.1783228 69.5836411
139.0274353 9.4105654 73.8367462
140.0121460 9.2333765 73.9705811
140.9524384 9.1322870 74.0919952
146.6404724 10.1319408 74.6068649
147.3421478 10.4849005 74.6388016
151.6752472 14.3728323 74.6157532
152.1838379 15.1947889 74.5679626
152.6433258 16.0732880 74.5030365
153.0547943 17.0810909 74.4142532
93.2475052 5.4591160 68.3843765
94.1382599 5.5215154 68.4945755
94.9543304 5.7118826 68.5652466
95.7022934 6.0444498 68.5888290
96.4126129 6.4655852 68.5897141
97.1007309 6.8749604 68.6281052
97.7514191 7.3959246 68.6421585
98.3642960 8.0336075 68.6342010
138.8661499 9.7017803 73.0105362
139.8673248 9.5207062 73.1534958
140.8234863 9.3950729 73.2784195
141.7286987 9.3556480 73.3881149
142.5995331 9.3887024 73.4809570
149.2469025 12.0452614 73.8831635
149.8610840 12.6021843 73.8765411
150.4581757 13.2137527 73.8680191
151.0264130 13.8751307 73.8547363
151.5617218 14.6224718 73.8147430
152.0708160 15.4474497 73.7570648
152.5263519 16.3584900 73.6884613
152.9151001 17.3558121 73.6048584
95.8609924 7.4846458 67.6486053
96.5653763 7.9214315 67.6561508
139.7042389 9.8599691 72.3212585
140.6737823 9.7224178 72.4606323
141.5910645 9.6569948 72.5726318
142.4775848 9.6621408 72.6658249
149.1235657 12.2978716 73.0831604
149.7361298 12.8774672 73.0701523
150.3355103 13.5119066 73.0590210
150.8863068 14.2305164 73.0171051
151.4227600 14.9667521 72.9873505
151.9284821 15.7521935 72.9499283
152.3688049 16.6897964 72.8740540
140.4916992 10.1254091 71.6263123
141.3816986 10.0503635 71.7230606
142.2991028 10.0255737 71.8315201
150.1838074 13.8702736 72.2377167
150.7322083 14.6033573 72.1846466
151.2575989 15.3220711 72.1685791
151.7495728 16.1909161 72.1074829
152.1588287 17.1760178 72.0186005
140.2251434 10.6540670 70.7465439
141.2018738 10.5077648 70.8990021
142.1009216 10.4627419 70.9954529
150.0013123 14.2735043 71.4045868
150.5361176 15.0066748 71.3655014
151.0379333 15.8190527 71.3110504
151.5041809 16.7371483 71.2579117
151.8881226 17.7717495 71.1479950
140.8912506 11.1245241 70.0056534
141.8284454 11.0260639 70.1293793
142.7218018 11.0168896 70.2325897
143.5558167 11.0966625 70.3208618
144.3368225 11.2714958 70.3774414
145.1220398 11.5018482 70.4331894
145.8992157 11.7571287 70.5070801
146.6054077 12.1125793 70.5278397
148.5848083 13.4908161 70.5801468
149.1912842 14.0967560 70.5689468
149.7656097 14.8086348 70.5350342
150.2836761 15.6003313 70.4885254
142.4036865 11.6968489 69.3527222
143.2501068 11.7428083 69.4345551
144.0735168 11.8607826 69.5201035
144.8607788 12.0720196 69.5634003
145.6409302 12.3236561 69.6372833
146.3400116 12.6848307 69.6581268
148.3245850 14.0647469 69.7101898
148.9089355 14.7028074 69.6873627
149.4664917 15.4457407 69.6595688
142.0192261 12.5084028 68.4130020
142.8769073 12.5211153 68.5245514
143.7161102 12.6071491 68.6192245
144.5359955 12.7959490 68.6845779
145.2904663 13.0672941 68.7247009
146.0255280 13.3836842 68.7833328
146.7189331 13.8028698 68.7881927
147.3891449 14.2530413 68.8162766
147.9858551 14.7825651 68.8180008
148.5564117 15.4373055 68.7978439
149.0899658 16.2220497 68.7517242
142.3959198 13.5106277 67.5554886
143.2484741 13.5903473 67.6611023
144.0780945 13.7478905 67.7379532
144.8677826 13.9807615 67.8034973
145.5900879 14.2822351 67.8509674
146.3073120 14.6677170 67.8810959
146.9434662 15.1982288 67.8752594
147.5238953 15.7502222 67.8774643
148.0838776 16.4611969 67.8234787
146.3617706 16.4756145 66.8260803
146.1954956 13.5783234 340.0162964
145.1523895 11.9833708 338.3852844
148.1062927 13.2081871 338.2466736
149.4334717 14.1750507 338.2479553
143.8993683 10.9148731 336.8413696
145.5167694 11.2109146 336.7190247
147.0335388 11.7634611 336.6420288
149.7617188 13.4401999 336.5968018
95.0505219 4.3382611 339.1953125
96.6202087 4.8628659 339.1112061
98.0534439 5.6304612 339.0702209
142.4650574 10.2373571 335.3631897
144.1642609 10.3637867 335.2154236
145.7640533 10.7109051 335.1041260
147.2644043 11.2732677 335.0355530
151.2338104 14.0637722 335.0089111
93.8543777 3.1132281 337.5800171
98.5142441 4.7723241 337.3444214
99.8135147 5.7630663 337.3437500
140.8058014 9.9851952 333.9617615
144.3090363 10.0574551 333.6386108
145.8950653 10.4259577 333.5317078
147.3964386 11.0024309 333.4633484
92.3967514 2.3617606 336.0447693
95.8438644 2.8487172 335.7823181
97.3969116 3.4086580 335.7070618
98.8213120 4.1822009 335.6646423
100.1299591 5.1699433 335.6696167
101.3327484 6.3999572 335.7094727
145.9423370 10.3300438 331.9933167
147.4477692 10.8979521 331.9222412
151.4026184 13.6565466 331.8946228
152.5394897 14.9846401 331.9533997
153.5483246 16.6067905 332.0622559
45.1656799 -4.2709279 338.0461731
48.2072220 -2.8570783 337.9342346
49.5022812 -1.7814208 337.9465637
92.6358032 1.9194905 334.3906860
94.4140930 2.0870430 334.2447815
98.9962692 3.8465352 334.0377808
100.3052673 4.8317637 334.0363464
101.5266647 6.0516524 334.0744324
145.9189301 10.3890057 330.4793396
147.4237366 10.9568462 330.4090881
148.8027802 11.6854582 330.3706970
150.1346283 12.6060705 330.3609924
45.5973892 -4.9893727 336.2919922
47.1690750 -4.3607068 336.2208557
48.6033173 -3.5013816 336.2009888
49.9140320 -2.4795671 336.1998596
51.0881004 -1.1891119 336.2535095
90.8798904 1.7683805 332.9579163
92.7514572 1.6965748 332.7767639
94.5128860 1.8923430 332.6385803
96.1249084 2.3141537 332.5432434
100.3771439 4.7003365 332.4446106
101.5971603 5.9088435 332.4799194
103.6466980 9.0001707 332.6676941
142.5280151 10.0776978 329.2288208
145.8036346 10.6260958 328.9957581
147.3032074 11.1965389 328.9272461
148.6845398 11.9207296 328.8890991
150.0237732 12.8466940 328.8795776
151.2566223 13.9753895 328.9042664
-3.6628773 -11.7185478 338.3176575
42.3522644 -6.0546756 334.8342896
44.2070122 -5.8566422 334.6891174
45.8652306 -5.4306273 334.5905457
48.8642540 -3.9359999 334.4976807
50.1701508 -2.9138927 334.5050964
51.3539543 -1.6484557 334.5468445
92.7431183 1.7004488 331.2028809
94.5075455 1.9178431 331.0696716
96.1293182 2.3336947 330.9721375
97.6375809 2.9545033 330.9106445
99.0211945 3.7673440 330.8834229
100.3528900 4.7509036 330.8816223
101.5758438 5.9513927 330.9160156
102.6729507 7.3363628 330.9844360
103.6501694 9.0048409 331.0963745
140.5681458 10.4833717 327.9295959
145.6069489 11.0167732 327.5364990
147.1164398 11.5906096 327.4690247
