-119.1732635 -24.4243011 332.4148254
-119.6398315 -23.8075542 331.9408264
-119.2942734 -24.3556995 332.0197144
-119.7331390 -23.7751865 331.5592346
-119.3878555 -24.3270016 331.6387634
-119.8175583 -23.7473774 331.1794128
-119.4834290 -24.2872963 331.2499084
-119.8674011 -23.7506523 330.8091736
-119.9236679 -23.7127705 330.4301453
-119.9632950 -23.6813812 330.0547180
-119.9762344 -23.6759129 329.6867065
-119.9733047 -23.6809711 329.3220520
-119.9601746 -23.6892681 328.9596558
-119.9409256 -23.6910439 328.5960693
-119.9036255 -23.6955738 328.2358093
-119.8227921 -23.7442284 327.8826904
-119.7337723 -23.7894878 327.5311890
-119.6681061 -23.7886314 327.1756897
-119.5660706 -23.8371468 326.8267517
-118.4176331 -25.5531826 327.0631714
-118.2521515 -25.6336575 326.7216797
-118.7963257 -24.5395985 325.8710938
-118.3865509 -25.1243172 325.9527893
-117.4150467 -25.9569111 180.9996796
-118.1027832 -25.2906818 180.6584930
-117.6338959 -25.8780975 180.6404877
-118.2874374 -25.2207756 173.6947937
-117.7744522 -25.8225040 173.6718292
-118.1324539 -25.2658463 173.3230896
-117.5769958 -25.9153824 173.2928619
-118.1562653 -25.9143677 130.0311127
-117.5427704 -26.6039867 129.9585419
-118.3462601 -25.8481426 129.6847687
-119.0410538 -25.5842628 127.5617371
-118.5226898 -26.2573872 127.4975433
-119.1011124 -25.5414009 127.2025604
-118.6271515 -26.1583443 127.1425018
-119.1193085 -25.5461769 126.8381577
-118.6395721 -26.1732330 126.7767181
-119.1142273 -25.5653553 126.4706879
-118.6661530 -26.1545181 126.4130707
-119.1366272 -25.5243187 126.1096573
-118.6587296 -26.1569672 126.0452499
-118.9991684 -25.1659985 123.5342865
-118.5418777 -25.7675915 123.4714203
-118.8250885 -25.2412834 123.1456146
-119.0596466 -24.7290802 122.8111420
-118.6393280 -25.3015575 122.7608109
-118.8572006 -24.8021908 122.4237366
-118.4551315 -25.3508835 122.3766785
-117.9447098 -26.0274677 122.2810287
-118.6621857 -24.8618126 122.0351334
-118.2281723 -25.4490871 121.9753494
-118.1952667 -25.3179531 79.0723114
-117.7749023 -25.9078712 78.9854126
-118.3272705 -25.2793007 78.7287598
-117.9133453 -25.8602333 78.6430893
-118.4625473 -25.2357216 78.3867340
-118.7114029 -25.5929852 76.2179794
-119.0935364 -25.0082626 75.9372253
-118.7195435 -25.5738811 75.8565140
-119.0884171 -25.0088749 75.5691757
-118.7176743 -25.5694752 75.4896774
-119.0825043 -25.0102692 75.2018433
-118.7034760 -25.5832806 75.1193848
-119.3955612 -24.5297775 330.7247314
-119.4405060 -24.5156574 329.9851685
-119.4579010 -24.5003319 329.2486572
-119.4164734 -24.5036850 328.5216980
-119.2712021 -24.5680542 327.8142700
-119.0805969 -24.6422653 327.1134338
-118.8149338 -24.7482376 326.4243469
-119.2887650 -25.2752647 125.5782089
-118.9814072 -25.3834515 124.0789185
