164.6800232 123.5647049 56.6328735
163.2036438 123.3406372 58.2930870
102.3495331 124.3149414 57.1670532
101.2902679 124.5134735 55.8951263
100.2459717 124.7264099 54.5263481
99.1994476 124.9565964 53.0147438
-87.9948425 121.7520065 92.8288574
-88.9854965 121.5444641 94.4515991
-89.9590302 121.3546600 95.8035965
-90.9848251 121.1830902 97.0705643
-91.9819336 121.0366974 98.1819534
-126.5460968 120.6796112 103.9875336
-127.7598267 120.7948227 103.3185501
-129.0481873 120.9274979 102.5157471
-130.3101501 121.0573730 101.6466980
-131.6316986 121.1834946 100.6453857
165.8822327 124.6808090 56.5989838
164.3829803 124.4458466 58.3615074
162.9279480 124.2408524 59.8898697
100.1046753 125.6807404 55.8251495
99.0670395 125.9069672 54.4034157
98.0099945 126.1420822 52.8264236
-85.7851410 122.9339600 92.1764526
-86.7562332 122.7044220 93.9423065
-87.7092133 122.4899368 95.4375000
165.5886078 125.5699921 58.3065643
164.1279755 125.3486557 59.9154205
162.6819305 125.1599731 61.3534737
99.9799881 126.6461105 57.0516663
98.9383545 126.8659973 55.6866188
97.8722000 127.1036072 54.1366920
96.8425751 127.3465958 52.5213318
-85.5132141 123.6778183 94.8170776
-86.4995117 123.4609222 96.3883972
-87.4777451 123.2706909 97.7487869
-133.5225677 123.0888596 103.1494064
168.3878174 126.9667130 56.1152306
166.8262634 126.7055664 58.1066055
165.3140259 126.4696350 59.8642654
97.7473679 128.0651703 55.3800774
96.7297745 128.3143921 53.8399811
-83.3328476 124.9097595 93.7884827
-84.3032761 124.6707916 95.5511017
-85.2718964 124.4510956 97.0889359
-133.1898346 123.9359207 105.1830902
-134.5045776 124.0847778 104.1536560
168.0729828 127.8618240 57.8146935
166.5696259 127.6056747 59.6313477
165.0706787 127.3860855 61.2721786
97.6205597 129.0356140 56.5174713
96.6176987 129.2810516 55.0590706
-82.1301880 125.9382172 94.3173981
-83.1016541 125.6887131 96.1221161
-84.0728607 125.4620285 97.6830292
-85.0696487 125.2659149 99.1221619
-132.9130249 124.7652206 107.0055542
-134.1854553 124.9253311 106.0901184
-135.5071411 125.0655670 105.0603485
167.8056183 128.7632904 59.3266296
97.5185394 130.0188904 57.6084290
96.4782181 130.2521362 56.1379471
95.4284210 130.5100708 54.5279655
94.4285278 130.7838135 52.8318214
-80.9618912 126.9799652 94.7320557
-81.9111938 126.7223358 96.5323334
-82.8957977 126.4897003 98.1618195
-135.1995850 125.9201813 106.9008484
169.1073914 129.9445343 58.8437462
167.5678101 129.6793060 60.7034836
97.4101410 131.0083313 58.6047821
96.3915863 131.2368469 57.2260399
95.3346634 131.4877625 55.6551781
94.3184509 131.7612305 53.9812965
-79.7828369 128.0423431 94.9872589
-80.7551346 127.7722397 96.8566971
-81.7171021 127.5362854 98.4899368
-82.7137222 127.3227005 99.9896088
-134.9389801 126.7814789 108.5783234
-136.2572632 126.9466248 107.5629425
-137.5394592 127.1283340 106.4944839
168.8709106 130.8645325 60.1960602
167.3233337 130.6166534 61.9966812
95.2314453 132.4760132 56.6589279
94.2129974 132.7442169 55.0439529
93.1670380 133.0285797 53.2381783
-78.6431961 129.1155701 95.1738663
-79.5833359 128.8435516 97.0136108
-80.5785065 128.5935974 98.7560120
-137.2649536 127.9793854 108.1788635
171.7876282 132.3707581 57.3594818
170.1419830 132.0629425 59.6099129
168.6466370 131.7931976 61.4520111
167.1457672 131.5584564 63.1208763
95.1386948 133.4757080 57.6040726
94.1237335 133.7356415 56.0487823
93.0732269 134.0153046 54.2953415
-77.4830017 130.2114410 95.1129913
-78.4574661 129.9282227 97.1262970
-79.4150696 129.6706848 98.8459930
-80.4190979 129.4410400 100.4665985
-137.0290985 128.8448792 109.7250519
171.5036163 133.2923737 58.7968254
169.9180298 132.9914093 60.8749123
92.9785843 135.0168915 55.2475739
-76.3804626 131.3288574 95.0580368
-136.8152771 129.7237549 111.1498032
-138.1368103 129.8965759 110.1185532
-139.4084320 130.0912476 109.0552673
-140.7853699 130.2896729 107.8056946
171.2828827 134.2221832 60.0525894
169.7141113 133.9355316 62.0316048
92.9025574 136.0202026 56.1599998
91.8710327 136.3048553 54.4066048
-75.2596512 132.4720459 94.7865295
-76.2136841 132.1537781 96.9248962
-136.6022644 130.6138916 112.4795914
-137.9148254 130.7821045 111.5077820
-139.1736450 130.9689331 110.5121613
-140.5219116 131.1639557 109.3443146
171.0823517 135.1673889 61.1985207
169.5421295 134.8908234 63.0682602
92.8299408 137.0315399 57.0160713
91.7940063 137.3208313 55.2664795
-75.1007462 133.2982635 96.6244202
-76.0540543 132.9940186 98.5912323
-138.9635925 131.8547821 111.8529816
-140.2896118 132.0493164 110.7518921
-141.6390686 132.2391815 109.5647430
172.4393005 136.4155884 60.2665176
170.8819275 136.1218872 62.2724266
169.3499451 135.8594208 64.0593948
92.7371292 138.0502777 57.7624435
91.7161255 138.3395844 56.0743179
-73.9962540 134.4637756 96.1973648
-74.9438477 134.1444244 98.2665482
-75.9239578 133.8594055 100.1461716
-138.7683105 132.7519379 113.1017914
-140.0802612 132.9395142 112.0546875
-141.3817749 133.1403198 110.9466476
-142.7596588 133.3428192 109.6901016
172.2261963 137.3733368 61.3363533
92.6675491 139.0736084 58.4912910
91.6447067 139.3598175 56.8321915
-73.8492432 135.3103180 97.8238907
-141.1798096 134.0391235 112.2061768
-142.5327454 134.2485809 111.0030899
173.6827240 138.6693268 60.0894508
172.0555725 138.3421021 62.2897568
92.6048279 140.1040192 59.1682968
91.5869446 140.3880005 57.5474396
90.5342865 140.6961823 55.7224998
-72.7661743 136.4919891 97.2790604
-73.7219391 136.1758881 99.3180542
-141.0014038 134.9434357 113.3723145
-142.3106689 135.1530151 112.2469482
173.4780731 139.6340332 61.0956802
171.9060822 139.3184814 63.1571121
92.5401001 141.1422424 59.7779388
91.5198822 141.4246521 58.1739655
90.4816895 141.7325745 56.3960495
-71.6608124 137.6940613 96.6164856
-72.6445007 137.3598633 98.7503052
-73.6126022 137.0588684 100.6915131
-140.8345947 135.8625183 114.4673767
-142.1281433 136.0663452 113.3851166
-143.4933167 136.2681122 112.1672287
173.3330383 140.6135406 61.9491043
171.7409363 140.3024139 63.9992294
92.4784088 142.1880341 60.3327599
91.4511719 142.4685059 58.7428780
-71.5765152 138.5740356 98.0324249
-72.5405655 138.2456360 100.1110687
-73.4967422 137.9556885 101.9177246
-140.6564941 136.7864227 115.5069733
-141.9615631 136.9867554 114.4485245
-143.2954407 137.1952820 113.2959518
173.1869812 141.6014404 62.7634583
171.6314087 141.2980652 64.7164764
92.4325485 143.2372437 60.8627357
91.4010468 143.5190125 59.2885017
90.3619308 143.8249359 57.5585251
-70.5278931 139.8129425 97.1792450
-71.4568481 139.4614563 99.3442764
-143.1208801 138.1222839 114.3389435
-144.4427185 138.3452454 113.1327515
174.6614380 142.9258575 61.3796844
173.0435181 142.5957031 63.5205727
171.5008850 142.3018036 65.4066010
92.3879471 144.2919922 61.3465691
91.3574829 144.5732727 59.7908516
90.3072968 144.8751526 58.0892792
-69.4548874 141.0829163 96.0984497
-70.4235535 140.6978455 98.5252075
-71.3567352 140.3611145 100.5745316
-142.9534607 139.0531769 115.3247833
-144.2773590 139.2759705 114.1434326
-145.6397705 139.5189819 112.8326111
172.9345245 143.6020966 64.1743011
171.3991089 143.3125305 66.0198441
92.3397827 145.3551636 61.7793045
91.3075256 145.6353455 60.2399635
-69.3658218 141.9721832 97.4459305
-145.4698334 140.4458466 113.8480301
174.3955078 144.9357147 62.7690811
172.8224487 144.6144714 64.7992020
171.2723236 144.3264465 66.6269913
92.2983322 146.4217224 62.1776772
91.2623062 146.7023315 60.6493988
-68.3284073 143.2675171 96.2340622
-69.2600555 142.8748474 98.6440582
-145.3166046 141.3844604 114.7851715
174.2626953 145.9483643 63.3998184
92.2693634 147.4926147 62.5493927
91.2233505 147.7740173 61.0252190
-68.2371063 144.1702728 97.4683685
-69.1782379 143.7862396 99.8029709
-145.1864166 142.3285828 115.6540604
-146.5028381 142.5655670 114.4163971
174.1773376 146.9801941 63.8997879
92.2371674 148.5710602 62.8625107
91.1980591 148.8511810 61.3616104
-68.1604462 145.0810089 98.6206055
-69.0849304 144.7135925 100.7997742
-145.0480194 143.2797852 116.4812469
-146.3512268 143.5142670 115.2776489
175.6910095 148.3770447 62.1602364
174.0931396 148.0179749 64.3553925
92.2162399 149.6541138 63.1498413
91.1588287 149.9383392 61.6327667
-68.0750961 146.0099030 99.6194687
-69.0119171 145.6526337 101.7465210
-144.9362335 144.2413940 117.2297668
-146.2270203 144.4737244 116.0614624
175.6112213 149.4124908 62.6366959
174.0220032 149.0607910 64.7775650
92.1907120 150.7422943 63.4041786
-68.0098801 146.9478455 100.5934906
-68.9419174 146.6010742 102.6159668
-144.8131714 145.2073822 117.9534302
-146.1069794 145.4378510 116.7984161
92.1663437 151.8369904 63.6125641
-67.9308395 147.9001770 101.4387665
-68.8714905 147.5606842 103.4096985
-144.7021027 146.1794128 118.6322174
-145.9892273 146.4093018 117.4949493
-147.3656464 146.6689148 116.1705246
92.1485672 152.9394836 63.7765503
-67.8700104 148.8609467 102.2266083
-68.8174286 148.5254669 104.1703796
-144.6032257 147.1572418 119.2566681
-145.8922729 147.3841858 118.1351776
175.4315491 152.5571747 63.8215027
173.8471222 152.2312012 65.7667618
92.1380005 154.0461121 63.9149399
-65.9112930 150.6330872 98.3464203
-66.8509674 150.2145996 100.7531967
-144.5144196 148.1435394 119.8347473
-145.7748413 148.3642120 118.7670288
175.4043884 153.6687317 63.8752480
173.8177795 153.3117676 65.9523849
92.1196747 155.1618347 64.0029221
-65.8728790 151.6039581 99.1242981
-66.7933273 151.1891479 101.4623566
-144.4305267 149.1361847 120.3681107
-145.7028503 149.3571167 119.3023071
175.3393707 154.7493744 64.0513000
173.7639465 154.3903656 66.1441116
92.1201324 156.2784729 64.0791016
-65.8176117 152.5785828 99.8328629
-66.7369690 152.1733093 102.1068344
-144.3594208 150.1346283 120.8589630
-145.6215973 150.3544312 119.8128815
-146.9917908 150.6047363 118.5833282
-148.2961884 150.8659668 117.3169556
175.3400421 155.8459167 64.1652145
173.7738037 155.4902802 66.2225800
92.1126785 157.4061890 64.0989838
-65.7562103 153.5638123 100.4718018
-66.6931152 153.1635895 102.7086945
-144.2767487 151.1354675 121.3379745
-145.5461731 151.3559265 120.2930756
-146.9070892 151.6054688 119.0819244
-148.2236938 151.8672485 117.8211975
94.2035599 157.9736633 66.8929138
93.1769104 158.2426453 65.5592117
92.1186523 158.5387268 64.0897369
-65.7256165 154.5555725 101.0868835
-66.6610413 154.1627502 103.2633362
-146.8264923 152.6107483 119.5427551
-148.1504669 152.8732605 118.2870560
94.2033539 159.1073608 66.8529510
93.1707001 159.3814697 65.5041275
-65.6822815 155.5661163 101.5770950
-66.6205673 155.1753540 103.7333908
-146.7784271 153.6275635 119.9404755
-148.0873566 153.8877106 118.7046280
-149.4919586 154.1767883 117.3035736
175.3633881 159.1948700 64.1846542
173.7618408 158.8185577 66.2831573
94.2146835 160.2460938 66.7872925
93.1864471 160.5224609 65.4326782
-64.7041931 157.0445099 99.5166245
-65.6465759 156.5830688 102.0315704
-66.5950317 156.1905365 104.1843948
-109.2221680 151.4793701 133.1561127
-110.3023834 151.4890747 133.2223816
-111.3989410 151.5040436 133.2523346
-112.5146561 151.5226440 133.2638245
-113.5932007 151.5453796 133.2555237
-114.7229996 151.5723877 133.2184753
-146.7189941 154.6470337 120.3184662
-148.0180359 154.9055176 119.1002197
-149.4205780 155.1959534 117.7098541
173.7613068 159.9431305 66.2222290
94.2253494 161.3942871 66.6773758
93.1943207 161.6780090 65.3000565
-64.6725159 158.0683289 99.9493256
-65.6336670 157.6021729 102.4761963
-66.5702209 157.2156067 104.5779953
-109.1872864 152.4918976 133.4431763
-110.2644043 152.5016479 133.5036011
-111.3677673 152.5151367 133.5370789
-112.4758453 152.5345612 133.5546417
-113.5579224 152.5575867 133.5399170
-114.6803589 152.5872650 133.5030670
-146.6524353 155.6704254 120.6677551
-147.9679718 155.9317627 119.4443054
173.7967834 161.0821075 66.0968552
172.2442017 160.7395172 68.0080490
170.7397461 160.4361572 69.7360687
94.2381897 162.5479126 66.5325546
93.2158966 162.8340912 65.1495285
-64.6554947 159.1013184 100.3302460
-109.1648026 153.5083466 133.6934052
-110.2560425 153.5172272 133.7601471
-113.5387573 153.5724030 133.8009491
-114.6597214 153.6031036 133.7618256
-146.6161957 156.7042389 120.9585571
-147.9168396 156.9630585 119.7577515
-149.3070679 157.2562103 118.3818512
172.2696686 161.8811188 67.8496857
170.7595367 161.5688171 69.6100693
94.2449799 163.7146912 66.3370972
93.2358093 164.0025024 64.9497528
92.1589813 164.3361206 63.3753319
-64.6369629 160.1509094 100.6176147
-109.1433792 154.5291138 133.9235077
-110.2252274 154.5348816 133.9991913
-113.5098801 154.5940247 134.0293884
-114.6325989 154.6233673 133.9937897
-146.5782166 157.7416992 121.2288055
-147.8778687 158.0003967 120.0358200
-149.2681427 158.2936554 118.6719208
173.9164124 163.4085388 65.6079407
172.3032379 163.0310059 67.6432953
170.7933807 162.7131042 69.4235458
92.1971130 165.5162354 63.1191330
-64.6266861 161.2011414 100.8985291
-109.1126022 155.5523071 134.1354980
-113.4875412 155.6193237 134.2349091
-114.6071320 155.6467590 134.2090607
-146.5349426 158.7829742 121.4745255
-147.8400726 159.0442505 120.2768860
-149.2301941 159.3375702 118.9258728
173.9788055 164.5837708 65.3123322
172.3675079 164.1979828 67.3627243
170.8408813 163.8690186 69.1754913
92.2311096 166.7098389 62.7953033
-63.6758728 162.7968903 98.3235016
-64.6225281 162.2603455 101.1276398
-109.1079865 156.5781403 134.3336029
-112.3990707 156.6256561 134.4247742
-113.4692230 156.6458435 134.4287720
-114.5933914 156.6735840 134.4038391
-146.5271149 159.8376160 121.6526642
-147.8211823 160.0988159 120.4625626
172.4246216 165.3744354 67.0309372
170.9022064 165.0421600 68.8678360
92.2686615 167.9204712 62.3969765
91.2555389 168.2923584 60.6412086
-64.6163177 163.3340759 101.2820282
-65.5550766 162.8633118 103.7413483
-66.5031281 162.4625092 105.8473740
-109.0763855 157.6062164 134.5118713
-110.1656189 157.6152649 134.5765686
-111.2596130 157.6347046 134.5904083
-112.3977890 157.6574097 134.5975647
-146.4956970 160.8927612 121.8216705
-147.7984314 161.1583557 120.6202011
172.5008850 166.5689697 66.6074829
170.9505310 166.2142639 68.5320435
92.3252563 169.1328583 61.9814758
91.3070831 169.5180969 60.1835213
-65.5478287 163.9414063 103.8543015
-66.4977722 163.5375214 105.9640045
-109.0668259 158.6407166 134.6553345
-110.1658630 158.6522217 134.7120972
-111.2537460 158.6700134 134.7346191
-112.3685455 158.6910706 134.7467194
-146.4883881 161.9577637 121.9426193
-147.7944183 162.2265625 120.7346115
-149.1783295 162.5314789 119.3603287
172.6031036 167.7817383 66.1105347
171.0477905 167.4151611 68.0815964
94.4120483 169.6687012 64.7469635
93.3896484 170.0053406 63.1860466
92.3692703 170.3691254 61.4768105
91.3519135 170.7686310 59.6347275
-65.5393982 165.0363464 103.8876572
-66.4848251 164.6277313 106.0051956
-146.4870300 163.0295105 122.0296402
-147.7667694 163.2938995 120.8436050
172.7402954 169.0178833 65.5330811
171.1374664 168.6219482 67.5887451
94.4638290 170.8884583 64.2846375
93.4602585 171.2278900 62.7080994
92.4176559 171.6217651 60.9033318
-65.5643234 166.1282349 103.9258881
-66.4934692 165.7196045 106.0353546
-146.4822540 164.1074829 122.0857849
-147.7959290 164.3834381 120.8594208
172.8688965 170.2691345 64.8934784
171.2246246 169.8402405 67.0463715
169.7338257 169.5059814 68.8434143
168.2505798 169.2084503 70.4640732
94.5136719 172.1278687 63.7535133
93.5116425 172.4817810 62.1225739
-65.5739441 167.2451782 103.8477631
-66.5097809 166.8196411 106.0231781
-146.4721222 165.1892700 122.1128922
-147.7852173 165.4690704 120.8816528
171.3466797 171.0842743 66.3947220
169.8468170 170.7392273 68.2492218
168.3337708 170.4145508 69.9609909
94.5742188 173.3800964 63.1626778
93.5747833 173.7456360 61.4894218
-64.6322250 168.8837738 101.1587830
-65.5914001 168.3666077 103.7460632
-66.5077133 167.9402161 105.9192047
-146.5025787 166.2883301 122.0711746
-147.7994080 166.5670471 120.8450623
169.9776917 171.9849854 67.5934677
168.4456940 171.6449738 69.3599091
96.6904907 173.9621429 65.6008148
95.6833649 174.2779388 64.1507111
94.6437836 174.6439056 62.4968147
-65.6004181 169.5033569 103.5802689
-66.5297699 169.0602722 105.8145447
-146.5091553 167.3878632 122.0165939
-147.8411102 167.6816864 120.7394714
170.1127014 173.2491760 66.8774109
168.5888519 172.8997192 68.6601944
96.7618942 175.2185974 64.9675140
95.7557983 175.5498505 63.4616966
-65.6245728 170.6506195 103.3570557
-66.5531693 170.1963501 105.6346588
-146.5442810 168.5010376 121.9060287
-147.8642578 168.7960205 120.6278305
168.6954956 174.1540680 67.9592056
167.2438049 173.8468781 69.5782471
165.7891083 173.5654907 71.0705261
96.8260345 176.4990234 64.2470856
95.8231430 176.8441162 62.6826935
-65.6626205 171.8093567 103.0821075
-66.5823975 171.3455200 105.3929520
-146.5608673 169.6144714 121.7830582
168.8787689 175.4522095 67.1126862
167.3846741 175.1152039 68.8076706
165.8918457 174.8081360 70.3952026
96.9196930 177.7826843 63.4913940
95.9091339 178.1531982 61.8504906
-66.6100616 172.5099182 105.0845413
-146.6120605 170.7475891 121.5878525
167.5498199 176.4098816 67.9341049
166.0357513 176.0845032 69.5981750
99.0645065 178.3994751 65.6826859
98.0462799 178.7247467 64.2451324
97.0035248 179.1011810 62.6114845
-66.6397476 173.6838989 104.7407455
-67.6190948 173.2204285 106.9864197
-68.5586548 172.8334961 108.9077988
-144.0121918 171.3171539 123.7504272
-145.2965698 171.5814667 122.6394043
-146.6584167 171.8858948 121.3637695
167.7268372 177.7279816 66.9649506
166.1976013 177.3797607 68.7128448
99.1477051 179.7026367 64.8468704
98.1334686 180.0473022 63.3360901
97.1025543 180.4420166 61.6422577
-66.6753922 174.8823242 104.3089066
-67.6529312 174.4003448 106.6015015
-68.5842972 174.0053864 108.5582657
-144.0589142 172.4530640 123.5211105
-145.3477783 172.7239227 122.3909760
167.9434662 179.0872498 65.8556213
166.3755493 178.6963501 67.7196732
101.3164063 180.3751678 66.7273026
100.2689209 180.6992188 65.3637848
99.2532272 181.0262909 63.9327240
98.2354889 181.3979950 62.3278809
-67.6922989 175.5932159 106.1642532
-68.6263809 175.1800385 108.1791382
-144.1272125 173.6047211 123.2376785
-145.4115753 173.8784180 122.0880203
-146.7851410 174.2010803 120.7629395
166.6110535 180.0752563 66.5829620
101.4216614 181.6937714 65.8393097
100.3856201 182.0203094 64.4265442
-67.7297134 176.8076935 105.6397018
-68.6674805 176.3731232 107.7325058
-144.1812439 174.7573547 122.9305267
-145.4707336 175.0416260 121.7504044
165.3165894 181.0871887 67.1566467
163.8147583 180.7536316 68.7608566
101.5338516 183.0264893 64.8654633
100.4968643 183.3817902 63.3465462
-67.8010406 178.0258484 105.0881042
-68.7235489 177.5765076 107.2334747
-144.2510529 175.9246826 122.5664749
-145.5455017 176.2177734 121.3616562
165.5879211 182.4804688 65.8995132
164.0263977 182.1194153 67.5837021
101.6518097 184.3949890 63.7662392
-67.8488464 179.2819061 104.4006042
-68.7717133 178.8114471 106.6176300
-144.3279266 177.1055298 122.1491699
164.2873535 183.5452118 66.2542572
162.8125610 183.1918030 67.8644638
161.3698120 182.9087830 69.3140564
103.8406448 185.1057739 65.4175110
102.8014984 185.4407501 64.0303802
101.7875900 185.7947693 62.5300713
-67.9100952 180.5594482 103.6314545
-68.8354263 180.0587463 105.9431000
-141.7936707 177.7306824 123.9745026
-143.0856018 178.0017090 122.8865585
-144.4255371 178.3062439 121.6651459
163.0579071 184.6136169 66.4753571
161.5914154 184.2955933 68.0390549
103.9769211 186.4964905 64.2261429
102.9456635 186.8543243 62.7404404
101.9392776 187.2357178 61.1387062
-68.9162292 181.3229370 105.1808319
-141.8750916 178.9187012 123.5223389
-143.1658478 179.1939392 122.4093704
163.3659821 186.1102905 64.8968811
161.8504639 185.7276611 66.6135864
160.3843536 185.4247589 68.0969772
158.9922485 185.1738739 69.3873138
106.1947937 187.2576904 65.6087952
105.1406479 187.5853882 64.2895126
104.1302795 187.9160767 62.9018555
103.0879364 188.3275604 61.2497253
-68.9760590 182.6389618 104.2593613
-69.9488449 182.1157227 106.6640244
-70.8788757 181.6962738 108.6583176
-141.9719696 180.1225739 123.0081482
-143.2720947 180.4064941 121.8582306
-144.6529999 180.7469635 120.5563278
160.6293182 186.8612823 66.6155090
159.2287140 186.5930786 67.9927979
106.3429031 188.6807404 64.2979355
-70.0214691 183.4148407 105.8021545
-70.9629745 182.9584045 107.8987427
-142.0707092 181.3403015 122.4374924
-143.3962097 181.6483307 121.2377472
160.9546356 188.3912354 64.8717651
159.5023193 188.0596924 66.4190063
158.0648499 187.7575378 67.8358612
156.7095032 187.5363159 69.0105286
108.5853195 189.4984283 65.4132080
107.5207825 189.8188629 64.1442184
106.5100327 190.1397095 62.8132019
-70.0778046 184.7590332 104.8060150
-71.0419464 184.2591095 107.0110703
-139.5766296 182.0102539 123.9920731
-140.8603668 182.2777252 122.9559860
-142.1892853 182.5763092 121.7983856
159.8132172 189.5935669 64.6557617
158.3437958 189.2449646 66.1796112
156.9734497 188.9866943 67.4768677
108.7564316 190.9600983 63.9320831
107.7025604 191.3032532 62.5569763
-71.1233215 185.5955963 106.0047150
-139.6988831 183.2449036 123.3590240
-141.0074005 183.5326691 122.2630081
158.6979065 190.8394318 64.2499847
157.2647247 190.4950256 65.7344971
155.8288727 190.2231140 67.0454178
154.4543610 189.9987183 68.1787109
111.0213547 191.8494568 64.7488403
109.9895554 192.1361694 63.5793953
108.9504242 192.4711151 62.2419815
107.9111633 192.8560333 60.7400169
-71.2201233 186.9548035 104.8844147
-72.1804504 186.4462280 107.1344681
-73.1199036 186.0170898 109.1074371
-139.8209534 184.4931335 122.6682892
156.1575470 191.7935181 65.1420059
154.7395325 191.5134583 66.4107361
111.2303848 193.3537598 63.0684662
110.2006302 193.6855927 61.7635345
-72.2760696 187.8210297 106.0060883
-73.2233734 187.3522339 108.0816879
-139.9556580 185.7572632 121.9060516
155.0913391 193.1060181 64.3741608
153.6850739 192.8324585 65.6218872
152.3216858 192.6120605 66.7341995
150.9808502 192.4259338 67.6987228
149.6486969 192.2651367 68.5428009
115.6657639 193.7626953 65.6800919
114.6166840 194.0143433 64.7221680
113.5430222 194.3007660 63.6143379
112.4993820 194.6017303 62.4226685
111.4595642 194.9459229 61.0941162
-73.3226166 188.7231445 106.9370041
-74.2891693 188.2629700 108.9589691
-75.2654953 187.8638611 110.7855453
-137.5015259 186.4754028 123.2148590
-138.8260803 186.7635651 122.1566544
-140.1102448 187.0494537 121.0478363
154.0651855 194.4850464 63.3710251
152.6780396 194.2070007 64.6362457
151.2969208 193.9781799 65.7600937
149.9416809 193.7947388 66.7235870
115.8872986 195.3075562 63.8828468
114.8471222 195.5743866 62.8314438
113.7860565 195.8943176 61.6121101
-73.4189453 190.1522522 105.6197205
-74.3955078 189.6511536 107.7424774
-75.3618469 189.2166901 109.6904144
-137.6541595 187.7670135 122.3757095
-138.9672699 188.0574341 121.2836609
-140.2846069 188.3689880 120.0947952
151.6792603 195.6303406 63.4698448
150.2836456 195.3973999 64.5635376
148.9638519 195.2270508 65.4817123
147.6315308 195.0582886 66.3284836
146.3576965 194.9325256 67.0214386
145.0506744 194.8196106 67.6421890
120.4475861 195.9533081 65.4541092
119.3671494 196.1543121 64.6981125
118.2738495 196.3861542 63.8258209
117.2109909 196.6340485 62.8687210
116.1475372 196.9230347 61.7781830
115.1126862 197.2328491 60.6225967
-74.5148773 191.0653992 106.4302292
-75.4792862 190.5903015 108.4842987
-76.4243088 190.2015991 110.2595062
-77.4045410 189.8338013 111.9245987
-135.2561340 188.5407104 123.4199753
-136.5656128 188.8131256 122.4530869
-137.8117065 189.0695953 121.4650040
-139.1378937 189.3800354 120.3009796
150.7247925 197.1549835 61.9467888
149.3457642 196.8990479 63.0665932
147.9977722 196.6984100 64.0556030
146.6897430 196.5276947 64.8972931
145.3711548 196.4042664 65.5940475
120.7072906 197.5416870 63.4367828
119.6294479 197.7642975 62.5812759
118.5586548 198.0417938 61.5627022
-75.6055603 192.0204468 107.1299438
-76.5386200 191.5995483 109.0022430
-77.5281906 191.1800385 110.8270340
-135.4147034 189.8480682 122.5176849
-136.7157745 190.1237488 121.5102768
-137.9820557 190.4015350 120.4475098
147.1336975 198.3092957 62.2660904
145.7625885 198.0916290 63.1251221
144.4698486 197.9604950 63.8191910
143.1761169 197.8573761 64.4200134
141.9273682 197.7742004 64.9341965
140.6772766 197.7202759 65.3313217
139.4245758 197.6699982 65.6529312
138.2068176 197.6512299 65.8682022
136.9841614 197.6423340 66.0334244
135.8031006 197.6439209 66.1312561
132.2516632 197.7726898 65.9990158
131.1011353 197.8353424 65.8358307
129.9356537 197.9301453 65.5846252
128.7767181 198.0277863 65.2816620
127.6544495 198.1609497 64.8852158
126.5184479 198.2831573 64.4564972
125.4101791 198.4280701 63.9555588
124.2861404 198.5934296 63.3623276
123.1943207 198.7868652 62.6737518
122.0939178 198.9975281 61.8848953
121.0332184 199.2468567 60.9982033
119.9670334 199.5136871 60.0224609
-76.6607056 193.0267487 107.6322327
-77.6482239 192.5881805 109.5252075
-135.5831299 191.1758728 121.5221786
-136.9049835 191.4783020 120.4304810
144.9197998 199.7665100 60.8720818
143.6025238 199.6030731 61.6528664
142.3356171 199.5232086 62.2808151
141.0599213 199.4322205 62.8001213
139.7887268 199.3815613 63.1749763
138.5638275 199.3269043 63.4843941
137.3405151 199.3063660 63.7059784
136.1460114 199.3141327 63.8291855
132.5719604 199.4258728 63.7175903
131.4216309 199.4906921 63.5536613
130.2729492 199.5969238 63.2814560
129.1127625 199.7076874 62.9396019
127.9967804 199.8250732 62.5269012
126.8536530 199.9735413 62.0156174
125.7574158 200.1300964 61.4582100
124.6429138 200.3311920 60.7570915
123.5662842 200.5499573 59.9578972
-77.7909470 194.0353699 108.0677719
-135.7660370 192.5311890 120.4132690
137.7885895 201.1360168 60.7498779
136.5814209 201.1247559 60.9368095
135.3469391 201.1184998 61.0091362
134.1543121 201.1500702 60.9917831
132.9787903 201.2079773 60.8742599
131.8303528 201.2802124 60.7009201
128.4091187 201.6812134 59.5165749
127.2771606 201.8684082 58.9546356
-77.9183731 195.5858459 106.3536682
-78.8776016 195.1051331 108.3134918
-79.8614960 194.6850128 110.1367188
-80.8134155 194.3460236 111.6806259
-81.8046112 194.0232849 113.1174011
-130.9264221 192.9044037 122.8740692
-132.1750793 193.1280823 122.0818863
-133.4333649 193.3776398 121.1996841
-134.7177887 193.6476440 120.2163086
-135.9747314 193.9312744 119.1638870
136.0069580 203.1351013 57.3473511
-79.0217743 196.6636200 106.5658112
-80.0264664 196.1561279 108.5725555
-80.9637909 195.7831421 110.2362213
-81.9469528 195.4329529 111.7931213
-131.1136780 194.2693787 121.7639160
-132.3683014 194.5007477 120.9190674
-133.6322632 194.7646484 119.9781265
-81.1408463 197.2942810 108.5476685
-82.1040039 196.9109344 110.2503967
-83.0736618 196.5665436 111.7550507
-84.0653610 196.2599945 113.1174088
-128.8540039 195.2122803 122.0881119
-130.0700531 195.4199677 121.3650894
-131.3150177 195.6617126 120.5341187
-132.5831299 195.9167328 119.6165771
-82.2679443 198.4534607 108.5058289
-83.2465515 198.0533295 110.1451874
-84.2161560 197.7223969 111.6150284
-129.0550232 196.6164398 120.8341675
-130.2811584 196.8362885 120.0568237
-83.4414749 199.6059723 108.2679138
-84.4005737 199.2441101 109.8894577
-85.3787842 198.9023132 111.3789825
-86.3561783 198.6117859 112.6759949
-126.8129654 197.6181793 120.9228668
-128.0135956 197.8161163 120.2409134
-129.2816467 198.0563812 119.4338379
-130.5092468 198.2923889 118.5871811
-85.5821381 200.4562378 109.5269241
-86.5462799 200.1248779 110.9638214
-127.0347290 199.0775452 119.4809952
-128.2465210 199.2850952 118.7381439
-129.5232391 199.5478516 117.8463669
-86.7674942 201.7264404 108.9228821
-87.7546768 201.3840027 110.4145660
-88.7321014 201.0935059 111.7056503
-89.7456818 200.8333435 112.8878479
-90.7436829 200.5925140 113.9476166
-124.8339386 200.1501465 119.2878265
-126.0260468 200.3406830 118.6385117
-127.2784424 200.5736694 117.8546753
-128.4997864 200.8052673 117.0227051
-88.9517670 202.7047577 109.6333389
-89.9524612 202.3983307 110.9855499
-90.9407425 202.1375122 112.1483383
-125.0882721 201.6714630 117.5991211
-126.2978516 201.8897705 116.8529282
-127.5715027 202.1609192 115.9708786
-90.2083206 204.0619965 108.7117767
-91.1773834 203.7570801 110.0455856
-92.1787643 203.4959564 111.2241592
-93.1881332 203.2521667 112.2917633
-94.2016830 203.0378571 113.2519302
-95.2434387 202.8487549 114.1228333
-120.5272980 202.5160217 118.0929184
-121.7107162 202.6654510 117.6167755
-122.9275513 202.8463593 117.0513153
-124.1381226 203.0392303 116.4154892
-125.3876114 203.2736511 115.6299591
-93.4367676 204.9064484 110.0653610
-94.4446411 204.6626434 111.1461716
-95.4740372 204.4543304 112.1128769
-120.8092194 204.1011353 116.1695175
-122.0088654 204.2802124 115.6049957
-95.7465668 206.1810303 109.6806870
-96.7532959 205.9398651 110.6710129
-97.7976379 205.7392273 111.5735931
-98.8197784 205.5780640 112.3340607
-99.8835907 205.4260254 113.0463562
-114.0847015 205.0184326 116.1370316
-115.2452393 205.0942383 115.9577026
-116.3833084 205.2011719 115.6883240
-117.5794373 205.3200989 115.3482132
-118.7352982 205.4422455 114.9564972
-119.9419632 205.6049500 114.4517365
-121.1274872 205.7770691 113.8924866
-98.1145782 207.5254211 108.8585587
-99.1285248 207.3196869 109.7540894
-100.1791153 207.1405792 110.5808868
-114.4055862 206.7017975 113.8560562
-115.5659180 206.7852173 113.6307373
-116.7049026 206.8867798 113.3394623
-117.9130249 207.0447083 112.9018402
-99.4995041 209.3549805 106.3547516
-100.5350952 209.0812836 107.4108963
-101.5553360 208.8653412 108.2477570
-102.6173706 208.7281189 108.9593658
-103.6667786 208.6185455 109.5838547
-104.7326431 208.4891357 110.1209412
-105.8205872 208.4129486 110.5245132
-106.8874817 208.3551331 110.8687210
-108.0022736 208.3089752 111.1627960
-109.0908356 208.2897797 111.3819199
-110.2102203 208.2980042 111.4800415
-111.3267746 208.3224792 111.4726410
-112.4678955 208.3696442 111.4130325
-113.6130295 208.4345703 111.2940598
-114.7733841 208.5534668 111.0523148
-115.9559021 208.6788635 110.7089081
-105.1750488 210.6145477 106.3653641
-106.2442856 210.5117493 106.9189224
-107.3085632 210.4248962 107.3476563
135.5364990 106.9323349 39.4692078
134.9278259 106.9009171 39.5205421
134.3194733 106.8951187 39.6001129
133.7180328 106.8963547 39.6464157
133.0841980 106.8955078 39.7474251
132.4850006 106.9099274 39.7991066
131.8731689 106.9157791 39.6444054
131.2692719 106.9298248 39.5673256
130.6892853 106.9585266 39.4159927
130.1059875 107.0027771 39.1866989
135.2190399 107.2794647 42.0282936
129.7801056 107.3763275 41.7254715
126.8793335 107.4656372 40.5225029
125.2180405 107.6119461 39.4144020
139.9914703 107.6650391 42.5427246
139.3499146 107.6860046 42.8509827
137.4419556 107.5630875 43.6409302
136.8132629 107.5751343 43.8417435
136.1733093 107.5522995 43.9316063
135.5374298 107.6005325 44.0629845
134.9389191 107.6039734 44.0863075
129.5134430 107.6971664 43.7538757
128.9302673 107.7107010 43.5936966
128.3603516 107.7349625 43.3526764
127.7940521 107.7930603 43.2065353
127.2069168 107.8275528 42.9345741
126.6286850 107.8539581 42.6518669
124.9311676 107.9925079 41.7278900
120.8004684 108.6724777 40.6143036
144.7625580 108.6259384 43.5465813
144.0719757 108.5783539 44.0307922
143.3701782 108.5437927 44.5262871
142.6864624 108.5157394 44.9672050
142.0390320 108.4939957 45.3296242
123.3357773 108.7801666 44.7315140
122.7802963 108.8337555 44.3880730
122.2236862 108.8939667 43.9786377
121.6692276 108.9652710 43.5630074
121.1102066 109.0240479 43.1150818
120.5693665 109.0653152 42.6514206
120.0315018 109.1071854 42.1391411
119.4857178 109.1746521 41.5435219
145.7731476 109.0747528 44.6278839
146.8702545 109.5392532 45.4213486
146.1951141 109.5099716 45.9885559
145.5115662 109.4775162 46.4574089
146.5770111 109.9077911 47.2163658
118.3262863 110.4093094 46.0602074
115.6170273 110.7222214 43.2493286
150.5457306 110.6546478 45.2918892
149.8452606 110.5884399 46.0250626
149.1506348 110.5292664 46.6780396
147.0082550 110.3681793 48.4554367
146.3562012 110.3229218 48.8438072
118.1534958 110.8129425 47.4474373
117.6168518 110.8765488 46.9995956
117.0923691 110.9464951 46.5263977
116.5418167 111.0133514 45.9362640
116.0127869 111.0912704 45.4299889
115.4570618 111.1515579 44.8266563
114.9048920 111.2107162 44.2009430
114.3833160 111.2700272 43.5619698
150.2340546 111.0484467 47.1423264
151.4443970 111.5351639 47.4414673
150.6938629 111.5001068 48.1603470
149.9693604 111.4517593 48.8127365
112.4444733 112.3569641 44.5321426
111.9254837 112.4297409 43.8156662
153.0613708 112.5307617 48.5758133
152.3257141 112.4784393 49.3163071
155.0411224 113.1646957 47.7489281
155.4861908 113.6585312 48.5702438
154.7543640 113.5883102 49.3632584
155.9650269 114.1398621 49.2919846
107.4833450 115.1813354 45.3386383
156.4774475 114.6206741 49.9254837
155.7089691 114.5552063 50.7758064
107.3685684 115.6317291 46.5204086
156.9930878 115.1534119 50.6320724
107.2669296 116.0903549 47.7076950
156.7781525 115.5177841 51.8342781
107.1567688 116.5376053 48.8214684
104.9254837 117.3370285 46.8384819
-110.9226227 114.6451492 86.7483368
-113.7742233 114.6315765 87.0801468
160.1131897 116.7994614 50.1252708
159.2722931 116.7187347 51.1868248
104.8183899 117.7935028 47.9300117
-105.6724167 115.1253204 87.0496445
-106.1839066 115.0846100 87.4553223
-109.9805069 114.9598312 89.3209610
-110.5451126 114.9381256 89.4600449
-113.3831787 114.9149094 89.8644409
-113.9506378 114.8841324 89.8865662
-114.5444641 114.8708115 89.7707062
-115.1390228 114.8906708 89.6498947
160.5634003 117.3176956 50.6869125
-103.7568741 115.5224304 88.3601303
-104.8152008 115.4605637 89.1987762
-119.0267487 115.3440018 90.6549225
160.3522339 117.7335968 51.9658165
102.5135498 119.1153717 46.6764755
-101.9053650 115.8904037 89.2034225
-102.4384003 115.8642578 89.6838913
-102.9604340 115.8466644 90.1334381
-103.4778290 115.8106842 90.5264740
-104.0075150 115.7722015 90.9167023
-104.5456085 115.7375259 91.2607956
-115.1511078 115.5317535 93.6701889
-115.7217026 115.5495682 93.5990753
-116.3019943 115.5831070 93.4880066
-116.9038620 115.6169128 93.3433609
-118.7034760 115.6850815 92.7877426
-119.3187637 115.6967392 92.5412750
-119.9429016 115.7344437 92.2561035
102.4372787 119.5772705 47.7727737
-119.6683350 116.0883102 94.1854172
161.4655914 118.7659531 52.6018982
102.3402328 120.0329895 48.7631111
101.7803574 120.1274567 47.8576851
-98.3500443 116.8932877 89.9369278
-98.8581238 116.8496628 90.5130386
-119.4432831 116.4085388 95.8503952
-120.0403290 116.4353714 95.6329498
-120.6242752 116.4787521 95.4127655
-121.2219009 116.5282669 95.1643906
-121.8528595 116.5640335 94.8761902
-122.5010757 116.5639267 94.5270309
161.2867889 119.1859589 53.7153511
102.2270432 120.4956284 49.6834641
101.7085800 120.5955658 48.8550339
163.3682404 119.9238739 52.1165276
162.5884857 119.8262711 53.0863304
161.8690491 119.7167130 53.9256554
161.0964355 119.6145554 54.8153763
102.1585083 120.9493408 50.6414986
-94.4342651 118.0923386 88.9400558
-94.9290848 118.0198059 89.7165451
-95.4229126 117.9543381 90.4755096
-123.8866959 117.4200821 96.7794724
-124.5220032 117.4722672 96.4344788
-125.1822433 117.5145416 95.9867172
102.0684738 121.4033890 51.4973907
163.7480164 120.8992386 53.4141579
101.9842072 121.8640747 52.3118629
101.4538422 121.9847870 51.5283928
-92.0834274 119.1222534 89.5084457
-92.5582809 119.0461578 90.3098831
-93.0379868 118.9665527 91.0323486
-127.2671967 118.4821396 97.3784943
100.8304138 122.5545197 51.5348892
-90.9027939 119.6647644 89.5254898
-128.3133240 118.9684143 97.9486694
100.7387772 123.0197754 52.3185272
100.2417526 123.1360016 51.5720062
99.7408600 123.2609863 50.7689323
99.2198868 123.3841629 49.9154663
-90.2552109 120.1238861 90.4215622
-90.7429886 120.0372543 91.2721100
-128.1010284 119.3750992 99.3274231
-128.7371826 119.4139252 98.9045105
98.5781479 123.9410477 49.8524818
98.5030975 124.4176331 50.6346436
97.9587784 124.5293350 49.7269630
-87.9588165 121.2484207 89.9986038
-88.4577560 121.1543884 91.0299301
-130.2967682 120.4046555 100.0610428
-130.9467773 120.4599228 99.5578842
165.8696442 123.5299606 54.7863007
98.4270782 124.8964386 51.4057961
166.5241547 124.0857391 54.6984558
165.7049866 123.9608917 55.7573700
98.3591461 125.3656921 52.1570930
97.8219223 125.4720993 51.3271980
-86.2287216 122.3052216 90.3789597
-86.7259140 122.2036514 91.4245758
-87.1973724 122.0986023 92.3127441
167.1772614 124.6464767 54.5899200
97.2543564 126.0700684 51.2450562
166.9889984 125.0870667 55.5613708
97.1934814 126.5589828 51.9340439
96.6606293 126.6738663 51.0572891
-84.9845505 123.2895355 91.4633026
166.8530273 125.5276260 56.4208794
96.0448227 127.2820358 50.8002930
-84.8354187 123.6608734 92.8295898
168.2203064 126.2276611 55.3234787
167.4238281 126.0990829 56.3731575
166.6560516 125.9743729 57.3520508
95.9973526 127.7825089 51.5138588
-83.7663345 124.2657166 92.3898468
-84.2466660 124.1536407 93.3148651
-84.7131500 124.0424194 94.1751404
-134.4688416 123.3968582 102.8401108
95.9561768 128.2591095 52.1737213
95.4381104 128.3936615 51.2287369
-135.5962524 123.9751740 102.7908325
95.9208450 128.7626648 52.8637161
-82.5338440 125.2857437 92.9477386
-135.4043579 124.4018173 103.8626251
95.8700409 129.2420044 53.4872360
-81.4722366 125.9305115 92.2236176
169.2070770 128.2791138 56.6684113
95.7813034 129.7221832 54.0523300
95.2875137 129.8592377 53.2485237
-80.8714523 126.4571533 92.4036789
-81.3736801 126.3282013 93.5094452
169.0671539 128.7359314 57.4579620
-80.2817688 126.9922104 92.6196747
-136.3001709 125.8070526 105.6459579
169.7232666 129.3246307 57.2035866
168.9451294 129.1922607 58.1968040
-79.6999741 127.5183182 92.7817001
-80.1776505 127.3856888 93.8156662
-136.1221619 126.2522583 106.5699844
-136.8203278 126.3316498 105.9914246
-137.4438934 126.4095917 105.4629135
170.3799438 129.9062653 56.9269028
-79.1129379 128.0449982 92.8846970
93.5228577 132.2253113 52.8954811
92.9933014 132.3671722 51.9256287
92.4396591 132.5027313 50.9077225
-79.0204544 128.4421844 94.0561447
170.0602417 130.8325958 58.4389763
-138.3329315 127.9134827 106.8938370
170.7177124 131.4441528 58.0835953
169.9313354 131.3007965 59.1300583
-77.8563232 129.5245514 94.0890274
-138.2331085 128.3396912 107.6956635
92.2821350 133.9696503 52.6370010
-138.0822144 128.7664795 108.5380325
172.9977722 132.8429108 55.8876839
-137.9783478 129.1963043 109.2910843
-138.6332397 129.2928619 108.7491531
-139.2671814 129.3891144 108.2015076
-139.9087067 129.4981232 107.6242447
-140.6160583 129.5937805 106.9455032
-141.3539886 129.6800385 106.2422714
92.2058029 134.9746246 53.6605492
91.6843033 135.1098175 52.7533798
172.6292267 133.7515259 57.5074692
92.1725616 135.4783630 54.1426048
-75.6155319 131.7652893 93.8533096
-141.7646179 130.6386108 107.2348709
172.5544891 134.2188873 58.1026535
173.2318878 134.8333740 57.6521454
172.4158630 134.6875000 58.7785187
-74.4858475 132.9184570 93.4810486
-141.5002747 131.5155334 108.7872162
172.3184052 135.1555328 59.3644562
91.0241470 137.2900238 53.6470871
90.4725723 137.4496460 52.6062698
-74.4188614 133.3361664 94.4948349
173.0375061 135.7764587 58.8309517
172.1987915 135.6255646 59.9589005
90.9966049 137.7984924 54.0917587
-73.8600464 133.9152832 94.2452316
-74.3334503 133.7536163 95.3972244
-142.6010437 132.6067657 108.9857407
90.9535294 138.3081207 54.5111656
-73.3374481 134.5027771 94.0931931
90.9145889 138.8208160 54.9079628
90.3703613 138.9747314 53.9278564
89.8296509 139.1314087 52.9423599
-72.7371902 135.0874023 93.6426163
-73.2648849 134.9191437 94.9893799
-143.7823029 133.7235718 108.9825134
173.5161743 137.3766632 59.3881683
90.8751984 139.3321991 55.2802353
90.3363876 139.4898834 54.3142548
-73.1821136 135.3436584 95.8291702
174.2895966 138.0316925 58.6741943
173.4039917 137.8602448 59.9234161
90.8452225 139.8431702 55.6662636
-72.1367569 136.1217194 94.2466736
-72.6222000 135.9379425 95.4703903
-73.1214752 135.7648621 96.6787720
-143.5158844 134.6219482 110.3791733
89.7383881 140.6713409 54.0850677
-71.5972214 136.7149963 93.8641586
-72.0651779 136.5335236 95.1126328
-143.4259796 135.0771637 110.9738007
-144.1109772 135.1744080 110.3271713
174.9279327 139.1707458 58.5047035
89.7299118 141.1927948 54.4688187
-71.9732895 136.9481812 95.9259415
-143.3011017 135.5398407 111.6067734
174.7874756 139.6514282 59.0874023
-70.9208908 138.1717682 95.1870193
-144.4608002 136.6482086 111.5408401
174.6174927 140.6194458 60.0488434
90.7079239 142.4307251 57.3436470
-70.8914108 138.6153564 95.9795532
174.5307007 141.1104736 60.4895592
90.6826401 142.9534454 57.6395378
-70.3535919 139.2431183 95.4639206
-70.8446503 139.0593719 96.7099915
-144.2434692 137.5812378 112.6752396
-144.9322815 137.6953278 112.0262070
174.4258881 141.6018677 60.9468956
-69.8149872 139.8782806 94.9344864
-145.5103455 138.2990112 111.8602905
175.1951447 142.2671814 60.1972084
174.3518219 142.0970306 61.3545189
-69.7648392 140.3206177 95.6542206
-145.4178162 138.7637177 112.3957138
174.1366425 143.5885162 62.4971924
90.5391312 145.5900421 58.9034920
-68.6573257 142.0451965 95.1932755
-146.5417480 140.3900146 112.5980301
-147.2373657 140.5039520 111.9103012
175.7533569 144.4437103 60.5396194
174.8931274 144.2638855 61.7287865
174.1011963 144.0972137 62.7920761
90.5049133 146.1209412 59.1235275
-68.6298523 142.4921265 95.9056396
-146.4174805 140.8553009 113.1354675
175.6669769 144.9415741 60.9252090
90.4820938 146.6530609 59.3411407
-146.3330688 141.3312225 113.6113129
90.4530716 147.1880646 59.5341644
-146.2750244 141.8020020 114.0545197
-67.5129089 144.2590179 95.1409149
175.4507599 146.4728241 61.8612175
-67.4830322 144.7084656 95.8195801
175.3755341 146.9849396 62.1551590
-147.4828033 143.4601593 114.0162659
-148.1819305 143.5841675 113.3242569
175.3328247 147.5016327 62.4042206
-67.3867950 145.6128998 96.9886932
-147.4051208 143.9422913 114.4348221
-67.3452148 146.0768280 97.5151443
-67.3043137 146.5429993 98.0327530
-147.2797241 144.8972321 115.2381439
-147.9827576 145.0177307 114.5687332
91.3866959 150.6861725 62.1962662
-67.2650681 147.0094299 98.5378876
-147.2064514 145.3831482 115.6164856
91.4006195 151.2249908 62.3595543
90.8750458 151.3657837 61.6143227
-67.2439270 147.4790039 99.0710983
-147.1248932 145.8697815 115.9942017
-147.8166962 145.9970856 115.3166809
-148.5065918 146.1275787 114.6287460
91.3850403 151.7741241 62.4592361
-66.6825333 148.1476288 98.2564545
-67.2005692 147.9460602 99.5130310
91.3548203 152.3294373 62.5255165
-67.1591339 148.4208069 99.9410172
91.3347855 152.8843994 62.5934563
91.3546982 153.4301605 62.7086449
-65.6888428 150.0375519 97.1027985
-66.1577530 149.8051758 98.3930206
91.3429337 153.9858856 62.7696571
-146.8539581 148.3071899 117.6535797
-147.5394592 148.4397736 116.9895630
91.3442535 154.5401306 62.8379326
-146.7869263 148.7990417 117.9680710
176.6821289 153.7140961 62.1159935
91.3364716 155.0984650 62.8832817
-65.1325226 151.7076874 96.8876114
-146.7467957 149.2955017 118.2420654
176.6899567 154.2516937 62.1159286
91.3272400 155.6593018 62.9174461
-65.1052094 152.1989899 97.2453003
-146.7115784 149.7939606 118.5078278
-147.3821106 149.9208221 117.8789444
-148.0329742 150.0493317 117.2529602
176.6503143 154.7899170 62.2102356
91.3300934 156.2181244 62.9583092
-65.1095734 152.6814423 97.6759720
176.6548309 155.3396912 62.2600174
91.3383331 156.7774353 62.9939613
91.3351898 157.3429718 62.9991264
91.3292694 157.9122925 62.9867477
-65.0210800 154.1647644 98.6484604
91.3323746 158.4806213 62.9765053
-65.0345306 154.6417236 99.0858002
-149.1986847 152.8337555 117.1405945
91.3209000 159.0544586 62.9382324
-64.9985733 155.1485443 99.3198624
-149.1614075 153.3368835 117.3764954
92.3814163 159.3190308 64.4301453
91.8374710 159.4772797 63.6559372
91.3156204 159.6278229 62.9045601
-64.9792252 155.6529694 99.5776749
92.3779526 159.8905487 64.3953171
-64.9663925 156.1566467 99.8468094
92.3657684 160.4694824 64.3344574
92.3677826 161.0479126 64.2725067
174.9704132 159.9430847 64.6834564
92.3848877 161.6216736 64.2185211
-149.0325470 155.8915558 118.3328857
174.9542389 160.5026398 64.6722717
92.3793716 162.2081451 64.1232910
-149.0176544 156.4086761 118.4858551
-149.7161560 156.5586853 117.7743912
-150.4337463 156.7145538 117.0299683
-151.1047211 156.8612823 116.3326187
175.0131683 161.0877838 64.5576248
92.3966522 162.7860718 64.0503159
-111.0959396 153.2654419 133.7372131
-111.6266251 153.2635345 133.7613373
-112.1966171 153.2388611 133.7634888
-112.7676468 153.2543030 133.7561188
-150.3715820 157.2257538 117.2254181
175.0516968 161.6661835 64.4673996
92.4256668 163.3607330 63.9799995
-112.7874146 153.8035278 133.8836517
-150.3368683 157.7407074 117.3961182
173.4736633 161.8643036 66.4187927
173.4893036 162.4425049 66.3055191
-109.9654617 155.3015594 134.1455841
-110.4670105 155.3057556 134.1755981
-63.9198914 161.8606262 98.8823395
-111.6073532 155.8439178 134.2570190
-112.1581650 155.8519135 134.2729492
-112.6831055 155.8599701 134.2846069
-111.5904160 156.3558655 134.3607635
-148.8480225 160.0494690 119.4386597
91.4801102 167.2750092 61.4374390
90.9905090 167.4573822 60.5688324
90.4652634 167.6616516 59.6179848
-109.9065323 156.8371735 134.4499054
-111.5856476 156.8686523 134.4629974
-148.8732452 160.5857239 119.4953918
90.4818649 168.2834625 59.3764229
-63.4250336 163.7546387 97.6686172
-63.9076347 163.4715118 99.1329575
-148.8487244 161.1133881 119.5862198
173.7160645 165.9865265 65.3197632
90.4958572 168.9026184 59.1302490
-63.4485855 164.2939301 97.7484741
-148.8358459 161.6458435 119.6541138
173.7456970 166.5839233 65.1015778
-64.3704834 164.2743530 100.6991119
-64.8389359 164.0140839 102.0491791
-150.2228699 162.5042419 118.2452164
-150.9088745 162.6663361 117.5068588
173.8222198 167.2073517 64.8049774
-64.8342133 164.5576019 102.0900192
-150.2203827 163.0453339 118.2739029
173.8477783 167.8102417 64.5649872
-64.8378906 165.1038361 102.1181641
-148.7971497 163.2518768 119.8069382
-149.5185547 163.4204254 119.0531006
173.9373627 168.4415283 64.2230148
-64.8241196 165.6627960 102.0858383
-148.8135681 163.7959747 119.8202438
91.6292953 171.6155548 59.6377220
-64.8367691 166.2107391 102.0994644
-148.8206940 164.3397675 119.8324966
91.6423721 172.2620392 59.3074951
-64.8646317 166.7579803 102.1179657
-148.8199158 164.8835297 119.8497696
92.7153320 172.4654846 60.9203796
-64.8582916 167.3313293 102.0148544
-148.8211365 165.4273682 119.8670273
92.7459717 173.0981445 60.6180840
-64.8681259 167.8953247 101.9542160
172.5613861 171.1044159 64.9262314
-148.8525696 166.5296478 119.8331070
172.6494904 171.7476959 64.5058289
92.7912064 174.3874512 59.8994293
-148.8713379 167.0875549 119.7807007
173.6007080 172.6528625 62.8155212
172.7410583 172.3997498 64.0983734
171.8294830 172.1312103 65.3790665
171.1034851 171.9520874 66.3402557
93.8853760 174.5960693 61.4211464
93.3520660 174.8151398 60.4708939
92.8223953 175.0372467 59.5152245
-64.3852921 169.8930511 100.2850037
-64.9066772 169.5920410 101.7501907
-148.8656006 167.6392059 119.7469940
171.1904907 172.5910034 65.9909134
-64.4031677 170.4765015 100.1345596
-148.8873291 168.1999817 119.6809158
94.9450989 175.5262909 62.3524094
-148.9144440 168.7639618 119.6041031
94.9943924 176.1565552 61.9910927
-148.9372253 169.3291626 119.5267181
170.6934052 174.3489990 65.7026520
169.8188477 174.1054840 66.7867966
95.0202484 176.8145752 61.5709877
94.5145340 177.0201569 60.6904907
-147.5427246 169.5554047 120.8672791
-148.2148285 169.7136841 120.1976929
-148.9513702 169.8925781 119.4546280
169.9232483 174.7673492 66.3633728
95.0652313 177.4739532 61.1647644
-64.9422150 172.5189514 100.9952545
-147.5718689 170.1225586 120.7771149
170.0440979 175.4360962 65.9036560
95.0654755 178.1683044 60.6542130
-64.9483032 173.1194916 100.7792892
-65.4480972 172.8265381 102.1726456
-65.9246216 172.5567474 103.4747238
-147.6004791 170.6913910 120.6768723
-64.9845123 173.7100372 100.5880737
-65.9332886 173.1538849 103.2742615
-147.6440125 171.2680664 120.5474930
169.4036713 176.5374603 65.9891281
168.6448517 176.3504944 66.8656464
96.2407303 179.0426025 61.6290474
-65.9387589 173.7431183 103.1040039
-147.6634064 171.8386841 120.4293976
168.7314148 177.0143890 66.3948212
96.2790070 179.7188416 61.1365585
-65.4556046 174.5797424 101.6850815
-65.9477005 174.3128662 102.9578857
168.8437347 177.6963043 65.8747177
-146.3807220 172.6766357 121.4831009
-146.3928833 173.2476654 121.3508987
169.0955811 179.0777435 64.6431961
97.4197693 181.3768005 61.2550850
