-133.7930603 115.2068710 107.9789276
-136.3043213 115.4455185 106.4697342
165.4667358 120.3496170 59.3359528
162.6262512 120.0214081 61.9446411
159.8714294 119.7558594 64.1162186
96.4060516 121.4977493 57.4839134
94.2714157 121.8821411 54.9201813
92.1631317 122.3238754 51.9625435
-80.6180649 118.2428436 97.2011337
-82.6264191 117.8973083 99.8560410
-84.6698990 117.6040573 102.1500854
-86.7303619 117.3513947 104.1567154
-133.4376526 117.0931091 110.3307190
-135.9167175 117.3144684 108.9576416
-138.4563904 117.5813293 107.3020782
165.1670990 122.3598633 61.0582619
162.3554993 122.0462494 63.5261688
159.6216736 121.7892151 65.5767899
92.0180740 124.4085083 53.4779816
-78.3739700 120.4875259 96.8766403
-80.3811035 120.1034393 99.7567825
-82.4045486 119.7807770 102.2232361
-138.0962830 119.4637756 109.6165619
-140.6511688 119.7579651 107.8103180
167.8036804 124.7688446 59.6959763
164.9104919 124.3953934 62.5389709
162.1228027 124.0916748 64.8935165
159.4048157 123.8422089 66.8594666
91.8826294 126.5183105 54.7538986
-76.1691895 122.7897110 96.1662903
-78.1561966 122.3622437 99.2958374
-80.1797562 122.0006714 101.9782028
-82.2128143 121.6924591 104.3025589
-137.7672119 121.3763962 111.6682281
-140.3029785 121.6545563 109.9951172
167.5462799 126.8108444 61.1306763
164.6843109 126.4491272 63.8314323
91.7819595 128.6475220 55.8608360
-75.9685822 124.6742859 98.4868469
-77.9700165 124.2707291 101.4061432
-137.4844055 123.3111496 113.4839020
-139.9941864 123.5783844 111.9165344
-142.5697632 123.8914642 110.0452728
170.2999573 129.3219757 59.1109619
167.3374481 128.8782043 62.3278198
164.4873657 128.5224304 64.9502335
91.6876907 130.7957306 56.7903709
-73.8087387 127.0523300 97.2526245
-75.7979965 126.5922775 100.4924469
-77.8031769 126.2042236 103.2498169
-137.2356873 125.2650146 115.0972672
-139.7252502 125.5247345 113.6162033
-142.2820587 125.8270569 111.8553696
170.1002350 131.4007874 60.2408829
91.6177139 132.9622040 57.5680656
-71.6903076 129.5109863 95.5399704
-73.6553268 128.9796448 99.1912003
-142.0218811 127.7862778 113.4494019
-144.6150818 128.1301422 111.4700241
169.9332275 133.5055389 61.1657600
91.5601730 135.1487427 58.1879463
-71.5422363 131.4468994 97.4067459
-73.5165100 130.9375305 100.8451309
-141.8058929 129.7675629 114.8417511
-144.3763733 130.1007385 112.9662094
169.8016205 135.6364441 61.8890572
131.6508026 133.5557861 78.5906448
129.3242798 133.6008301 78.5304642
95.7846451 136.5040588 63.5755157
93.6456757 136.9051361 61.2695999
91.5095673 137.3578339 58.6392899
-71.4128723 133.4168396 98.9874115
-73.4005203 132.9218597 102.2825317
-141.6113892 131.7666016 116.0792618
-144.1683044 132.0949097 114.2677231
169.7101135 137.7939606 62.4191589
131.5984497 135.7033081 78.9613495
129.2701416 135.7516632 78.8900604
95.7547150 138.7139587 63.9073715
93.6130142 139.1226501 61.5998611
-69.3566055 135.9977570 96.5749054
-71.3079681 135.4135895 100.3539581
-73.2981720 134.9277039 103.5304108
-141.4437561 133.7811127 117.1684265
-143.9889984 134.1074829 115.4136658
169.6448364 139.9745483 62.7896233
95.7243652 140.9459229 64.0939713
93.5891113 141.3631897 61.7790527
-69.2532196 138.0095215 97.8530807
-141.3025513 135.8166046 118.1061096
-143.8320007 136.1394958 116.3993530
-146.4331207 136.5157166 114.3794098
169.6134949 142.1840363 62.9715004
95.7195816 143.1942444 64.1726074
93.5843353 143.6234589 61.8320999
-69.1754608 140.0493774 98.9305573
-141.1786041 137.8657227 118.9226608
-143.7005615 138.1894989 117.2481079
-146.2920532 138.5637817 115.2760773
169.6128845 144.4200134 62.9868164
95.7187653 145.4668884 64.1086121
93.5886230 145.9091187 61.7334900
-69.1124039 142.1200104 99.7910919
-146.1737976 140.6331940 116.0204544
169.6492004 146.6926727 62.7875443
95.7404404 147.7603912 63.9174805
93.6104660 148.2193909 61.4965706
-69.0672607 144.2156067 100.4799042
-146.0971680 142.7278900 116.5961761
169.7146606 148.9945679 62.4194069
166.7818146 148.4998169 65.5109558
163.9561310 148.1013031 68.0384369
95.7739105 150.0818024 63.5807495
93.6488419 150.5553284 61.1143417
-69.0402222 146.3387451 100.9909821
-146.0352631 144.8402100 117.0557251
-148.6728821 145.2849121 114.8038635
166.8749695 150.8171082 65.0256882
164.0318451 150.3973694 67.6399002
95.8148041 152.4330902 63.0854645
93.7012482 152.9267578 60.5515747
-69.0203705 148.4934692 101.3099060
-145.9902039 146.9733429 117.3844299
-148.6267395 147.4256592 115.1312866
166.9912720 153.1698914 64.3535156
164.1384277 152.7315826 67.0566254
95.8885193 154.8101807 62.4489365
93.7739258 155.3302307 59.8203125
-69.0145950 150.6776733 101.4602356
-70.9883728 150.0800629 104.9249573
-72.9954300 149.5743713 107.8893509
-145.9699249 149.1302185 117.5755692
-148.6224060 149.5961761 115.2894135
167.1512909 155.5714111 63.4343262
164.2737732 155.0966644 66.2881927
95.9665985 157.2322998 61.6050720
93.8585968 157.7829742 58.8538361
-69.0326996 152.8920135 101.4411163
-71.0027008 152.2752380 104.9586029
-72.9939423 151.7614136 107.9284821
-145.9784088 151.3124390 117.6253815
164.4509583 157.5130005 65.2891998
161.6505127 157.1041260 67.7348175
158.9260406 156.7731628 69.7688446
100.3328552 158.7301331 65.2563171
98.1966934 159.1792603 63.0765381
96.0667114 159.6969147 60.5540390
-71.0187607 154.5073395 104.8019257
-73.0198593 153.9705505 107.8455353
-140.9045868 152.7336426 121.2006073
-143.4282227 153.0997772 119.5102844
-146.0131378 153.5227661 117.5288773
164.6680756 159.9799500 64.0374146
161.8406525 159.5362854 66.6426697
159.0942841 159.1772766 68.7980957
100.4389420 161.1824951 64.2185669
98.3100128 161.6611176 61.9280243
96.1943130 162.2104187 59.2782059
-71.0635681 156.7656860 104.5083008
-73.0486755 156.2128906 107.5962296
-140.9488525 154.9427338 121.0457001
-143.4779358 155.3215637 119.3200455
-146.0691833 155.7610474 117.2878571
162.0807800 162.0280304 65.2817993
159.3029480 161.6347961 67.5851059
156.6158600 161.3188477 69.4742661
153.9818726 161.0630035 71.0574493
100.5751801 163.6810303 62.9686890
98.4552917 164.1872864 60.5636673
-69.1673889 159.7711945 100.1758804
-71.1176529 159.0655823 104.0126953
-73.1035461 158.4813843 107.2136688
-141.0112457 157.1802216 120.7533417
-143.5590515 157.5774841 118.9664383
162.3714294 164.5820465 63.6063309
159.5545349 164.1469116 66.1131210
156.8368225 163.7957458 68.1583557
154.1812286 163.5160217 69.8478394
100.7347717 166.2338257 61.4759750
98.6220627 166.7894592 58.8753014
-71.1860809 161.4093170 103.3106689
-73.1591339 160.7951965 106.6248016
-141.1014404 159.4475708 120.3175812
-143.6545563 159.8628235 118.4733734
159.8635559 166.7330322 64.3130569
157.1105042 166.3429565 66.5476151
154.4283905 166.0325317 68.3683472
151.8129272 165.7826233 69.8726730
149.2452393 165.5882263 71.1105804
109.5454025 167.0988770 67.5774078
107.3529510 167.4658203 65.9714966
105.1890106 167.8706360 64.1587296
103.0413437 168.3359222 62.0673485
100.9236298 168.8619690 59.6523438
-71.2823639 163.8038635 102.3753967
-73.2410126 163.1491547 105.8466949
-141.2149658 161.7494965 119.7287369
-143.7933350 162.1882629 117.7994461
160.2370148 169.4099426 62.0716438
157.4412537 168.9637756 64.5882034
154.7168732 168.6071167 66.6115952
152.0820923 168.3310394 68.2456665
149.4876862 168.1112976 69.5889053
109.7292862 169.6663208 65.9854660
107.5458527 170.0558777 64.2853394
105.3916016 170.4924316 62.3493118
103.2569122 170.9980469 60.0829086
-73.3399353 165.5521851 104.8451385
-141.3577881 164.0883331 118.9707031
-143.9486694 164.5518951 116.9511795
155.0763550 171.2819519 64.4492264
152.4087830 170.9606018 66.2750778
149.7888184 170.7085419 67.7605286
147.2359314 170.5207214 68.9394073
144.7125549 170.3759308 69.8953247
114.3491974 171.5952911 67.0555267
112.1326447 171.9239349 65.6911392
109.9452972 172.2924500 64.1223221
107.7751846 172.7174988 62.2897835
105.6412277 173.1963654 60.1738167
-73.4692688 168.0200653 103.5670624
-75.4433670 167.3857727 106.8527374
-77.4383087 166.8594971 109.6162109
-136.5140686 165.6895599 121.3130875
-139.0056458 166.0552368 119.7935791
-141.5384064 166.4752502 118.0114670
152.8021393 173.6802063 63.8927307
150.1449432 173.3897095 65.5650406
147.5563354 173.1650543 66.8978271
145.0148010 172.9949341 67.9633560
114.5899582 174.2527008 65.0621033
112.3860474 174.6084900 63.5811005
110.2120056 175.0135193 61.8736610
108.0577850 175.4783020 59.8604813
-75.5779800 169.8675232 105.4988022
-77.5617981 169.2952728 108.4419556
-136.6857605 168.0701599 120.3500137
-139.1951141 168.4597168 118.7459717
150.5899048 176.1933289 62.8324852
147.9516602 175.9169617 64.4015961
145.3820190 175.7183228 65.6116486
142.8610840 175.5736694 66.5491333
140.3811951 175.4793854 67.2449036
119.3165970 176.3811035 65.1609497
117.0863113 176.6687622 64.0245972
114.8796463 177.0068665 62.6581268
112.6917191 177.3945923 61.0457687
110.5338593 177.8461914 59.1302490
-75.7468414 172.4246063 103.8187180
-77.7087402 171.7981110 106.9926605
-79.7130432 171.2697449 109.6941528
-81.7337570 170.8215790 112.0271835
-83.7772751 170.4238586 114.0889587
-85.8318634 170.0943451 115.8763275
-131.9927063 169.8300323 121.8439636
-134.4317169 170.1442566 120.6182251
-136.8963623 170.5033569 119.1769104
-139.4272614 170.9218445 117.4576111
148.4510498 178.8239288 61.2363014
145.8347168 178.5720673 62.7054138
143.2793121 178.3933105 63.8097458
140.7784119 178.2695160 64.6284256
119.6568832 179.1868286 62.5217056
117.4295807 179.5086212 61.2542763
115.2381592 179.8814850 59.7325745
-77.8895798 174.3795624 105.2120819
-79.8756866 173.7999268 108.1309738
-81.8867493 173.3084106 110.6178894
-83.9190674 172.8911438 112.7796326
-85.9690399 172.5290680 114.6719437
-132.2089081 172.2715454 120.6262589
-134.6514587 172.6043091 119.3246613
-137.1382599 172.9919739 117.7750244
143.8092041 181.3668823 60.3655396
141.2772522 181.2099915 61.3729095
138.7790833 181.1094513 62.0841827
136.3361969 181.0717163 62.5200462
133.9187317 181.0802460 62.7239876
131.5432281 181.1353455 62.7088051
129.1875458 181.2401276 62.4705772
126.8711853 181.3899384 62.0178375
124.5747833 181.5931549 61.3257523
122.3091354 181.8416748 60.4103279
120.0740585 182.1445618 59.2437744
-80.0677414 176.4140472 106.2088776
-82.0675354 175.8747864 108.8998795
-84.0901184 175.4144592 111.2239685
-86.1348267 175.0179443 113.2439880
-132.4488831 174.7667236 119.1844864
-134.9127655 175.1264343 117.7807465
134.4638672 184.1604156 58.8933296
132.0693054 184.2053986 58.9337387
129.7128448 184.3185272 58.6832237
127.3893890 184.4838867 58.1669197
-80.3169022 179.1403656 103.8159637
-82.2842712 178.5305481 106.8203735
-84.2895966 178.0138702 109.3609772
-86.3229370 177.5907288 111.5111160
-132.7395020 177.3325806 117.4678421
-135.2346802 177.7351074 115.9008102
-84.5313644 180.7293854 107.0578232
-86.5543976 180.2410889 109.4406891
-88.5921631 179.8345490 111.4766083
-90.6500549 179.4914398 113.2309265
-123.4526062 178.8007813 119.7187195
-125.7935944 179.0187836 118.9787903
-128.1855469 179.2899933 118.0157242
-130.6072083 179.6040802 116.8489914
-133.0789490 179.9850464 115.4032059
-86.8254547 183.0240326 106.8752289
-88.8475037 182.5528870 109.1545105
-90.8996811 182.1643066 111.0818939
-123.7526474 181.4169464 117.7960205
-126.1168976 181.6651001 116.9408417
-128.5274048 181.9665680 115.8576660
-91.1966095 184.9738770 108.4216003
-93.2552261 184.5935059 110.2782593
-95.3377991 184.2887268 111.8318558
-97.4342346 184.0306549 113.1576538
-99.5569534 183.8321228 114.2652206
-119.4326477 183.7295837 116.7757111
-121.7482681 183.9086761 116.2301254
-124.1092453 184.1414032 115.4638214
-126.4983444 184.4226685 114.4780273
-95.6726837 187.1483307 108.9751205
-97.7631226 186.8592224 110.4373322
-99.8772278 186.6230469 111.6725998
-119.8178406 186.5249786 114.1705093
-122.1533203 186.7367554 113.5076218
-124.5413666 187.0049438 112.5948334
-100.2714996 189.5888824 108.4196625
-102.3925476 189.3727722 109.5556030
-104.5444107 189.2129974 110.4615631
-106.7067871 189.1046295 111.1515198
-108.9043350 189.0464172 111.6230545
-111.1277237 189.0335236 111.9017334
-113.3712234 189.0741119 111.9752960
-115.6462250 189.1604462 111.8427963
-117.9448318 189.3001709 111.4910431
-120.2904816 189.4948578 110.9023895
-107.2093124 192.2245331 107.2906265
-109.4074097 192.1563263 107.8144226
-111.6369095 192.1490173 108.0916443
-113.8942871 192.1940002 108.1172638
133.3749237 93.1079407 35.8741913
132.1373596 93.1101913 35.9891663
128.5304260 93.1724167 35.6240387
127.3424454 93.2255249 35.2336617
140.5064392 94.0426102 37.4804039
139.1862793 93.9535065 38.3213654
136.5769043 93.9045944 39.3410187
135.3091278 93.9134979 39.6869621
134.0770111 93.9017105 39.9201508
132.8385315 93.9001007 40.0716362
131.6114197 93.9000015 40.0732269
128.0110779 93.9795837 39.6738205
126.8303070 94.0245514 39.3644485
125.6771774 94.0738602 38.9810104
124.5107880 94.1282806 38.4285736
123.3786163 94.1778946 37.8374176
122.2409363 94.2446365 37.1374588
139.9509888 94.8518066 41.4076462
138.6551208 94.7931519 41.9594269
137.3631287 94.7475204 42.4171219
136.1083984 94.7353973 42.7739487
122.9644928 95.0182037 41.2373390
121.8157959 95.0958405 40.5784378
120.7018661 95.1794357 39.8744354
119.5850220 95.2748260 39.0506325
118.4607391 95.3434067 38.1078339
144.7877655 95.9311218 41.6066742
143.4252625 95.8613510 42.5333633
142.1040955 95.7925949 43.2922668
140.7991943 95.7248993 43.9396706
139.5152588 95.6768570 44.4871292
138.2352905 95.6403198 44.9326057
136.9721069 95.6015625 45.2594528
135.7309113 95.5898285 45.5598373
122.6076660 95.8677902 43.9796028
121.4591141 95.9429474 43.4236412
120.3243484 96.0224915 42.7982750
119.2068939 96.1132965 42.0852966
118.0985184 96.2154694 41.2891312
116.9902954 96.3170395 40.3313789
115.8863525 96.4196320 39.2917557
114.7995605 96.5215225 38.1389771
147.0528564 96.9321594 42.7948608
145.6663208 96.8486481 43.8400879
144.3404999 96.7670517 44.7044868
142.9955750 96.6944885 45.4592667
115.5420914 97.2991028 42.1728058
114.4596024 97.4238205 41.2089920
113.3617249 97.5280914 40.0363312
150.7945862 98.1000824 42.1917191
149.3640900 97.9909744 43.5670700
147.9508972 97.8817902 44.7658958
146.6146851 97.7780380 45.7062378
145.2693787 97.6977615 46.5710335
143.9642792 97.6205292 47.2846794
142.6235962 97.5717697 47.9794960
115.2566681 98.1838150 44.6715431
114.1614761 98.2950821 43.7334061
113.0570984 98.4223938 42.6760445
111.9952545 98.5587540 41.5761528
110.8992233 98.6823578 40.2655640
151.7371063 99.0448532 43.9327850
150.3181915 98.9532394 45.2506180
110.6227951 99.5930252 42.8706245
109.5528259 99.7386627 41.6105347
154.1891785 100.1881485 43.8116531
152.7365723 100.0239868 45.3918076
151.3094482 99.9191818 46.6754608
149.9247437 99.8124008 47.7970428
110.3712463 100.4934540 45.1419640
109.2864838 100.6351776 43.9750710
155.1839600 101.2292633 45.0874023
153.7346344 101.0583572 46.5973740
152.3103180 100.9350433 47.9556427
110.1311340 101.4225845 47.1264801
109.0452499 101.5514603 46.0514374
107.9684219 101.6957092 44.8870201
106.8992157 101.8519287 43.5916481
105.8495941 102.0338898 42.1754417
104.7663116 102.1873703 40.5455551
156.2415314 102.2289505 46.1326599
154.7901611 102.0791779 47.6383591
153.3607178 101.9370880 48.9714432
151.9839478 101.8157959 50.0955582
109.9302139 102.3710632 48.9218559
108.8443985 102.4960709 47.9262009
107.7506866 102.6338425 46.8257484
106.6849670 102.7834244 45.6539917
105.6246185 102.9492188 44.3453140
104.5457458 103.1211166 42.8527946
157.3432770 103.2517319 47.0831909
155.8495483 103.1058807 48.5557137
154.4326782 102.9680023 49.8799400
105.4090729 103.8816376 46.2758331
104.3346405 104.0531464 44.9042740
103.2825394 104.2217560 43.4535713
-105.5829086 101.6181030 84.2438202
-109.8868408 101.3878632 86.5525665
-111.0033035 101.3508301 86.8898926
-112.1384125 101.3363113 87.1170502
-113.2804108 101.3355103 87.2673111
-114.4160767 101.3466034 87.3309021
-117.9522705 101.3885422 86.9698639
-119.1569672 101.4149628 86.6480789
158.3959961 104.3062210 47.7812119
156.9377594 104.1506500 49.3182373
155.4931946 104.0070496 50.6907425
154.1222382 103.8783112 51.8482895
105.2123947 104.8314056 48.0044174
104.1329346 104.9935913 46.7201500
103.0786133 105.1681747 45.3592072
102.0133743 105.3285370 43.8883667
-100.9062195 102.6597137 84.4208527
-105.0942688 102.3004150 88.0291901
-106.1673813 102.2430115 88.6275864
-107.2652130 102.1900406 89.1436157
-108.3477020 102.1411819 89.6075516
-109.4495697 102.1022797 89.9751892
-110.5689163 102.0742798 90.2481155
-111.6787262 102.0639725 90.4755707
-112.8329620 102.0571594 90.6213226
-113.9542465 102.0652313 90.7118988
-115.1127014 102.0779572 90.7087097
-116.2706757 102.1042633 90.6320648
-117.4578400 102.1382828 90.4869843
-118.6284790 102.1786499 90.2893906
-119.8194427 102.2240601 89.9920502
-121.0468369 102.2586288 89.5658569
-122.2766113 102.3103333 89.0958252
159.5261841 105.3852081 48.3001823
158.0529938 105.2130280 49.9231491
156.6112366 105.0601654 51.3372040
102.8898621 106.1177368 47.1082420
101.8351593 106.2958984 45.7223663
100.7671814 106.4553757 44.1961594
-98.4181671 103.6012802 85.8214569
-99.4482040 103.4936066 86.9780426
-100.4799576 103.3921967 88.0089722
-101.5200424 103.2935791 88.9081268
-102.5844727 103.2009964 89.7145157
-103.6297760 103.1235199 90.4074402
-104.7158356 103.0600586 91.0410309
-121.8151932 103.1042633 92.2613373
-123.0423050 103.1750641 91.7872238
162.2115479 106.6743240 46.7703476
160.6594849 106.4709320 48.7273941
159.1637421 106.2837219 50.4234352
157.7314301 106.1199493 51.8553467
156.3225098 105.9821167 53.1270828
102.7285309 107.0815125 48.7422562
101.6545410 107.2542114 47.3818054
100.6036072 107.4328766 45.9550934
-95.0277786 104.7578735 85.2358322
-96.0206604 104.6255646 86.6500854
-97.0379028 104.4865723 87.9255219
-98.0451050 104.3638763 89.0363388
-99.0836639 104.2501068 90.0095520
-100.1312180 104.1539307 90.8936844
-101.1885529 104.0709305 91.6835327
-102.2559814 103.9935684 92.3751831
-103.3086243 103.9309235 93.0021744
-104.4020844 103.8764114 93.5792847
-121.4334488 103.8950806 94.9357758
-122.6576080 103.9579620 94.5378647
-123.8437347 104.0302658 94.0863342
-127.6166611 104.3100281 92.0332336
161.8135986 107.5589828 49.0414810
100.4430618 108.4026184 47.5661926
99.3749542 108.5911179 46.0562325
-93.6605453 105.6804428 87.0622559
-94.6698608 105.5327682 88.4323273
-95.6720886 105.3911209 89.6201248
-123.5115051 104.8471527 96.5025787
-124.7478256 104.9191589 96.0084381
-125.9504471 105.0110245 95.4669724
-127.2170029 105.1086960 94.7815170
-128.4686432 105.2143478 94.0192719
-129.7570190 105.3155746 93.1441193
161.4759369 108.4682236 51.0273666
100.2784348 109.3779831 49.0259628
99.2149887 109.5660706 47.5689926
98.1742020 109.7593536 46.0384941
-91.3572845 106.7831116 87.0486069
-92.3532410 106.6172485 88.5637665
-93.3456039 106.4628754 89.8833923
-94.3771973 106.3206177 91.0796051
-95.3890610 106.1983643 92.1239777
-123.1891403 105.7028046 98.6730576
-124.4230194 105.7657013 98.2270813
-125.6156540 105.8433228 97.7570953
-126.8591766 105.9331970 97.1807556
-128.0916290 106.0315475 96.5162354
-129.3599243 106.1401138 95.7443848
162.6816559 109.5734406 51.1047783
161.1802979 109.3865585 52.7814941
98.0252457 110.7437134 47.5309525
-89.0861969 107.9110413 86.6452866
-90.0722885 107.7525330 88.3247299
-91.0557404 107.5766907 89.7890625
-127.7722931 106.8711853 98.7007904
-129.0204315 106.9709320 98.0345764
-130.2875366 107.0758743 97.2583771
-131.5437164 107.2045441 96.4172821
-132.8838806 107.3059235 95.4132080
163.8565979 110.7027283 51.1567230
162.3635406 110.5002441 52.8738022
160.9075012 110.3260880 54.3798828
97.8808899 111.7248001 48.8934441
96.8334503 111.9280853 47.3569946
95.7694321 112.1326599 45.6693039
-88.8180389 108.7275162 89.3933868
-89.8089676 108.5555267 90.8634033
-90.8031616 108.3955460 92.1572189
-127.4894638 107.7434235 100.6602783
-128.7158203 107.8340683 100.0615005
-129.9752502 107.9336166 99.3649902
-131.2169037 108.0531311 98.6122284
-132.5045776 108.1768188 97.7353668
-133.7915039 108.2897568 96.7926254
165.1303101 111.8435669 50.9478073
163.5866089 111.6290359 52.8187408
95.6578674 113.1351547 47.0736961
-85.6306152 110.1539536 86.7061005
-86.6024323 109.9295807 88.6162262
-87.5758667 109.7295685 90.2544861
-88.5661774 109.5542450 91.7160950
-132.1881866 109.0338593 99.8031693
-133.4527588 109.1514969 98.9393387
166.3462067 113.0029449 50.7131004
164.8345642 112.7726059 52.6183968
163.3200073 112.5729523 54.3559418
95.5302505 114.1284790 48.3803635
94.4656830 114.3437195 46.6894836
-84.4243774 111.1848755 87.4578781
-85.3730392 110.9578781 89.2978516
-86.3595505 110.7511444 90.9680634
-87.3404999 110.5735474 92.4335327
-88.3431015 110.4124832 93.7690582
-131.9143066 109.9069519 101.6358032
-133.1571503 110.0276108 100.8436127
-134.4642944 110.1559525 99.9307861
-135.7598572 110.2845230 98.9503632
166.0731506 113.9322357 52.3449478
95.4147339 115.1243134 49.5980606
94.3616333 115.3493881 47.9529037
-82.2720718 112.4732590 85.8094254
-83.2114639 112.2282410 87.9475861
-84.1821136 111.9969482 89.8824844
-134.1725464 111.0381012 101.7669296
-135.4386902 111.1761017 100.8694382
-136.7708435 111.3244629 99.8110123
-138.1154633 111.4672394 98.6654587
167.3920593 115.0822449 51.9187622
165.7963562 114.8771896 53.8792763
95.2962875 116.1273651 50.7154160
94.2583313 116.3506927 49.1480026
93.1896820 116.5867615 47.3830528
-82.0352783 113.2983932 88.3674393
-82.9799805 113.0579300 90.2611542
-83.9656525 112.8401871 91.9541016
-133.9248505 111.9277954 103.4314423
-135.1829071 112.0564423 102.5921021
-136.4888611 112.2013626 101.6229858
-137.7829285 112.3505402 100.6053162
167.1141968 116.0472717 53.4031830
165.5788879 115.8276672 55.2057724
93.0902634 117.5987701 48.5443077
-80.8587036 114.3793030 88.5740738
-81.8238373 114.1281815 90.5614471
-136.2260284 113.0924301 103.2862930
-137.5099945 113.2398453 102.3247833
-138.8497314 113.3840714 101.2422180
168.4382019 117.2391663 52.7907257
166.8717346 117.0135574 54.7360687
165.3719788 116.7979736 56.4363594
92.9769592 118.6101608 49.5736618
91.9488525 118.8459320 47.8770370
-79.7023468 115.4853668 88.6787643
-80.6556015 115.2146454 90.6679306
-81.6389999 114.9871216 92.4862442
-135.9856720 113.9985809 104.8148499
-137.2604675 114.1418076 103.9215393
-138.5825806 114.2949524 102.8930511
168.1842804 118.2095490 54.1151352
92.8801651 119.6312561 50.5651321
91.8698273 119.8697662 48.9244423
-78.5590820 116.5963287 88.6176605
-79.5084686 116.3271027 90.7007294
-138.3338318 115.2001724 104.4282837
169.5236206 119.4302902 53.3507156
167.9783936 119.1775360 55.3205948
92.8057556 120.6527176 51.5152702
91.7731247 120.8949585 49.8627625
90.7119446 121.1462555 48.0449333
-78.3826141 117.4505081 90.6085587
-79.3361206 117.1974640 92.5083008
-138.0962524 116.1128311 105.8595123
-139.4126282 116.2669449 104.8567123
-140.7300110 116.4249573 103.7898712
169.3014832 120.4018555 54.5688705
167.7617493 120.1543045 56.4789429
90.6405792 122.1813202 48.9925690
-77.2571869 118.5922852 90.3839111
-78.2196884 118.3239517 92.3913116
-79.1906052 118.0902557 94.1660309
-140.4991913 117.3460312 105.1941147
-141.8490906 117.5034866 104.0696411
169.1076660 121.3798752 55.6888580
167.5843353 121.1420288 57.5067749
90.5542908 123.2173920 49.8386841
89.5232086 123.4804535 48.0092163
-76.1487122 119.7526855 90.0323792
-77.0910950 119.4680862 92.1015320
-78.0696259 119.2166595 93.9759369
-79.0556488 118.9978104 95.6575623
-140.2774658 118.2773895 106.5271149
-141.6069183 118.4397430 105.4418030
-142.9394684 118.6047668 104.2921829
170.4809418 122.6231384 54.7403183
168.9313202 122.3658752 56.7061462
167.4193420 122.1403122 58.4403267
90.4822388 124.2545013 50.6571426
-75.0395889 120.9328308 89.4855881
-75.9981079 120.6315765 91.7333374
-76.9502945 120.3666229 93.6670380
-142.7094727 119.5457382 105.6069870
170.2904358 123.6121750 55.7714958
168.7731628 123.3645325 57.6276855
167.2826233 123.1453094 59.2867279
90.4184875 125.2992554 51.4239082
89.3868713 125.5623779 49.6593094
-74.8913269 121.8183899 91.1637344
-75.8644180 121.5298386 93.2782059
-76.8251190 121.2794342 95.0894928
-142.4954529 120.4792175 106.8598099
171.7025146 124.8858337 54.6283188
170.1416473 124.6103821 56.6829491
90.3498077 126.3513870 52.1067123
89.3281097 126.6151505 50.3825684
-73.8235931 123.0155029 90.5534821
-74.7561874 122.7150574 92.6939926
-142.3072052 121.4185944 108.0233231
171.4990845 125.8828735 55.6066818
169.9841766 125.6170044 57.5565186
90.2851334 127.4101791 52.7231750
89.2686844 127.6742172 51.0326729
-73.6961670 123.9160614 92.0790710
-74.6385651 123.6278610 94.0997314
-142.1440735 122.3662796 109.0887299
-143.4972534 122.5432968 107.9741745
-144.8058472 122.7358704 106.8188477
171.3849182 126.8911438 56.4077606
169.8400879 126.6278305 58.3485794
90.2328186 128.4730225 53.3078842
89.2046280 128.7380524 51.6246414
88.1400909 129.0249329 49.7439194
-72.6053162 125.1427307 91.2095413
-73.5735245 124.8311234 93.4456329
-74.5278625 124.5559158 95.3770370
-144.6343536 123.6871719 107.9001541
-145.9853821 123.8808746 106.6689453
172.8514404 128.2063446 55.0028763
171.2242126 127.9071732 57.2034912
169.7211609 127.6489410 59.0544319
90.1776810 129.5432129 53.8404503
89.1561890 129.8039398 52.1957817
-71.5560150 126.3856430 90.2604294
-72.5005035 126.0591965 92.5914078
-73.4705048 125.7577515 94.7165680
-74.4309921 125.4965973 96.5483551
-144.4624786 124.6416168 108.9266968
-145.8076324 124.8366318 107.7234802
172.7150726 129.2275543 55.7591629
90.1258240 130.6179199 54.3200760
89.1026230 130.8766479 52.7005768
-71.4606781 127.3081512 91.6485062
-72.3902283 126.9901733 93.8497467
-144.2888947 125.6016159 109.9002075
-145.6355286 125.7991486 108.7195358
-146.9976196 125.9969482 107.4621811
172.5760193 130.2527924 56.4705086
90.0950089 131.6965637 54.7799301
89.0733337 131.9593048 53.1559868
-70.3984833 128.5868225 90.4507904
-71.3557816 128.2364655 92.9058990
-72.2996521 127.9299927 95.0081863
-144.1498260 126.5695419 110.7850494
-145.5036621 126.7646027 109.6242828
-146.8235016 126.9678726 108.4270935
172.4629364 131.2876892 57.0924568
90.0606232 132.7837524 55.1686096
-70.3087463 129.5205994 91.7194595
-146.6679993 127.9361725 109.3372040
173.9969788 132.6450043 55.4326935
172.3585205 132.3279419 57.6695099
90.0113678 133.8763123 55.5082130
-69.2492676 130.8277740 90.3380585
-70.2216110 130.4631348 92.8869476
-146.5317078 128.9101410 110.1838150
172.2644043 133.3762512 58.1824951
89.9841309 134.9668884 55.8518219
-70.1279678 131.4185791 93.8935471
-146.4106750 129.8920593 110.9695435
173.7914734 134.7498474 56.4548454
172.1799927 134.4326019 58.6310539
89.9498444 136.0669556 56.1310806
-69.0973358 132.7313232 92.5504379
-70.0498199 132.3848877 94.8458939
-146.2919312 130.8797913 111.7072067
173.7187805 135.8108521 56.8836517
172.1299133 135.4987183 59.0063248
89.9313812 137.1719971 56.3739204
-69.0316238 133.6988983 93.5170517
-69.9842300 133.3587952 95.7350311
-146.1768036 131.8737335 112.3922348
-147.5152588 132.0859985 111.1954498
173.6476746 136.8773193 57.2744675
172.0643005 136.5683594 59.3576584
89.9128723 138.2833099 56.5755615
-68.0011597 135.0435028 91.9583130
-68.9622879 134.6757813 94.3681564
-69.9224777 134.3428650 96.5400314
-146.0694733 132.8734894 113.0338593
-147.3982239 133.0823822 111.8684082
173.6141510 137.9614258 57.5453606
172.0114136 137.6475983 59.6401215
92.0039215 138.9057617 59.5893173
90.9693832 139.1425476 58.2272453
89.8887939 139.4029694 56.7227249
-67.9348068 136.0224915 92.8053131
-145.9840088 133.8784180 113.6256409
-147.2966614 134.0820313 112.5013657
-148.6588745 134.3062286 111.2449112
173.5490570 139.0493622 57.7885361
171.9844055 138.7369385 59.8554993
91.9996185 140.0211792 59.7281647
90.9498215 140.2649841 58.3361282
-67.8761444 137.0137177 93.5983429
-145.8959503 134.8886108 114.1770172
-147.2300720 135.0930328 113.0464020
-148.5585175 135.3134918 111.8416290
173.5099945 140.1450500 57.9800949
171.9292145 139.8228760 60.0894508
91.9847260 141.1473541 59.8022537
90.9450836 141.3914185 58.4195175
-67.8346100 138.0181732 94.2880249
-148.4794312 136.3291321 112.3740158
-149.8233337 136.5622101 111.0854797
173.4731903 141.2431641 58.1481552
171.8959351 140.9203339 60.2440834
91.9771729 142.2771301 59.8514862
90.9347916 142.5243225 58.4617462
-67.7847977 139.0276794 94.9249268
-148.3992157 137.3467712 112.8792038
-149.7345886 137.5814667 111.6083145
-151.1718597 137.8369141 110.1677780
173.4629211 142.3594055 58.2039795
171.8853455 142.0311890 60.3172607
91.9799881 143.4095001 59.8762169
90.9265366 143.6646729 58.4616280
-67.7522354 140.0386810 95.5495529
-148.3129883 138.3688965 113.3606339
-149.6529541 138.6040039 112.0895386
173.4380951 143.4748230 58.2615509
171.8794861 143.1475525 60.3563766
91.9779892 144.5521851 59.8487740
90.9350586 144.8067627 58.4447975
-66.7483749 141.4670715 93.5849152
-67.7073746 141.0659027 96.0580444
-148.2537231 139.3991852 113.7796173
-149.5963287 139.6353912 112.5148773
173.4423676 144.6040955 58.2362595
171.8883057 144.2735596 60.3349190
91.9823837 145.7000885 59.7884903
90.9379883 145.9563751 58.3892212
-66.7144852 142.4941559 94.1093521
-67.6737518 142.0986176 96.5279617
-148.1945496 140.4349213 114.1590652
-149.5235901 140.6710358 112.9121933
-150.9343872 140.9301147 111.5163498
173.4742889 145.7513733 58.1104965
171.9125366 145.4117889 60.2480659
91.9834900 146.8565521 59.6824417
90.9349518 147.1177826 58.2678909
-66.6890106 143.5309906 94.5701370
-67.6431885 143.1399231 96.9388885
-148.1417542 141.4774628 114.4969864
-149.4831085 141.7149353 113.2505341
173.4986115 146.9017944 57.9507332
171.9144592 146.5491638 60.1497536
92.0063858 148.0135345 59.5572739
90.9522247 148.2862244 58.1077652
-66.6572800 144.5823822 94.9349136
-67.6188278 144.1890411 97.2987289
-148.1101074 142.5268250 114.7886963
-149.4214630 142.7596283 113.5801239
171.9639435 147.7097473 59.9364319
92.0207138 149.1846619 59.3711395
90.9688339 149.4628754 57.8992920
-66.6444016 145.6393738 95.2646103
-67.6019135 145.2455292 97.6108398
-148.0498657 143.5748749 115.0831757
-149.3784332 143.8120728 113.8588715
-150.7898865 144.0796204 112.4646225
173.6204834 149.2460327 57.4562149
171.9985046 148.8722076 59.7051582
92.0352478 150.3627014 59.1461105
90.9983368 150.6415100 57.6686058
-66.6311188 146.7070007 95.5277557
-67.5902786 146.3096771 97.8762817
-150.7541199 145.1417847 112.7006531
173.6948090 150.4364929 57.1061401
172.0424805 150.0431213 59.4216728
92.0732956 151.5407104 58.9094925
91.0364914 151.8275146 57.4001389
-66.6186676 147.7812805 95.7478867
-67.5827103 147.3808594 98.0960922
-150.7072754 146.2067261 112.9138184
172.1375122 151.2416992 59.0421410
170.5318604 150.8878937 61.1228027
169.0474091 150.6042328 62.8755035
92.0906830 152.7393951 58.5831337
91.0626831 153.0293884 57.0501404
-66.6155930 148.8616486 95.9298782
-67.5721512 148.4631500 98.2510605
-150.7072449 147.2855682 113.0521240
170.6046143 152.0791168 60.7403259
169.1113586 151.7835541 62.5274048
92.1209183 153.9468689 58.2162971
91.0917282 154.2465057 56.6461411
90.0642242 154.5778046 54.9068069
-66.6128998 149.9554138 96.0357208
-67.5733643 149.5497131 98.3766861
-150.6795349 148.3640442 113.1839523
170.7214355 153.2938843 60.2682838
169.1731873 152.9734955 62.1340370
92.1665573 155.1548920 57.8189430
91.1444855 155.4647217 56.2102661
-66.6171875 151.0584106 96.0919495
-67.5771484 150.6463013 98.4503784
-150.6722717 149.4523010 113.2640686
169.2597504 154.1777344 61.6741829
92.2060394 156.3846436 57.3348694
91.1939697 156.6990356 55.6996002
-66.6239395 152.1713257 96.0876007
-67.5841141 151.7512970 98.4714203
-150.6799927 150.5499573 113.2935257
169.3603210 155.3955231 61.1440735
92.2600861 157.6246490 56.7972069
91.2343445 157.9567719 55.1088409
-66.6411896 153.2952118 96.0215454
-67.5854340 152.8718872 98.4148788
-147.9580994 151.1114197 115.9498596
-149.3053589 151.3687286 114.6893463
-150.6915588 151.6542664 113.2852097
169.4839172 156.6349182 60.5197754
92.3219681 158.8720245 56.2068443
-66.6475525 154.4332886 95.8954773
-67.5983124 153.9947510 98.3410568
-147.9721680 152.2143250 115.9269562
-149.2938843 152.4695740 114.6810913
-150.6952820 152.7640076 113.2448273
169.6260071 157.8934326 59.8009682
168.0687561 157.5590515 61.6901550
166.5587158 157.2677917 63.4043694
94.4623108 159.4953003 58.7684555
93.4256439 159.8018799 57.2345276
92.3819656 160.1405945 55.5361328
-67.5853806 155.1366577 98.1960144
-68.5664291 154.7501526 100.3271332
-69.5396729 154.3997345 102.2872543
-147.9884033 153.3247375 115.8654633
-149.3258514 153.5880127 114.5885468
168.1846161 158.8031616 61.0090599
166.6797180 158.5049896 62.7641296
94.5279083 160.7490234 58.1384239
93.4966888 161.0659637 56.5552521
92.4463806 161.4275818 54.7926445
-68.5850372 155.8877716 100.1654510
-69.5535583 155.5324097 102.1420364
-148.0134125 154.4433899 115.7574768
-149.3704987 154.7170258 114.4453735
168.3436890 160.0856628 60.1931305
166.7823181 159.7453461 62.0796738
94.5917206 162.0248871 57.4205322
93.5563583 162.3605652 55.7676163
-67.6390839 157.4473724 97.7238693
-68.6167374 157.0311432 99.9639282
-69.5747681 156.6733856 101.9526062
-148.0475922 155.5710754 115.6090393
-149.3840332 155.8434143 114.3050156
168.5379333 161.3947754 59.2762604
166.9284058 161.0235901 61.2597504
94.6833954 163.3049774 56.6664391
93.6334076 163.6682434 54.9306564
-67.6862869 158.6203308 97.3866043
-68.6356735 158.1986389 99.6641617
-69.6041412 157.8221588 101.7203064
-148.0839539 156.7049713 115.4277267
167.1190948 162.3317871 60.3098030
165.5999756 162.0111389 62.0941811
164.1343079 161.7432098 63.6585350
96.8308182 163.9741821 58.9114876
95.7886963 164.2861786 57.4053917
94.7593460 164.6163330 55.7862892
-67.7058182 159.7999420 97.0221558
-145.4670410 157.3373413 117.5730057
-146.7924347 157.5839844 116.4366913
-148.1419067 157.8517303 115.1906128
165.7688904 163.3103333 61.1712036
164.2680817 163.0065918 62.8407021
96.9114227 165.2718353 58.0732460
95.8775558 165.5997772 56.5141411
-67.7483139 161.0070496 96.5601349
-145.5102844 158.4776764 117.3436661
-146.8355103 158.7289429 116.1905899
-148.1994019 159.0066986 114.9102554
165.9843292 164.6526489 60.1142235
164.4576111 164.3183289 61.8623123
96.9979095 166.5919495 57.1434059
-67.7892151 162.2484741 95.9493942
-68.7710266 161.7545929 98.4700851
-69.7065659 161.3509521 100.6481705
-145.5702515 159.6305084 117.0598297
-146.8922882 159.8862915 115.8809738
164.6324463 165.6421509 60.8062744
97.1114349 167.9280396 56.1347504
-68.8036346 162.9861298 97.8720474
-69.7624512 162.5452118 100.1885834
-145.6583710 160.7996368 116.7120667
-146.9470062 161.0500946 115.5524445
164.8628540 167.0232086 59.6071091
163.3603363 166.6872101 61.3191795
161.8852997 166.4148865 62.8682327
99.3020630 168.6226654 58.1573029
98.2545319 168.9461975 56.6419754
97.2281952 169.2958679 55.0001907
-68.8548203 164.2227783 97.2596130
-69.8134766 163.7645569 99.6250687
-145.7156830 161.9663696 116.3603363
-147.0473175 162.2370605 115.1369247
163.6057129 168.0687561 60.0670319
162.0726624 167.7501221 61.7470551
99.4245377 169.9712982 57.0795364
98.3690720 170.3266907 55.4615822
-69.8755493 165.0031433 98.9789581
-145.8005676 163.1510925 115.9389801
162.2958832 169.1247253 60.4697876
101.6190567 170.7255554 58.7600403
100.5544891 171.0508423 57.3162231
99.5492706 171.3634491 55.8522263
-69.9463577 166.2603302 98.2356262
-70.8919449 165.8286896 100.4960251
-71.8453217 165.4493408 102.4840622
-145.8863678 164.3436890 115.4687347
162.5731506 170.5603180 59.0396118
101.7528152 172.0992584 57.5789528
-70.9685898 167.0823517 99.7672043
-71.9130783 166.6849976 101.8355789
-145.9972076 165.5588989 114.9169922
161.3456116 171.6780090 59.2244110
159.8547974 171.3547211 60.8025894
158.4329681 171.0961151 62.2207031
157.0375671 170.8817139 63.4528122
103.9894028 172.8938599 59.0240440
102.9215088 173.1998138 57.6735115
101.8986511 173.5072937 56.2453804
-70.0574188 168.8821411 96.4181213
-71.0583191 168.3531494 98.9583359
-71.9891205 167.9453125 101.0796585
-143.4377441 166.2281494 116.7395935
-144.7662201 166.4964294 115.5763168
-146.0979309 166.7811279 114.3231812
160.1150208 172.8028107 59.2618752
158.6759491 172.5058136 60.7886620
157.2588501 172.2584686 62.1415482
104.1241608 174.3091431 57.6955147
103.0779114 174.6201477 56.2801361
102.0507584 174.9648743 54.7385445
-71.1240234 169.6756592 97.9894562
-72.0674133 169.2283630 100.2299728
-143.5354309 167.4431152 116.1680145
158.9592285 173.9738770 59.1759796
157.5016632 173.6838989 60.6527481
156.0773621 173.4423065 61.9666328
154.7196350 173.2486877 63.0836792
106.3746185 175.1589661 58.8444977
105.3230515 175.4417419 57.5997620
104.2836914 175.7476196 56.2292099
103.2435989 176.0861664 54.7034683
-72.1418762 170.5362549 99.2901764
-73.1215515 170.0901489 101.4970474
-74.0555115 169.7365112 103.3408203
-141.0259552 168.1654968 117.6999207
-142.3470154 168.4170837 116.6485291
-143.6430664 168.6734467 115.5351486
-145.0020447 168.9718323 114.2919159
157.8004761 175.1632080 58.9555664
156.3500061 174.8902893 60.3762817
154.9658508 174.6699066 61.6090317
106.5401154 176.5922394 57.4008026
105.5051651 176.8912811 56.0805321
-72.2299194 171.8742981 98.2407913
-73.2100525 171.3895874 100.5515976
-74.1457520 171.0162659 102.4819336
-141.1439362 169.3981323 117.0646133
-142.4689331 169.6563568 115.9757996
-143.7742310 169.9246826 114.8254089
156.6614990 176.3986816 58.5847206
155.2253723 176.1252747 59.9552650
153.8264923 175.8971710 61.1896477
152.4850006 175.7186127 62.2295494
108.8274460 177.4951782 58.2746544
107.7737961 177.7756042 57.0683975
106.7254028 178.0742493 55.7509117
-73.2878799 172.7496338 99.4210129
-74.2454224 172.3218384 101.5118866
-141.2679596 170.6426697 116.3620071
-142.5917816 170.9086304 115.2345581
155.5638123 177.6671600 57.9999008
154.1266174 177.3960876 59.3749733
152.7494659 177.1746216 60.5713577
109.0173416 178.9845886 56.6033859
107.9801559 179.2767639 55.3124619
106.9342194 179.6302032 53.8197975
-74.3345947 173.6716003 100.4030609
-141.4077454 171.9054260 115.5810776
154.4879150 178.9914856 57.3185272
153.0607758 178.6921387 58.6728210
151.6596985 178.4816284 59.8218460
150.3054504 178.3067474 60.8286095
113.4925537 179.4575195 59.2481995
112.4300232 179.6855164 58.2879295
111.3447418 179.9454956 57.1922112
110.3050842 180.2045288 56.0452118
109.2379913 180.5171661 54.7121964
-74.4613419 175.0333710 99.2013397
-75.4232483 174.5893707 101.3567963
-76.3724670 174.2159271 103.2325134
-138.9662170 172.6827698 116.8375397
-140.2883148 172.9375153 115.8044434
-141.5576172 173.1894226 114.7319946
153.4685822 180.3506622 56.3575706
152.0025635 180.0577698 57.7215996
150.6066284 179.8348846 58.8721542
113.7137375 180.9574280 57.5125580
112.6457443 181.2125397 56.4383430
111.5799866 181.4924316 55.2483482
110.5457611 181.7930603 53.9736214
-75.5365067 175.9772644 100.0713730
-76.4823608 175.5722809 102.0683594
-139.1072693 173.9578552 116.0094757
-140.4372101 174.2235107 114.9283142
-141.7163239 174.4926758 113.8052826
150.9993591 181.4795837 56.5502739
149.5866699 181.2223511 57.7526436
148.2566528 181.0340881 58.7666779
146.9205780 180.8852386 59.6452942
145.5842590 180.7433319 60.4380646
118.2961044 181.6341553 59.1641579
117.1930389 181.8375092 58.3720779
116.1067810 182.0384064 57.5261612
115.0281830 182.2713470 56.5648117
113.9521942 182.5268555 55.4857521
-76.6067047 176.9566193 100.7772522
-77.5730286 176.5555573 102.7279892
-78.5372314 176.2035828 104.4631958
-136.7087250 174.7844391 117.0061646
-137.9869080 175.0161438 116.0835419
-139.2660980 175.2569580 115.0897980
-140.5947571 175.5341644 113.9560471
148.6388397 182.6833496 56.3572044
147.2662048 182.4716797 57.4086342
145.9090576 182.3225403 58.2985916
118.5388718 183.1852417 57.2091293
117.4437408 183.3983765 56.3403549
116.3754959 183.6232300 55.4018784
115.3013458 183.8846130 54.3301964
-77.6988678 177.9458008 101.4322357
-78.6473312 177.5778809 103.2419357
-136.8746948 176.0901031 116.0796661
-138.1629944 176.3329468 115.1094284
-139.4478760 176.5872345 114.0587158
-140.7977142 176.8851166 112.8511810
147.7440186 184.2648010 54.6096687
146.3320465 184.0215759 55.6850052
144.9981995 183.8526611 56.5707779
143.6720886 183.7161560 57.3663826
142.3877563 183.5970612 58.0346031
141.0937195 183.5050812 58.5860023
139.8368225 183.4492340 58.9956245
138.5761261 183.3880920 59.3669701
137.3596344 183.3625488 59.6449203
136.1296997 183.3453369 59.8538170
125.5196457 183.8341217 58.7433853
124.3683853 183.9613953 58.2893715
123.2556839 184.0976257 57.7793694
122.1275330 184.2538757 57.1804314
121.0224686 184.4085388 56.5290070
119.9194565 184.6156769 55.7322464
118.8347244 184.8153076 54.8891525
117.7534561 185.0679626 53.8792648
-77.8367538 179.3891907 99.9111938
-78.7885284 178.9689026 101.9032288
-137.0348969 177.4034119 115.0850143
142.7967529 185.2872925 55.3489761
141.4675140 185.1720276 56.0194550
140.1862030 185.0844269 56.5288391
138.9249878 185.0203705 56.9832191
137.6942291 184.9902344 57.3325500
136.4624939 184.9731140 57.5797882
125.8244629 185.4325562 56.5182724
124.6774445 185.5915375 55.9767838
123.5709686 185.7292023 55.4148941
122.4519043 185.9100342 54.7297974
121.3544312 186.1141052 53.9741211
120.2539520 186.3605804 53.0801201
-77.9846649 180.9292908 98.0909424
-78.9480667 180.4220886 100.3268280
-137.2196808 178.7509918 113.9667816
138.1243896 186.7333679 54.5101852
136.8708801 186.7072144 54.8683586
135.6221008 186.7068481 55.0914841
134.3900146 186.7018433 55.1968307
133.1762238 186.6915894 55.2285767
132.0071106 186.7349854 55.2034492
130.8160706 186.7985535 55.0727310
129.6374817 186.8610077 54.8647270
128.4805908 186.9435425 54.5528564
127.3478622 187.0564575 54.1714897
126.2103043 187.1807861 53.7152596
125.0722351 187.3399658 53.1070709
-79.0877838 181.9815216 98.4758530
-80.0416565 181.5085297 100.6305008
-81.0266495 181.0778198 102.5675583
-81.9853210 180.7413330 104.2048645
-82.9647369 180.4463043 105.6929245
-134.8767853 179.6283875 114.7261124
-136.1339722 179.8634949 113.7884064
-137.4350128 180.1344604 112.7016373
128.9639587 188.8765717 51.0797501
-81.1667862 182.6054077 100.8752365
-82.1405640 182.1970825 102.6526642
-83.1219788 181.8506165 104.2983627
-135.0780640 181.0087585 113.4867172
-136.3551483 181.2639008 112.4720688
-137.6777954 181.5645905 111.3107758
-83.2941055 183.3146973 102.6831207
-84.2522964 182.9926605 104.2667618
-85.2515030 182.6891479 105.7235260
-130.2775574 181.5417328 115.5094299
-131.4838715 181.7224731 114.8118286
-132.7528992 181.9429932 113.9901505
-134.0056000 182.1676025 113.1083679
-135.3107300 182.4307098 112.0935974
-84.4305649 184.4910126 102.5233841
-85.4186325 184.1534576 104.1305161
-130.4760132 182.9275208 114.2463531
-131.6983948 183.1253357 113.4849014
-132.9860535 183.3674316 112.5876007
-85.6190948 185.6676331 102.3021469
-86.5808945 185.3518982 103.8334961
-87.5770264 185.0547485 105.2391663
-88.5684814 184.7949524 106.4963074
-89.5815659 184.5608826 107.6404877
-128.2177124 183.9593048 114.2815704
-129.4355927 184.1377563 113.6143265
-130.7058411 184.3553467 112.8234558
-131.9331512 184.5653839 111.9985809
-87.7753067 186.5792084 103.4000244
-88.7548141 186.2977905 104.7758179
-89.7606354 186.0197449 106.0609436
-128.4474182 185.4009857 112.8283691
-129.6669769 185.5888824 112.0989914
-130.9517975 185.8274536 111.2215881
-132.2098389 186.0699310 110.2984085
-88.9717712 187.8531189 102.7990112
-89.9567566 187.5518036 104.2027206
-90.9659348 187.2985992 105.4469986
-91.9654922 187.0639801 106.5585632
-93.0009537 186.8600922 107.5830765
-94.0134125 186.6621094 108.5199585
-126.2302094 186.4963226 112.5895233
-127.4483032 186.6710205 111.9458466
-128.7003479 186.8756256 111.1925964
-129.9472351 187.0974121 110.3624115
-90.1960297 189.1631470 102.0222778
-91.1938629 188.8653564 103.4354630
-92.1759872 188.6098328 104.6577148
-93.2011414 188.3660126 105.8125763
-94.2079315 188.1578064 106.8295593
-126.4781036 187.9924164 110.8888321
-127.7269440 188.2008362 110.1339035
-128.9783020 188.4247589 109.3120575
-93.4398804 189.9522095 103.7245026
-94.4339142 189.7203827 104.8589401
-95.4716034 189.5096436 105.8920288
-96.4919052 189.3198395 106.7954712
-97.5329590 189.1648254 107.5977249
-98.5728149 189.0130768 108.3500671
-121.9024277 188.8850098 111.2934418
-123.1202850 189.0351868 110.8046417
-124.3261108 189.1905823 110.2586060
-125.5595856 189.3724060 109.6167450
-126.7791214 189.5675354 108.8977661
-94.7002563 191.3855438 102.4703064
-95.7215805 191.1394653 103.6505737
-96.7352600 190.9336395 104.6614227
-97.7699127 190.7330475 105.5995712
-98.8057022 190.5632629 106.4359360
-122.1965561 190.4550476 109.3262863
-123.4237976 190.6193237 108.7607117
-98.0546188 192.4109344 103.1722565
-99.0790253 192.2192993 104.1249084
-100.1129913 192.0433655 104.9734879
-101.1726379 191.8869476 105.7283707
-102.2091522 191.7594910 106.3594971
-103.2888794 191.6663361 106.9205170
-104.3518295 191.5716248 107.4315720
-105.4504318 191.4915619 107.8864594
-115.4731750 191.4540100 109.1005783
-116.6154633 191.5148315 108.9426575
-117.7751617 191.5951080 108.7230453
-118.9438629 191.6918945 108.4360657
-120.1333542 191.8173065 108.0444183
-121.3475876 191.9651794 107.5446930
-122.5298920 192.1164398 107.0240097
-100.4358521 193.7905273 102.2508163
-101.4956360 193.5973206 103.1137848
-102.5172348 193.4425812 103.8606873
-103.5813446 193.3296356 104.5304489
-104.6386337 193.2327423 105.0954590
-105.7305298 193.1544800 105.5737762
-115.7771072 193.0973358 106.7963867
-116.9261169 193.1752930 106.5841827
-118.1079102 193.2757721 106.2944183
-105.0012817 195.0452576 102.1602478
-106.0826111 194.9357300 102.7151642
-107.1486053 194.8407288 103.1776886
-108.2374573 194.7739410 103.5633469
-109.3479614 194.7361145 103.8645325
-110.4516449 194.7251892 104.1045380
-111.5746994 194.7067871 104.2610168
-112.6884460 194.7149353 104.2947693
-113.8512878 194.7631683 104.2443390
-114.9893799 194.8298035 104.1469574
-116.1678009 194.9313965 103.9275360
-117.3432083 195.0361176 103.6259842
-113.1546173 196.7551270 100.6536331
134.4901428 92.9000168 34.4664917
126.6274185 93.0551834 33.6208763
137.3550568 93.3333435 35.9941521
136.7122650 93.2890778 36.2395172
136.0559387 93.2828293 36.4865417
135.4272766 93.2877350 36.6764221
134.7894287 93.3132706 36.8556023
134.1628265 93.3169937 36.9368515
126.3294373 93.4703293 36.1714668
125.7352905 93.4520645 35.8767509
125.1519394 93.4639130 35.5787354
124.5878143 93.4920654 35.2492142
124.0391464 93.5316772 34.8859291
121.5186462 94.0806503 35.4777031
138.0479126 94.0882950 39.7391014
137.3872223 94.0666275 40.0117149
121.2799683 94.5203247 37.4894867
120.7325211 94.5474854 37.1068840
120.1525803 94.5750885 36.5694695
119.5996475 94.6265717 36.0609627
119.0696564 94.6847763 35.5135689
144.8676147 95.2551880 39.0836868
144.1759338 95.2173538 39.6476746
143.4982758 95.1976700 40.2005501
141.4503784 95.1147766 41.4856300
140.8014374 95.0882492 41.7947235
117.5244293 95.6067352 38.2067909
116.9759827 95.6541367 37.6708107
116.4236450 95.7076111 37.0880852
145.9557343 95.7506409 39.9154091
147.0827789 96.2571182 40.5781517
146.3810272 96.2321548 41.1670685
145.6708527 96.2077103 41.7561493
113.8668442 96.8046341 37.9876060
112.6317291 97.3673706 38.3272018
150.1117401 97.3650436 40.7533913
149.3972778 97.3099289 41.4579964
148.6592102 97.2601776 42.1739273
147.9550781 97.2154922 42.7951355
112.4767990 97.8423004 39.8409424
111.9360199 97.8966141 39.1926231
111.3799210 97.9489288 38.4375839
110.1540833 98.5378265 38.4869537
151.7695313 98.3748245 41.8759155
110.0299530 99.0120697 39.9627495
109.5041428 99.0765686 39.2590828
108.9585495 99.1435547 38.4444008
108.8070374 99.6045380 39.8888321
152.7565155 99.4006958 44.0664139
108.6688232 100.0590973 41.2209015
108.1166687 100.1200333 40.4743004
155.4571075 100.0996552 41.6310768
108.5444794 100.5209274 42.4668427
155.1846619 100.5399704 43.2806129
108.4137573 100.9772491 43.6238174
156.4409637 101.1144562 43.0164871
157.0167847 101.6100769 43.4753304
156.2215271 101.5469437 44.4546051
103.9181061 102.5250168 39.9356041
103.8129196 102.9969864 41.1427307
-111.0201797 100.5696259 80.5661469
-111.5679779 100.5610046 80.7623825
