-131.9030304 161.8029480 107.4516296
-134.3947754 162.1325531 106.0365372
-89.9037781 165.0860596 97.8674316
-91.9560699 164.6831665 100.0768127
-94.0316849 164.3563538 101.9304581
-96.1292572 164.0751495 103.5314560
-125.0141907 163.7388000 108.1449661
-127.3971100 163.9512634 107.3315735
-129.8294373 164.2107849 106.2782440
-132.3018646 164.5240936 104.9637833
-92.2984619 167.5416107 96.9879074
-94.3563843 167.1501617 99.1164169
-96.4433670 166.8322601 100.8919449
-125.4067841 166.4711304 105.6223907
-127.8098526 166.7118683 104.6698380
-96.8269119 169.7458801 97.5853119
-98.9171829 169.4322510 99.3050385
-101.0386353 169.1898804 100.7142868
-103.1710205 168.9912567 101.8778687
-105.3335419 168.8449097 102.8221588
-107.5166779 168.7401428 103.5524445
-109.7157516 168.6716919 104.0997314
-111.9428558 168.6448822 104.4623566
-114.1898499 168.6579437 104.6403656
-116.4748077 168.7066193 104.6281509
-118.7653351 168.7937164 104.4311829
-121.0987091 168.9268646 104.0220184
-123.4650269 169.1077271 103.3844376
-125.8739166 169.3409576 102.4989395
-103.6096191 171.9660645 98.3123169
-105.7685547 171.7888794 99.3860626
-107.9519806 171.6659088 100.2030869
-110.1537781 171.5865936 100.8067474
-112.3834229 171.5569763 101.1789474
-114.6491547 171.5738831 101.3267822
-116.9390640 171.6350403 101.2656097
-108.5177765 174.8450012 95.7093887
130.8262329 73.9128189 27.8837929
136.6163177 74.8157043 30.7324219
135.3173676 74.7967148 31.2692337
134.0217896 74.7995911 31.6826248
132.7571411 74.7931519 31.9745922
131.5127258 74.7912750 32.1422157
130.2798004 74.8018951 32.2366104
129.0504608 74.8120117 32.2278137
127.8309784 74.8168411 32.0980110
126.6307068 74.8261948 31.9045715
125.4330902 74.8338470 31.6192398
124.2675705 74.8727417 31.2541370
123.0959167 74.9313965 30.7436371
121.9458160 74.9930191 30.1513081
120.7924271 75.0311966 29.3726482
140.0465851 75.8603745 32.5816879
138.7046204 75.8158035 33.3494225
137.3963623 75.7731018 33.9681320
136.0923157 75.7414322 34.5014801
134.8291321 75.7125015 34.9018326
133.5443268 75.6917267 35.1951675
132.2970581 75.6739349 35.3638344
131.0719147 75.6747589 35.4775162
129.8442078 75.6840363 35.5385971
128.6268616 75.6923828 35.4953270
127.4200211 75.7149658 35.4081650
126.2193375 75.7260361 35.1861572
125.0253067 75.7452698 34.8905067
123.8609238 75.7858505 34.5751038
122.6774750 75.8341370 34.1466827
121.5162354 75.8903046 33.6241837
120.3675079 75.9454803 33.0142746
119.2298203 75.9967346 32.3106422
118.0988693 76.0751343 31.5116272
116.9589844 76.1187134 30.5357132
142.2224121 76.8770370 34.4266472
140.8897400 76.8168411 35.2902374
139.5643921 76.7594833 36.0046272
116.5942535 77.0820007 33.7704544
115.4858780 77.1603241 32.8475418
114.3810501 77.2409897 31.8062782
144.4972229 77.9104614 35.7155418
143.1333160 77.8436050 36.6770744
141.7895203 77.7836456 37.5053558
140.4698029 77.7287064 38.2113380
139.1599731 77.6940613 38.8227386
116.2804031 78.0247040 36.4831085
115.1610260 78.1019363 35.6498108
114.0467148 78.1896210 34.7387924
112.9519806 78.2736664 33.7257004
111.8278351 78.3335266 32.5592728
146.8199005 78.9900360 36.5351028
145.4399719 78.9110336 37.6258469
144.0715179 78.8390503 38.5847321
111.5338669 79.3292542 35.2887878
110.4378357 79.4158936 34.1731911
146.4137573 79.9251938 39.2819862
145.0641022 79.8510971 40.2140007
143.7173309 79.7952042 41.0519676
111.2697144 80.2919922 37.6490555
110.1692886 80.3929825 36.6327286
109.0735855 80.4943390 35.4799347
107.9826050 80.6026611 34.2116203
151.6457825 81.2491150 37.0036430
150.2008209 81.1521683 38.4163551
148.7861176 81.0513535 39.6721802
147.4246216 80.9556274 40.7085571
146.0652466 80.8804550 41.6516190
108.8268738 81.4686432 37.7297096
107.7313843 81.5782623 36.5642662
106.6475449 81.7001114 35.3172302
105.5703430 81.8254395 33.9060326
104.5059586 81.9374847 32.3274193
152.6689301 82.2900467 38.2452621
151.2290039 82.1867676 39.6690178
149.8215332 82.0853882 40.9079361
148.4408722 81.9941177 41.9665451
147.0905609 81.9205399 42.9042206
145.7381287 81.8601990 43.7587852
108.5970764 82.4616013 39.7621918
107.4947968 82.5567245 38.6714325
106.4015808 82.6743469 37.5165939
105.3098755 82.8009262 36.2102051
104.2600708 82.9329529 34.8124924
153.7505798 83.3527145 39.2359543
152.2827148 83.2427444 40.7119026
150.8804169 83.1372910 41.9649811
104.0329132 83.9074326 37.0087852
-111.1743774 81.8704147 75.7643280
-114.5414276 81.7896729 76.8441696
-115.6836700 81.7934952 76.9648972
154.8058777 84.4340515 40.1726151
153.3580933 84.3108902 41.6146812
151.9437866 84.2003326 42.8787766
150.5600891 84.1133423 43.9967499
103.8102417 84.8968353 38.9259529
102.7305984 85.0275269 37.5767021
-105.1847687 82.9014893 76.5514984
-106.2783508 82.8649216 77.4933243
-107.3293762 82.8153763 78.2942505
-108.4250641 82.7571411 78.9715118
-109.5107346 82.7130814 79.5132141
-110.6126633 82.6786041 80.0098572
-113.9823761 82.6191483 80.9151917
-115.1240997 82.6148224 81.0452499
-116.3014374 82.5975723 81.0838852
-117.4558105 82.6087646 81.0827713
-118.6411743 82.6426468 80.9549179
-119.8354645 82.6840210 80.7413940
-121.0459976 82.6921082 80.4362106
157.4119415 85.6475449 39.1617126
155.9324951 85.5081558 40.8474541
154.4540100 85.3877411 42.3783264
153.0658264 85.2664642 43.6119194
103.6341248 85.9061432 40.6847649
102.5431061 86.0272064 39.4081993
101.4787903 86.1704865 38.0522385
100.3956070 86.3022232 36.5372238
-101.6310425 83.9970551 77.2174149
-103.6979675 83.8097992 79.4454880
-104.7481079 83.7447510 80.3037949
-105.8169174 83.6817780 81.0798874
-120.5610657 83.5390015 83.8331528
-121.7790070 83.5753632 83.5226669
-122.9854584 83.6124039 83.1434097
-124.2287140 83.6374588 82.6616898
157.0231934 86.6069946 41.5073547
155.5773163 86.4723511 42.9990845
154.1571045 86.3562012 44.3042068
152.7856903 86.2577896 45.4387474
103.4573212 86.9189911 42.2526207
102.3717575 87.0398560 41.0709076
101.3006973 87.1757355 39.7923737
100.2166595 87.3156128 38.3633194
99.1310654 87.4405670 36.8365250
-99.0822144 84.9940414 78.5364609
-100.1801147 84.9117889 79.6514664
-101.2142258 84.8232803 80.7369690
-102.2588196 84.7361069 81.7061081
-103.3198395 84.6582184 82.5557938
-104.3776855 84.5942001 83.3112106
-105.4666748 84.5328979 83.9671936
-120.1701050 84.4055939 86.6585083
-121.3717804 84.4318390 86.3742371
-122.5686188 84.4813690 86.0725403
-123.7972717 84.5266647 85.6512985
-125.0074158 84.5833206 85.1932907
-126.2587509 84.6374435 84.6290131
-127.5236816 84.6868896 83.9649734
156.7141418 87.5649185 43.4881897
155.2910461 87.4507980 44.8440971
98.9847641 88.4738235 38.6157570
97.8935699 88.6117859 36.9802246
-95.7680664 86.2195358 77.5295181
-96.7569733 86.1008530 79.0343475
-97.7692261 85.9656754 80.4005203
-98.7847900 85.8569717 81.5874786
-127.0919189 85.5885849 86.8201065
-128.3601990 85.6504822 86.1478119
-129.6461639 85.7115555 85.3686981
-130.9504700 85.7900848 84.4805603
160.9030457 88.9719391 40.3061676
159.3793793 88.8040161 42.2301788
157.8844757 88.6692963 43.8265648
156.4212036 88.5497742 45.2726517
155.0243988 88.4331665 46.5099716
98.8110657 89.4903107 40.1895218
97.7542572 89.6475983 38.6828117
-94.4075775 87.1887817 79.2688370
-95.4128418 87.0601501 80.7329559
-96.4192123 86.9392929 82.0030212
-97.4555588 86.8311844 83.1761627
-98.4764862 86.7406158 84.2175140
-126.7372208 86.4765167 89.2560730
-127.9851990 86.5453949 88.6758347
-129.2366638 86.6212006 88.0217743
-130.5116272 86.7095032 87.2689972
160.5479126 89.9471664 42.3458786
98.6644745 90.5061493 41.6612320
97.5986786 90.6573410 40.2528877
96.5409393 90.8181686 38.7011795
95.4635849 90.9701920 36.9848289
-92.1091156 88.3291321 79.1159515
-93.0897141 88.1875687 80.6971893
-94.0804214 88.0537872 82.1068726
-128.8944244 87.5209656 90.3506393
-130.1512909 87.5999908 89.6808319
-131.4136047 87.6909256 88.9216080
-132.7174072 87.7642212 88.0706635
161.7509155 91.0934067 42.3864441
160.2416382 90.9272079 44.1941566
98.5177231 91.5344391 43.0057526
97.4413071 91.6834106 41.6520081
96.3901062 91.8440781 40.1867332
95.3271942 92.0053635 38.5595474
-90.8145905 89.3495483 80.2757568
-91.8083725 89.2017670 81.8740692
-92.8102722 89.0657043 83.2778244
-93.8203888 88.9451599 84.5270081
-128.5858765 88.4434204 92.4060440
-129.8295135 88.5124817 91.8042755
-131.0857391 88.6022644 91.1422119
-132.3602905 88.6871796 90.3727570
-133.6469727 88.7734604 89.5144196
-134.9665680 88.8476563 88.5442200
162.9965820 92.2397461 42.2700577
161.4617004 92.0646973 44.1713676
159.9683228 91.9100494 45.8373566
96.2479553 92.8696747 41.5338478
95.1803741 93.0352478 39.9753571
94.0899887 93.1926880 38.2790070
-89.5594940 90.3861084 81.2320251
-90.5459442 90.2314301 82.8152542
-91.5440674 90.0932770 84.2179413
-135.9288330 89.8851318 89.7781296
162.6848145 93.2164001 44.0606308
161.1911926 93.0497208 45.7900925
159.7267151 92.9021149 47.3097763
96.1241150 93.9033890 42.8027954
95.0634766 94.0712585 41.3317032
93.9836502 94.2397385 39.7003441
-87.3513107 91.6090851 80.2583847
-88.3108902 91.4360733 82.0041809
-89.3040390 91.2781754 83.5958023
-90.3122940 91.1358490 85.0226669
-91.3204269 91.0120697 86.2972717
-135.6097717 90.8302917 91.8577118
163.9660339 94.3757248 43.7894363
162.4030762 94.2050018 45.6704254
93.8709412 95.2790375 40.9874153
92.8026276 95.4506912 39.3190651
-85.1667557 92.8654785 78.8232040
-86.1184540 92.6775513 80.8506622
-87.0940552 92.4955139 82.6507797
-135.3042603 91.7553558 93.7538986
-136.6017456 91.8657684 92.8446198
-137.9222717 91.9851990 91.8181992
-139.2723541 92.0929718 90.6881027
163.6824036 95.3719254 45.3595810
162.1871796 95.1991196 47.0631638
93.7612686 96.3201294 42.1899643
92.6970062 96.4956589 40.5743103
-83.9553452 93.9609604 79.2213974
-84.9166794 93.7594528 81.3321152
-85.8825836 93.5720825 83.1362152
-86.8786163 93.4057159 84.7582245
-135.0515594 92.6997223 95.4440308
-136.3152618 92.8035965 94.6237259
-137.6173096 92.9188995 93.6926727
-138.9330444 93.0348969 92.6778412
164.9799347 96.5528793 44.9151802
163.4557343 96.3682022 46.7472305
161.9644470 96.2076263 48.3678856
93.6464767 97.3622894 43.2839279
92.5911636 97.5405960 41.7363968
-82.7791977 95.0616531 79.5113602
-83.7298050 94.8524857 81.6239929
-84.6986008 94.6581726 83.4843903
-137.3650818 93.8582230 95.3697510
-138.6525116 93.9771576 94.4314499
-139.9820251 94.1053009 93.3539276
166.2929382 97.7525711 44.3187141
164.7418518 97.5503769 46.3036499
163.2398224 97.3748474 48.0307503
161.7571716 97.2254181 49.5714798
93.5566635 98.4144897 44.3301086
92.4732742 98.5875626 42.7834740
91.4174576 98.7810287 41.1272430
-82.5586853 95.9619141 81.7879333
-83.5171356 95.7599792 83.6707687
-84.5035095 95.5855331 85.3795853
-137.1210938 94.8134308 96.9246521
-138.4022827 94.9239502 96.0458145
-139.7200928 95.0471802 95.0552673
167.6601868 98.9634399 43.5318756
166.0594025 98.7534332 45.6951904
164.5160370 98.5605164 47.5905418
91.3178329 99.8304520 42.1827164
90.2939758 100.0319824 40.4846649
-81.4056549 97.0854492 81.8319473
-82.3688965 96.8738174 83.7923584
-139.4709930 95.9975433 96.6072540
-140.7851868 96.1300964 95.5820694
-142.1160736 96.2616196 94.4568024
167.3914642 99.9662628 44.9619102
165.8376160 99.7583008 46.9693642
164.3217621 99.5744858 48.7373123
91.2160110 100.8864212 43.1292725
90.1853867 101.0871277 41.4726295
-80.2576981 98.2240067 81.7250443
-81.2142334 98.0044098 83.7563019
-82.1982727 97.8117828 85.5877609
-139.2517853 96.9625092 98.0204086
-140.5580139 97.0867767 97.0525665
-141.8768921 97.2215195 95.9819336
-143.2313690 97.3550491 94.8007965
167.1800690 100.9749374 46.2120895
91.1463089 101.9501648 44.0431137
90.1001129 102.1482315 42.4080467
89.0475159 102.3595047 40.6032104
-79.1078033 99.3685150 81.4972839
-80.0710678 99.1413574 83.5891571
-141.6260986 98.1840973 97.4369354
-142.9701233 98.3212433 96.3173828
168.5729370 102.2052765 45.2877426
166.9713135 101.9924011 47.3757477
91.0658875 103.0186615 44.8722572
90.0279312 103.2141953 43.2963982
88.9645844 103.4271851 41.5139923
87.8917313 103.6371918 39.6173706
-78.9418106 100.2960663 83.3440399
-79.9158783 100.0852356 85.3107147
-141.4169159 99.1536484 98.7656860
-142.7504425 99.2868347 97.7027740
168.3571167 103.2264252 46.4371376
166.8036499 103.0151520 48.4037132
88.8799286 104.4932861 42.3480530
-77.8327942 101.4684753 82.9388580
-78.7949982 101.2392960 84.9855804
-79.7784271 101.0379715 86.8340073
-141.2270508 100.1324158 100.0014420
-142.5419922 100.2572479 99.0050430
-143.8589325 100.3984528 97.9207611
168.1894989 104.2553940 47.4350586
166.6105652 104.0461121 49.3936768
88.8116455 105.5685501 43.1454391
87.7436371 105.7874146 41.3218155
-76.7346497 102.6592407 82.3567505
-77.6812744 102.4158859 84.5273132
-78.6658401 102.1980591 86.4811096
-79.6468201 102.0038147 88.2055206
-141.0371857 101.1166763 101.1521072
-142.3672485 101.2385406 100.1742172
-143.6599884 101.3750687 99.1488419
169.5990601 105.5156097 46.3075867
168.0037689 105.2873306 48.4095688
166.4678497 105.0823898 50.2618713
88.7436371 106.6453018 43.8713455
87.6855316 106.8651581 42.0888596
-75.6351471 103.8671341 81.6436081
-76.5972977 103.6048965 83.9829102
-77.5473633 103.3709259 85.9819260
-143.4874573 102.3603287 100.2835846
-144.8439026 102.5015945 99.1683655
-146.1619263 102.6566696 98.0115662
169.4064789 106.5520630 47.2801743
167.8529510 106.3253021 49.2889175
166.3210449 106.1256714 51.0816917
88.6832352 107.7280579 44.5410156
87.6273651 107.9477005 42.7963333
-75.4978867 104.8131714 83.2470398
-76.4664764 104.5620193 85.4423370
-77.4267349 104.3423309 87.3201828
-143.2914734 103.3521271 101.3825912
-144.6356964 103.4949417 100.3153152
-145.9555817 103.6478348 99.1834412
-147.3502960 103.8001785 97.8987808
170.8974609 107.8372116 45.8914795
169.2574921 107.5898132 48.1450424
88.6279144 108.8163528 45.1470299
87.5682983 109.0371704 43.4182472
-74.4182587 106.0327148 82.4063034
-75.3707047 105.7685089 84.6904678
-145.7846069 104.6390381 100.2547226
-147.1573181 104.7972488 99.0176392
170.7249146 108.8842621 46.7676239
169.1244812 108.6376877 48.9322052
88.5674286 109.9098129 45.6846466
87.5274734 110.1287079 44.0154152
-74.3127975 106.9964905 83.8632355
-75.2635574 106.7408142 86.0194473
-145.6146393 105.6335526 101.2711639
-146.9691010 105.7923584 100.0858536
170.6002808 109.9323578 47.5322914
168.9955750 109.6902161 49.6503143
88.5233231 111.0058441 46.1967316
87.4757767 111.2264557 44.5359993
86.4102325 111.4606018 42.7216682
-74.2020569 107.9652481 85.1602783
-75.1432190 107.7187347 87.1558533
-145.4784241 106.6301117 102.1989899
-146.7857208 106.7895660 101.0957031
-148.1582794 106.9572906 99.8399734
170.4699402 110.9901276 48.2358017
168.8847198 110.7488480 50.2936020
88.4762955 112.1080170 46.6531715
87.4167404 112.3295364 44.9916687
86.3562927 112.5612488 43.2256088
-73.1304550 109.2158966 84.0856171
-74.0980530 108.9478378 86.3451462
-75.0593491 108.7127686 88.2752304
-145.3182373 107.6393051 103.1023178
-146.6560211 107.7921219 101.9956970
-148.0099030 107.9595032 100.7819595
170.3398895 112.0503387 48.8892288
168.7776489 111.8134537 50.8888931
88.4481201 113.2137985 47.0810356
87.3704376 113.4371948 45.4143791
-72.0885315 110.4906387 82.8875732
-73.0373688 110.2003021 85.2889862
-147.8635254 108.9635544 101.6850128
170.2388306 113.1182785 49.4639130
168.6921997 112.8856049 51.4050407
88.4027252 114.3260727 47.4299049
87.3291321 114.5477219 45.7999992
-72.0026855 111.4687805 84.0928268
-72.9377441 111.1899567 86.3316040
-147.7045288 109.9718933 102.5450745
171.7423096 114.4611359 47.7647476
170.1535645 114.1925125 49.9726906
168.6133423 113.9617462 51.8740501
88.3735428 115.4401627 47.7619095
87.3081131 115.6594467 46.1707458
-71.9120102 112.4651718 85.1479797
-72.8587418 112.1895905 87.3242569
-147.5774994 110.9899063 103.3185501
171.6476440 115.5366135 48.2757568
170.0595703 115.2708130 50.4445229
168.5210266 115.0423584 52.3194351
88.3474655 116.5597687 48.0503693
87.2699127 116.7814636 46.4489555
-70.8554993 113.7647400 83.6871185
-71.8336182 113.4646225 86.1314850
-72.7808456 113.1982269 88.2170410
-147.4648895 112.0101700 104.0357056
-148.8108368 112.1810150 102.8619766
-150.1884460 112.3705673 101.5603027
171.5791626 116.6247406 48.6792450
90.4701080 117.2729645 51.1873856
89.3975220 117.4706116 49.7967834
88.3158646 117.6853867 48.2789574
-70.7900543 114.7738647 84.6705017
-150.0654449 113.3919449 102.3023071
-151.4594727 113.5823898 100.9396591
171.5314331 117.7224808 48.9993744
90.4278564 118.4007568 51.3571053
89.3784790 118.5970612 49.9964066
88.3019562 118.8118286 48.4985809
-70.7326889 115.7841110 85.5793457
-149.9561462 114.4182205 102.9769974
173.1195374 119.1238556 46.9247971
171.4620514 118.8195801 49.3235359
90.4260101 119.5274811 51.5418243
89.3637238 119.7271271 50.1677513
-69.6950989 117.1246490 83.8808975
-70.6718292 116.8047485 86.3811798
-149.8517151 115.4506989 103.5977554
-151.2144775 115.6407776 102.3061218
173.0790863 120.2334137 47.1741486
171.4107361 119.9241486 49.5793686
90.4136963 120.6604691 51.6691055
89.3397446 120.8648758 50.2789612
-69.6431046 118.1519089 84.6583405
-70.6078491 117.8323364 87.0943680
-149.7618103 116.4879379 104.1693268
-151.1061249 116.6794891 102.9018707
173.0406647 121.3492203 47.3730011
171.3904877 121.0410919 49.7421684
90.3945923 121.8006897 51.7455063
89.3451691 122.0029678 50.3811340
88.2546387 122.2253876 48.8830528
-69.5989838 119.1826172 85.4023132
-70.5460281 118.8680115 87.7442169
-149.6757660 117.5301437 104.7009048
-151.0245514 117.7221222 103.4437943
173.0222168 122.4731064 47.5068436
171.3635406 122.1604309 49.8791275
90.3839111 122.9441299 51.7951889
89.3338928 123.1495819 50.4225769
-69.5509644 120.2189178 86.0640335
-70.5075378 119.9066315 88.3694458
-149.5995026 118.5766449 105.1841202
-150.9363403 118.7683563 103.9518204
-152.3600464 118.9728928 102.5756226
171.3652802 123.2908630 49.9386215
90.3867264 124.0903091 51.8224487
89.3267441 124.3008575 50.4322128
-68.5524597 121.6174088 84.0463486
-69.4921417 121.2628403 86.6315384
-70.4535294 120.9548264 88.9005280
-149.5299530 119.6278992 105.6253052
-150.8664551 119.8205719 104.4010468
171.3521423 124.4247437 49.9696693
90.3881073 125.2421722 51.8081551
89.3233337 125.4570618 50.4058456
-69.4676285 122.3093796 87.2189713
-70.4193954 122.0076599 89.4050369
-149.4560852 120.6830292 106.0394135
-150.8036804 120.8764954 104.8157578
-152.1972504 121.0865479 103.4661636
173.0218506 125.9014435 47.4891052
171.3489380 125.5660477 49.9401932
90.3912888 126.4003754 51.7505608
89.3385239 126.6155548 50.3558426
-68.4711914 123.7185898 85.1643066
-69.4244308 123.3715057 87.6533051
-70.4067688 123.0661011 89.8675995
-152.1296082 122.1498566 103.8458176
171.3636780 126.7188492 49.8443680
90.3980026 127.5656891 51.6497154
89.3442078 127.7845459 50.2429047
-68.4418564 124.7848282 85.5946198
-69.3963013 124.4395905 88.0541687
-70.3582840 124.1389313 90.1971588
-152.0727997 123.2162933 104.1918335
-153.4607544 123.4443970 102.7581940
171.4028320 127.8836136 49.6595688
90.4066010 128.7361603 51.5099411
89.3539581 128.9598389 50.0867462
-68.4222107 125.8558807 85.9882202
-152.0317078 124.2887497 104.4883270
171.4588165 129.0572052 49.4415894
90.4266510 129.9125824 51.3355522
89.3830643 130.1380615 49.8986511
88.2954483 130.3973846 48.2945137
-68.3999252 126.9381561 86.2974854
-151.9993896 125.3648911 104.7527313
171.5183105 130.2419739 49.1255035
169.8898926 129.9253235 51.3704453
168.3615723 129.6626587 53.2911530
88.3157730 131.5932159 48.0140762
-68.3808365 128.0294800 86.5407333
-151.9622192 126.4460373 104.9826736
169.9392700 131.1075134 51.0548706
168.3757477 130.8267365 53.0637474
88.3363647 132.7991943 47.6827545
-68.3791885 129.1276550 86.7348022
-151.9390259 127.5362854 105.1488571
-153.3117828 127.7706985 103.7369995
170.0245361 132.3074341 50.6464996
168.4412384 132.0134125 52.7214890
88.3797989 134.0075226 47.3299370
-68.3782501 130.2344360 86.8675003
170.1097412 133.5142822 50.1907845
168.4998932 133.2042847 52.3369141
88.4247971 135.2253418 46.9217758
-67.4116974 131.7700500 84.1402206
-68.3839798 131.3440552 86.9775238
170.2029572 134.7328949 49.6777382
168.5913849 134.4148407 51.8547592
92.6992340 135.4315796 52.6114578
91.6343994 135.6598511 51.2439423
90.5618744 135.9113464 49.7507668
89.5256424 136.1677246 48.1855087
88.4635086 136.4609070 46.4162560
87.4147034 136.7749023 44.5415268
-68.3785095 132.4706879 86.9813690
168.6857910 135.6324005 51.3047028
92.7417374 136.6435242 52.2048035
91.6799469 136.8768005 50.8133392
90.6036377 137.1377106 49.2800941
89.5687943 137.4051514 47.6714668
88.5217209 137.7022247 45.8784103
-68.3875732 133.6051025 86.9346237
168.8047485 136.8696442 50.6665497
167.2384338 136.5725555 52.6876183
165.7525635 136.3305511 54.4097404
92.7795258 137.8668060 51.7347069
91.7185516 138.1083679 50.3120995
-68.3870621 134.7474518 86.8493271
-151.9023895 133.0643921 105.4437561
-153.3038940 133.3176270 103.9993896
167.3398743 137.8021240 52.0790405
165.8211670 137.5383606 53.8867226
92.8251801 139.0968170 51.2173157
91.7611008 139.3475952 49.7574997
-68.4075623 135.8966217 86.7138672
-151.9429779 134.1958923 105.3496857
-153.3315735 134.4512024 103.8992920
167.4854736 139.0585022 51.3509064
165.9371338 138.7724609 53.2368088
92.8861160 140.3379059 50.6538887
91.8242035 140.5967712 49.1533279
-68.4492722 137.0557098 86.5107422
-69.3929749 136.6658783 88.9940338
-70.3391571 136.3249359 91.2149277
-151.9635773 135.3269958 105.2438278
167.6552124 140.3398285 50.5439262
166.0688171 140.0287018 52.4961853
92.9375534 141.5956573 50.0058708
91.8840103 141.8635101 48.4672890
-69.4130707 137.8315735 88.7413864
-70.3800583 137.4698792 91.0535889
-152.0108795 136.4719543 105.0774994
166.2180481 141.2941589 51.6627922
93.0098267 142.8557739 49.3221359
91.9550247 143.1386261 47.7378845
-69.4465637 139.0073242 88.4327850
-70.4036255 138.6376648 90.7683411
-149.3075256 137.1384277 107.5394745
-150.6626282 137.3685760 106.2657928
-152.0672607 137.6259460 104.8590088
166.3748322 142.5879364 50.7276306
93.0777817 144.1380463 48.5448380
-69.4810181 140.2010498 88.0401917
-70.4338989 139.8199463 90.4163284
-149.3506927 138.2866364 107.3232803
-150.7041931 138.5200500 106.0362854
-152.1265411 138.7865753 104.6042252
166.5746155 143.9071960 49.6838455
165.0263824 143.5900269 51.6453323
163.4965363 143.3155365 53.4464149
93.1606445 145.4301300 47.6935310
92.1267395 145.7388763 45.9780121
-69.5077133 141.4055634 87.5828171
-70.4798279 141.0016327 90.0433884
-149.4032898 139.4412537 107.0644913
-150.7484283 139.6788635 105.7741318
165.2173767 144.9113617 50.5793800
163.6464996 144.5983887 52.5047760
93.2514038 146.7484131 46.7399788
-69.5365372 142.6310425 87.0355225
-70.5235367 142.2047729 89.5779800
-149.4576721 140.6027527 106.7654953
-150.8242493 140.8515472 105.4374008
165.4770050 146.2764740 49.3359413
163.8435516 145.9232483 51.4082413
162.3520813 145.6614075 53.1195793
160.8832245 145.4260254 54.6596718
95.4352951 147.4905853 48.9689064
94.4025726 147.7651672 47.4250641
93.3489838 148.0915222 45.6531219
-70.5682220 143.4252930 89.0175247
-146.8554993 141.3304901 108.7865677
-148.1826782 141.5460052 107.6508179
-149.5385284 141.7808533 106.4043884
162.5245819 146.9665680 52.0604019
161.0462646 146.7137451 53.6755257
95.5489578 148.8048096 47.9856606
94.5012436 149.1099548 46.3237572
-70.6263123 144.6553955 88.4105606
-146.9081726 142.4947815 108.4541550
-148.2254486 142.7114868 107.3069992
162.7698669 148.3388672 50.8330193
161.2345886 148.0421143 52.5558167
159.7984161 147.8089294 54.0531883
158.3707581 147.6024933 55.4015884
97.7573242 149.5937347 49.8891029
96.7044678 149.8601227 48.4441986
95.6625977 150.1530151 46.8623466
-70.6558914 145.9208832 87.6816711
-71.6459656 145.4893188 90.1730881
-72.5935822 145.1387024 92.3074341
-146.9937897 143.6787262 108.0487137
161.4544830 149.3972931 51.3108902
159.9873352 149.1400452 52.8974838
158.5444031 148.9182892 54.3369217
97.8618698 150.9371033 48.7894096
96.8228455 151.2157898 47.2720642
95.7823334 151.5288391 45.6056938
-71.7106018 146.7390289 89.4488831
-72.6606369 146.3680115 91.6695633
-147.0723267 144.8653564 107.6059952
-148.4390259 145.1112213 106.3597107
160.2155457 150.5078278 51.5785942
158.7316895 150.2545624 53.1511002
100.1095276 151.7607117 50.4217606
99.0449905 152.0180664 49.0649300
97.9917221 152.2994385 47.5755539
96.9613342 152.5963745 45.9768944
-71.7467041 148.0297546 88.6057510
-72.7247391 147.6173706 90.9430771
-73.6959076 147.2602539 93.0576477
-74.6670380 146.9467316 94.9352722
-147.1693726 146.0664673 107.0997925
158.9706268 151.6245728 51.7730141
100.2349930 153.1168213 49.2364159
99.1647720 153.3970642 47.7732391
98.1304932 153.6898956 46.2129440
-72.7928314 148.8896179 90.1334839
-73.7658997 148.5122681 92.3198318
-74.7172546 148.1958923 94.2321548
-147.2783966 147.2838135 106.5192413
-148.6362000 147.5395508 105.2147751
159.2296143 153.0298767 50.2333603
157.7339478 152.7702026 51.8633423
156.3104858 152.5481720 53.2627220
102.5000229 153.9823914 50.5916901
101.4178848 154.2415161 49.2896042
100.3806992 154.4996033 47.9269447
99.3226929 154.8000793 46.3711090
-73.8534927 149.7711182 91.5213699
-74.7944031 149.4432831 93.4940033
-144.7021484 148.0334930 108.2577438
-146.0544586 148.2688904 107.1084747
-147.4102173 148.5181427 105.8655243
158.0082855 154.1960144 50.2822304
156.5383606 153.9333496 51.8123741
102.6343765 155.3714752 49.2870941
101.5717316 155.6371155 47.9218788
100.5340805 155.9154205 46.4505615
-72.9610596 151.5042114 88.1598663
-73.9386139 151.0642853 90.5777054
-74.8775864 150.7119751 92.6681747
-144.8261108 149.2631836 107.6264954
-146.1669464 149.4979248 106.4577408
-147.5187531 149.7523499 105.1899109
156.8236542 155.3718262 50.1511536
155.3637543 155.1212006 51.6310234
153.9786987 154.9330292 52.8871155
102.7953796 156.7739716 47.8499680
-74.0253296 152.3848572 89.5235214
-74.9828186 151.9827728 91.7826080
-75.9418716 151.6488495 93.7653656
-76.9162369 151.3493195 95.5312576
-144.9492493 150.4977112 106.9454803
-146.3180237 150.7518463 105.7120590
157.1825867 156.8963928 48.2014122
155.6568451 156.5825500 49.8535767
154.2297668 156.3495483 51.2819672
102.9781952 158.2279968 46.1965523
-74.1027451 153.7557678 88.2835312
-75.0728455 153.3143463 90.6720810
-76.0377502 152.9436493 92.8091583
-77.0047150 152.6240387 94.6608582
-145.0742493 151.7443542 106.2055283
154.5315247 157.8202515 49.4220505
153.0796051 157.5841522 50.8312683
151.6926880 157.4106445 52.0100327
107.4155045 158.6538544 49.7001305
106.3419952 158.8905945 48.5444489
105.2772064 159.1437225 47.2683487
104.2040482 159.4343567 45.8369446
103.1728134 159.7384796 44.3002739
-76.1447449 154.2634125 91.7202988
-77.1051788 153.9186401 93.7041855
-142.5668182 152.5444641 107.6500320
-143.9034119 152.7775421 106.5482025
-145.2421265 153.0243683 105.3600769
154.9210815 159.4150848 47.1803513
153.4244080 159.1110229 48.7909889
151.9919128 158.8831635 50.1485443
107.5875626 160.1205139 48.0195160
106.5281296 160.3602142 46.7837143
-76.2603149 155.6071472 90.5161133
-77.2163239 155.2314301 92.6328964
-142.7131653 153.8068390 106.8368301
152.3444214 160.4500732 48.0353241
150.9027405 160.1839294 49.3991585
149.5060883 159.9721832 50.5965424
148.1509399 159.8226471 51.5982361
146.7917023 159.6881104 52.4964371
112.1348648 160.7304077 50.4541740
111.0465851 160.9165802 49.5454407
109.9618225 161.1231384 48.5336113
108.8810654 161.3482056 47.4116669
107.8020859 161.6164551 46.1316376
-77.3234634 156.5938721 91.3890991
-78.2975388 156.2312012 93.3748474
-79.2664108 155.9205780 95.1576920
-140.2785492 154.6642761 107.9723358
-141.5836334 154.8749695 106.9874496
-142.8644104 155.0877838 105.9383011
151.2874146 161.8028412 47.0265045
149.8476410 161.5236359 48.4057274
148.4697723 161.3324890 49.5612640
147.0851746 161.1746063 50.5838013
112.3443756 162.1952972 48.7132454
111.2654419 162.3985901 47.7159119
110.1801987 162.6430359 46.5659943
109.1155319 162.8991699 45.3266144
-78.4180679 157.5902863 92.1279144
-79.3788986 157.2591553 94.0008698
-140.4227753 155.9369965 107.0975723
-141.7410278 156.1605377 106.0572815
-143.0517273 156.3982544 104.9313126
148.8649902 162.9563904 47.1836014
147.4365387 162.7331238 48.3786469
146.0665588 162.5594788 49.3941040
144.7271729 162.4214478 50.2705460
114.7613831 163.3323975 48.5801468
113.6719666 163.5082245 47.7004089
112.5787506 163.7346802 46.6729584
111.5137863 163.9642334 45.5891876
-78.5439758 158.9966583 90.6708679
-79.5194550 158.6080780 92.7352448
-138.0205383 156.8316498 107.9885101
-139.3024902 157.0287781 107.0958252
-140.6006012 157.2391052 106.1123810
-141.9174500 157.4712982 105.0254440
146.4703674 164.2219849 46.9153137
145.0854492 164.0014801 47.9177017
115.0318298 164.8806305 46.4312553
113.9512177 165.0869141 45.4320183
-78.6760941 160.4676514 88.9936829
-79.6545868 160.0215912 91.2317047
-138.1848145 158.1326904 107.0174484
-139.4701080 158.3348236 106.0801163
-140.7852478 158.5652466 105.0261765
-142.1215668 158.8164215 103.8698730
145.5305023 165.7048798 44.9982910
144.1547089 165.4913635 46.1405487
142.7917023 165.3439789 47.0579033
141.4553528 165.2146912 47.8037949
140.1588745 165.1252136 48.4511948
138.8787079 165.0599670 48.9988556
137.6166382 165.0073700 49.4415588
124.3208694 165.2814331 49.4156265
123.1690369 165.3743134 49.0207062
122.0354233 165.4912415 48.5455856
120.8785172 165.6233063 47.9894676
119.7554779 165.7644806 47.3674088
118.6416779 165.9277344 46.6449623
117.5313034 166.1046753 45.8479691
116.4315033 166.3084259 44.9368134
115.3357773 166.5343170 43.8698463
-79.7880859 161.5038300 89.5401154
-80.7717361 161.0747070 91.6950836
-81.7485123 160.7276001 93.6013947
-138.3593140 159.4477539 105.9581299
-139.6685638 159.6695862 104.9476089
139.2629395 166.6898499 46.3780441
137.9724274 166.6186981 46.9027748
124.6346970 166.8730469 47.0614128
123.4845886 166.9773712 46.6249657
122.3495331 167.0970917 46.1224480
121.2055817 167.2455597 45.5050659
120.0820465 167.4127350 44.7699203
118.9700928 167.5917206 43.9523201
-81.9160156 162.1505585 92.0151672
-138.5594330 160.7940216 104.7788544
-139.8658600 161.0259247 103.7060776
-141.2030334 161.2912903 102.5056610
138.4695129 168.4081268 43.6881447
137.1424561 168.3213806 44.2279053
135.8688049 168.2548676 44.6720352
134.6039429 168.2035828 45.0127678
133.3797913 168.1835327 45.2458344
132.1337433 168.1971130 45.3656883
130.9218903 168.2402191 45.3686905
129.7163849 168.2696838 45.3246155
128.5235291 168.2972717 45.2109909
127.3523331 168.3679810 44.9636612
126.1678314 168.4635010 44.6100159
125.0146713 168.5629578 44.2040787
123.8727493 168.6878815 43.7081680
-82.0531998 163.6714325 90.1751862
-83.0313034 163.2588654 92.1912231
-84.0033569 162.9342194 93.9759293
-84.9735107 162.6650848 95.5342178
-85.9885178 162.3848267 97.0227051
-136.2014771 161.7352753 105.4223785
-137.4772339 161.9373474 104.5019302
-138.7666931 162.1631165 103.4673309
-84.1987228 164.3731537 92.3078003
-85.1535645 164.0682068 94.0105362
-86.1440659 163.7926178 95.5665283
-136.4138031 163.1087341 104.1103897
-137.7040253 163.3312988 103.1019363
-85.3400879 165.5660095 92.1410141
-86.3257904 165.2353821 93.9077606
-87.3071518 164.9612732 95.4252853
-88.3098145 164.7030945 96.8059998
-134.0791626 164.0967255 104.5080185
-135.3452148 164.2926941 103.6353912
-136.6470947 164.5177307 102.6347656
-86.5252838 166.7423096 91.9608765
-87.4979248 166.4252777 93.6527786
-88.4885406 166.1492920 95.1566620
-134.3135681 165.5098572 103.0207825
-135.5997009 165.7250977 102.0535126
-88.6963959 167.6568909 93.2378922
-89.6773224 167.3718109 94.7464371
-90.6810150 167.1255951 96.0976944
-129.5305023 166.2142029 104.5565033
-130.7851410 166.3827057 103.8762894
-132.0371552 166.5564117 103.1270828
-133.2853851 166.7471619 102.2941284
-134.5830383 166.9676208 101.3315506
-135.8938446 167.2277069 100.2504730
-89.9026718 168.9070892 92.6769791
-90.8895111 168.6300964 94.1781464
-129.7782898 167.6504822 102.9916534
-131.0339050 167.8305969 102.2474594
-132.3041382 168.0279846 101.4146881
-91.1377411 170.2216339 91.8948441
-92.1370392 169.9291382 93.4376373
-93.1243820 169.6762390 94.7737122
-94.1389923 169.4492340 96.0035629
-95.1532364 169.2622986 97.0673904
-127.5622864 168.8015747 102.5829773
-128.8015289 168.9621582 101.9361420
-130.0433960 169.1299438 101.2192993
-131.3196259 169.3383942 100.3867493
-93.3779297 171.2761993 92.4404373
-94.3820419 171.0010376 93.8564072
-95.3879929 170.7849731 95.0638733
-127.8487244 170.3100128 100.7012711
-129.0910950 170.4789276 99.9730072
-95.6546402 172.4089508 92.6203461
-96.6845779 172.1638489 93.9047699
-97.6994019 171.9636078 95.0071259
-98.7309723 171.7829742 95.9885559
-99.7732620 171.6286926 96.8711700
-100.8294373 171.4810486 97.6826782
-101.8931198 171.3561707 98.4019241
-118.5337677 170.9452820 102.0557785
-119.7007751 171.0177917 101.8568268
-120.8775024 171.0853119 101.6176682
-122.0757675 171.1878204 101.2827454
-123.2495651 171.2884216 100.9052353
-124.4599609 171.4062805 100.4461823
-125.6787491 171.5383759 99.9035492
-126.9319153 171.7060547 99.2388077
-128.1671448 171.8793335 98.5149002
-99.0108871 173.4077606 93.5848923
-100.0443115 173.2211151 94.5744934
-101.0897980 173.0592804 95.4788895
-102.1521606 172.9163361 96.2794647
-118.8151398 172.4799347 100.0922699
-119.9878540 172.5482025 99.8738022
-121.1612167 172.6307373 99.5926132
-122.3658752 172.7365875 99.2137375
-123.5561218 172.8513184 98.7533722
-124.7967224 173.0041809 98.1768646
-126.0313721 173.1700897 97.5269928
-101.4014740 174.7412872 92.7767563
-102.4594193 174.5917664 93.6789246
-103.4995575 174.4217224 94.5116272
-104.5672379 174.2966156 95.2223587
-105.6356277 174.2031860 95.8445282
-106.7257919 174.1158142 96.3874359
-110.0022278 173.9337463 97.5837021
-111.1148911 173.8953857 97.8562775
-112.2315903 173.8897400 98.0318069
-113.3502808 173.8808289 98.1627350
-114.4978943 173.8986206 98.2154617
-115.6348038 173.9131165 98.2301483
-116.8061523 173.9571533 98.1486740
-117.9560471 174.0062408 98.0161743
-119.1238251 174.0790405 97.7995605
-120.3136139 174.1626129 97.5141296
-123.9462433 174.5530243 96.1151886
-104.9181061 176.0680542 92.2338181
-105.9801025 175.9338074 92.9770889
-107.0680389 175.8070984 93.6119690
-110.3327408 175.6007385 94.9522552
-111.4543533 175.5746155 95.2379150
-112.5740051 175.5608978 95.4419022
-113.6995087 175.5567627 95.5508575
-114.8354645 175.5592804 95.6116028
-115.9797897 175.5845184 95.5911407
-117.1616211 175.6453552 95.4615402
-118.3201675 175.6999664 95.2933426
-119.5015488 175.7848511 95.0047989
-107.5128326 177.7664490 89.9151688
-108.5717316 177.6614532 90.5760040
-109.6534195 177.5563812 91.1192474
-110.7642822 177.4539185 91.5422897
-114.1344223 177.3740997 92.2299728
-115.2893219 177.4392700 92.2580872
131.9299622 73.6565399 26.4415340
134.1428223 74.0823746 28.4813461
133.4898224 74.0870285 28.7389679
132.8653259 74.0973969 28.9032459
132.2276154 74.1295929 29.0220623
131.6001587 74.1461258 29.0868664
128.5212860 74.0737839 29.1363621
127.9130020 74.1039352 29.1028557
127.3334808 74.1531677 28.9844933
122.0372238 74.2907562 26.5724220
140.1477661 75.1338959 29.6745167
139.4480591 75.1172714 30.1987858
138.7904205 75.0919724 30.5996590
138.1172485 75.0814514 31.0022392
137.4603882 75.0727234 31.3242970
141.2020111 75.6328354 30.9170818
142.9894867 76.1953049 31.3313904
142.2886200 76.1645203 31.9211197
141.6009521 76.1420441 32.4458771
140.9175873 76.1248474 32.9205666
116.0302124 76.4006119 30.6992111
115.4688263 76.4239273 30.1253281
114.9092407 76.4629288 29.5442638
143.3892822 76.6724777 32.7528381
144.5341492 77.1511765 33.4878082
143.8327026 77.1444244 34.0434952
143.1438599 77.1333237 34.5337791
145.6481323 77.7596512 34.0531998
146.8194885 78.2985382 34.4616890
146.1322021 78.2512894 35.1019363
145.4230042 78.2039490 35.6959229
110.9180679 78.6411438 32.3962975
110.3770370 78.6710129 31.7466373
109.6790009 79.2009201 32.5850716
147.6947937 79.2587738 36.4718933
109.5415955 79.7230225 33.9525909
108.9737625 79.7544479 33.2652168
108.4393845 79.7911682 32.5820580
151.1770935 79.9982300 34.2327614
148.2391052 79.8125076 37.2960243
147.5503387 79.7491837 37.8343964
107.2539749 80.4405823 32.5303955
150.9124603 80.4821014 35.8477440
150.1194611 80.4507065 36.7291832
149.4207153 80.3870163 37.4115372
148.7437134 80.3241272 38.0129509
148.0535278 80.2664261 38.5828362
147.3496246 80.2298813 39.1716423
107.1155930 80.9446259 33.8368721
106.0252228 81.0517960 32.3038330
105.4794540 81.0827560 31.4975605
103.5146713 82.7899704 33.0337372
153.6770325 82.6113281 37.7442970
103.3946915 83.2814255 34.2211304
154.9754944 83.1846848 37.3957329
103.2737045 83.7641830 35.3876953
-110.5276718 81.6825027 74.0417938
-116.7255859 81.5891724 75.7767868
154.7272644 83.6802902 38.7442474
103.1642075 84.2489243 36.4636002
-107.5024948 82.1918564 74.6915741
-108.0268478 82.1450806 75.1658859
-108.5470352 82.1235275 75.6409073
-109.0581207 82.1296387 76.0964890
-109.5917816 82.1464386 76.4504089
-110.1764069 82.1162491 76.5972519
-116.4018250 82.0241776 78.2069855
-120.5818634 82.0490341 77.5292892
-121.2062225 82.0417404 77.2994537
156.0510254 84.2760544 38.2873192
-122.1210480 82.4583359 79.1328049
157.3446198 84.8939896 37.7634735
156.5765533 84.8360977 38.6992416
155.8424530 84.7655334 39.5308189
101.8900757 85.3823624 37.0116386
101.3564682 85.4564896 36.2570877
100.8055649 85.5145645 35.4301796
100.2387161 85.5571899 34.5596848
-102.7645493 83.2839966 74.9723358
-104.1664276 83.2046204 77.0969009
-121.8332825 82.9125900 81.1082153
-122.4399643 82.9064331 80.9013596
-123.0537949 82.9184265 80.6825027
-123.7012787 82.9302597 80.3863602
-100.9996033 83.8277435 75.1602478
-102.5089035 83.7327118 77.1742096
-125.2848816 83.4260712 81.3896561
158.4772949 85.9845886 38.3761253
99.5154419 86.6281967 35.8080750
-100.2340240 84.2762680 76.5797195
-100.7508698 84.2662048 77.2689896
-102.2805481 84.1423569 79.0736542
-102.8040771 84.0858002 79.5939407
-125.0316238 83.8964081 83.0789261
-125.6636429 83.9097061 82.7812347
-126.3165817 83.9260864 82.4266968
-126.9611511 83.9497223 82.0520859
158.2690735 86.4578018 39.6057968
-97.5489883 85.0171432 74.6928253
-128.6316986 84.4912720 82.5486145
158.8769226 86.9782867 39.8235130
158.0903015 86.9293900 40.7575989
98.2910690 87.7950821 36.1289291
-96.3157043 85.5317154 75.0299911
-96.8141022 85.5089417 75.9723129
-97.3171844 85.4580612 76.7956696
-98.2911148 85.2620163 78.3192215
-128.3727264 84.9567795 84.1838608
-129.0288696 84.9579239 83.7790909
97.0987930 89.0117035 36.1746788
-94.9167175 86.5109024 77.1884155
-131.8291626 86.0642853 84.5104675
-93.7347717 87.0569153 77.2448349
-131.5731812 86.5468445 85.9615784
162.0137177 89.3445358 39.2463531
96.4071579 90.1108017 37.1233063
95.8455505 90.1591568 36.1884232
-92.5862427 87.6245346 77.1827087
-93.0756912 87.5644226 78.0388641
-93.5770950 87.5048447 78.8909912
-131.3744202 87.0020294 87.2931519
161.7461548 89.8432083 40.4586792
-91.4379044 88.1910477 76.9098740
162.4147339 90.4060974 40.3670235
161.6032867 90.3283234 41.4379616
94.6001587 91.3397751 36.0050697
-91.2801132 88.6486511 78.5361786
-133.6044312 88.0407181 88.0256500
-134.2877960 88.0620956 87.4913330
163.0079803 90.9798508 40.3715210
-90.1397095 89.2226257 78.2096329
163.6718292 91.5495911 40.2399101
162.7929382 91.4765244 41.4453125
94.4662170 92.3737869 37.6499405
-89.5113754 89.7507248 78.7554398
-90.0138779 89.6897278 79.7227631
164.3240662 92.1166611 40.1124077
-88.8777313 90.2757111 79.2213745
-137.0378418 89.7084045 88.3796158
93.2620544 93.5633316 37.3581123
-87.2962341 90.9639969 77.6475983
-87.7921753 90.8925705 78.7533875
-88.2674866 90.8131943 79.7092819
-88.7387848 90.7233887 80.5394440
-136.8211823 90.2063522 89.5281601
163.9779205 93.0908966 42.0834656
-86.6848679 91.5133133 78.0603714
-136.6442413 90.6840820 90.6428757
-137.9978485 90.7881241 89.5326538
163.7779236 93.5945511 43.0529137
93.1523056 94.6186447 38.7772446
92.5826569 94.6956863 37.8439331
-86.0674591 92.0525284 78.3852997
-86.5386047 91.9639206 79.3869247
-136.5238800 91.1325607 91.6260986
-137.1383972 91.1953583 91.1673584
-137.8252106 91.2467346 90.5993423
-138.5105438 91.3000946 90.0224762
-139.2178955 91.3456573 89.3699799
-139.8919220 91.4048615 88.7442017
91.9990921 95.3083954 37.6108093
-84.3690567 93.2308731 77.7635803
164.8938599 95.2565384 43.5700150
91.8955231 96.3584518 38.9377213
-140.0494690 92.8570633 91.3431091
165.6083679 95.8362656 43.2369270
164.7957764 95.7499466 44.2757874
-83.1853638 94.3326874 78.1795578
-139.8586121 93.3539581 92.3201752
-140.5484467 93.4186783 91.7033005
-141.2387238 93.4991379 91.0320663
90.7980652 97.6357040 38.3532639
90.2354431 97.7218552 37.3023987
166.1046906 96.9482956 43.7484245
91.7585297 97.9404984 40.7388992
91.2374649 98.0455551 39.8425865
90.7306442 98.1501541 38.9381523
-81.9951782 95.4426117 78.3962936
167.5987549 97.6509476 42.2450714
90.6829453 98.6729126 39.5486107
-81.8922882 95.8974762 79.6400070
167.4461060 98.1590576 43.0146751
90.6341858 99.1921921 40.1319656
90.1095810 99.3006210 39.1769409
-81.3022385 96.4513931 79.6352921
-81.7835159 96.3459396 80.7454681
-140.6604919 95.3787308 94.6529236
-141.3180542 95.4456711 94.0939560
-142.0106049 95.5074158 93.4815369
-142.6911621 95.5553131 92.8809433
-80.7216873 97.0156097 79.6110611
-143.2653046 96.0954742 93.0723343
89.4921570 100.4589157 39.3498116
-80.1393356 97.5825195 79.5312271
-80.6297913 97.4806976 80.7165070
-143.1089325 96.5912094 93.9064789
-143.7830811 96.6499023 93.2960815
168.7437286 99.8766861 42.8356667
89.4298553 100.9869232 39.8432388
-79.5699768 98.1549301 79.4695511
-144.3291931 97.1998520 93.4772263
89.3706207 101.5113068 40.3260536
88.8387070 101.6196060 39.3754196
-78.9696426 98.7523880 79.3662643
-79.4905624 98.6231842 80.5756989
-144.1970062 97.6872025 94.2628555
168.4477386 100.8786163 44.2971840
88.2435226 102.2450790 38.8998260
168.3150177 101.3925476 44.9583054
88.2137985 102.7817383 39.3970833
-78.3130798 99.7962418 80.3276825
-143.9163513 98.6698074 95.7946930
-143.7846222 99.1557159 96.5290451
-77.2307663 100.9903564 79.9109879
-77.7104874 100.8361206 81.1141434
-78.1705017 100.7004013 82.1798935
-143.6817474 99.6311798 97.2220230
-144.3685913 99.7045975 96.6127930
169.6475067 103.1268539 44.5100288
88.1223068 104.3868408 40.8071747
-76.7009277 101.5584869 79.5085831
-77.1601639 101.4234390 80.7712097
-144.9537354 100.2706146 96.6232910
88.0833588 104.9243469 41.2317238
87.5315094 105.0279617 40.2586708
86.9803162 105.1366882 39.2628975
-77.0848160 101.8877182 81.6729965
-144.8068542 100.7647781 97.3525238
-144.7086639 101.2434082 97.9888916
170.1623993 104.7950211 44.9917870
169.3431396 104.6832962 46.1031418
-75.5111694 103.2253113 79.7008972
-75.9882431 103.0928497 80.9853592
-144.6365814 101.7318192 98.5829849
86.8815002 106.7597504 40.4640388
86.3338089 106.8736725 39.4740944
-74.9310532 103.8247147 79.2112274
86.8725891 107.3037567 40.8741875
-147.1735382 103.0072250 97.3441238
170.6992798 106.4700623 45.3348961
-74.8226242 104.7673264 81.0875168
170.5759277 106.9932022 45.8505898
86.8083038 108.3862534 41.5714684
86.2443466 108.5004349 40.5683594
-74.7644424 105.2461624 81.9149323
86.7878723 108.9351959 41.8961525
86.2413712 109.0506287 40.9343529
-148.2649384 104.6588440 97.7561722
86.7540054 109.4804916 42.1954346
-148.1679382 105.1611557 98.3095932
-148.8604889 105.2319565 97.6598053
86.7149048 110.0280304 42.4766350
-73.6161575 106.9584885 81.6819992
-148.0385437 105.6616058 98.8883743
171.9791260 109.3407440 45.1544724
86.7176819 110.5760956 42.8024788
86.1615295 110.6947479 41.8243828
85.6054764 110.8138809 40.8366203
-73.0693283 107.5776978 81.1116943
-73.5543900 107.4448242 82.3823166
-147.9430237 106.1628036 99.4198227
-148.6579742 106.2416382 98.7418365
-149.3602295 106.3257370 98.0670395
171.9095764 109.8646698 45.5614777
85.6012573 111.3648758 41.1458740
-72.9994354 108.0634003 81.7856369
-73.4918060 107.9264984 83.0616150
-149.2654572 106.8290939 98.5730133
-149.9819794 106.9077988 97.8766785
-73.4695206 108.4091797 83.8147888
-149.1589661 107.3349380 99.0933609
-72.4381485 109.1900330 81.9034271
-149.0679932 107.8375320 99.5898209
-149.7973022 107.9229279 98.8745651
171.6978760 111.4464188 46.6945953
-71.9022446 109.8264313 81.2270737
-72.3973618 109.6801529 82.5742416
-148.9863434 108.3395615 100.0649567
171.6388702 111.9793091 47.0139656
86.5900269 113.3290558 44.0299606
171.5287323 112.5099258 47.3906441
86.5752258 113.8820190 44.2681923
-71.3211365 110.9596558 81.1844788
171.4971161 113.0497971 47.6329803
86.5502472 114.4348373 44.4686394
-71.2672653 111.4508743 81.7932434
-148.7424774 109.8475876 101.4362869
172.2166443 113.7287750 46.7644196
171.3985901 113.5845947 47.9713402
-148.6614685 110.3563690 101.8599777
-71.1769257 112.4367676 82.9786148
-148.5921173 110.8648834 102.2556839
-150.7102814 111.1713333 100.2140503
-151.3963165 111.2429657 99.5154648
-71.1463089 112.9389267 83.5307388
-148.5563507 111.3721390 102.6226349
-149.2708588 111.4631958 101.9666061
-149.9275665 111.5565796 101.3330154
-150.6303558 111.6562347 100.6298370
-151.3292847 111.7511978 99.9255829
-152.0582275 111.8465347 99.1789398
-152.8036194 111.9449615 98.4079132
172.9058075 115.4870758 46.3419876
-151.2628784 112.2608032 100.3283234
-151.9901428 112.3598099 99.5872879
172.9121704 116.0329208 46.5306702
-151.2070618 112.7704620 100.7185287
172.8687439 116.5749664 46.7630920
87.5171738 117.5697098 47.0392609
86.9877930 117.6797333 46.2520332
172.8322296 117.1215057 46.9580154
87.5006485 118.1336212 47.1544724
-70.0245667 115.2616730 82.9593811
172.7504272 117.6637344 47.1940193
87.4905319 118.6962662 47.2732430
-69.9929886 115.7694550 83.4193802
-151.0257263 114.3029938 101.8150024
173.6071930 118.3773346 46.0484390
172.7371521 118.2181015 47.3247528
87.4799957 119.2604294 47.3782387
-69.9759979 116.2768326 83.8920288
-150.9353180 114.8181534 102.1868668
-151.6640015 114.9116821 101.4816132
-152.4186096 115.0095825 100.7377548
88.5474167 119.6058273 49.0084801
88.0462189 119.7090836 48.3007622
87.4762573 119.8249359 47.4836693
88.5545807 120.1692123 49.1152000
88.5331573 120.7396088 49.1655807
-152.2304077 116.5700531 101.6848068
-152.9613647 116.6718750 100.9547348
88.5148392 121.3126831 49.1973190
-68.8922348 118.6611252 82.8736572
-152.1468658 117.0893631 102.0065079
87.4348755 122.1113052 47.7037086
-68.8694839 119.1786804 83.2456818
-152.1003113 117.6117172 102.2927704
87.4483109 122.6821747 47.7506256
-68.8633423 119.6945343 83.6439438
88.5157013 123.0309143 49.2961273
-68.8516083 120.2158737 83.9883041
88.5139923 123.6044769 49.3208351
-68.3551712 120.9293289 82.8799973
-68.8453903 120.7342148 84.3466110
173.4988251 123.4147491 46.8828735
172.5943298 123.2383728 48.1931152
88.5136414 124.1802139 49.3329010
-151.9510803 119.7115860 103.2683411
172.5774231 123.8014603 48.2406425
88.5136261 124.7576904 49.3321495
-151.9041290 120.2386932 103.5057220
172.5767670 124.3721619 48.2335510
88.5063019 125.3383560 49.3087006
-68.7796402 122.2943802 85.2877579
173.4963226 125.1340866 46.8615990
172.5930023 124.9504700 48.1844635
88.5066452 125.9189835 49.2825623
-68.7409210 122.8252411 85.5085983
88.5130997 126.5015182 49.2509193
88.5171661 127.0849915 49.2025909
-153.1249847 122.5823288 102.8885345
88.5096664 127.6757660 49.1248856
88.5186920 128.2605133 49.0571327
88.5335922 128.8483124 48.9810295
-153.0730286 124.1886215 103.3697891
88.5412750 129.4418793 48.8725395
88.0106125 129.5659943 48.0845413
-67.6763763 127.5113144 84.2777328
-152.9772644 126.8901520 103.9829254
171.1388397 131.0490265 49.4561539
-67.6764374 129.1418610 84.7116241
171.1791077 131.6483154 49.2703362
87.5260620 133.3247528 46.2628975
-67.6801682 129.6948547 84.7894745
171.2388153 132.2554016 49.0558701
87.5742264 133.9177856 46.1164780
-67.6676865 130.2566528 84.8093414
171.2863464 132.8622742 48.8197556
87.5782394 134.5371552 45.8802834
-67.2057800 131.0233154 83.4595566
-67.6867981 130.8047333 84.9184418
171.3425140 133.4758301 48.5379372
87.6111603 135.1471558 45.6740646
172.2859039 134.2949829 46.9294243
171.3910065 134.0866547 48.2820625
87.6338501 135.7628784 45.4209900
