-147.2763367 84.2145920 90.7683945
-148.6550140 84.3346405 89.4970779
167.0961304 87.8486710 39.7238503
88.0642242 88.5924225 38.1132660
87.0003052 88.7558746 36.5013657
85.9320831 88.9321213 34.7415810
-77.3059158 86.3034515 75.2471619
-148.4604340 85.3637390 90.6832275
168.5381317 89.1110001 38.4416618
166.9778748 88.9233398 40.5298615
88.0211487 89.7077637 38.7217484
86.9517975 89.8706589 37.1321869
85.8859406 90.0466919 35.4067764
-76.2101669 87.5289307 74.2883682
-77.1730957 87.3097992 76.6799774
-148.2647247 86.3966293 91.7997665
-149.6602173 86.5241928 90.5047989
168.3841400 90.1940460 39.2507019
166.8200226 90.0029907 41.3301010
85.8275604 91.1648941 35.9913483
84.7535019 91.3502197 34.1436234
-76.0944443 88.5367432 75.7488403
-77.0559845 88.3221436 77.9906693
-148.1080170 87.4264374 92.8164520
-149.4728851 87.5553894 91.5873566
169.9279785 91.4932861 37.6064148
168.2564087 91.2772827 39.9850082
166.7010345 91.0867615 42.0204926
85.7749100 92.2864914 36.5299072
-75.0305328 89.7791519 74.6528397
-75.9803772 89.5496368 77.0564575
-76.9543228 89.3440170 79.1832581
-147.9483032 88.4634247 93.7798157
-149.3082428 88.5942383 92.5805283
-150.7006531 88.7275009 91.2719498
169.7882996 92.5779343 38.3665543
168.1322937 92.3631516 40.6795349
166.5955658 92.1771622 42.6350708
85.7218933 93.4116669 37.0068436
-74.9212494 90.7975388 75.9776764
-150.5384064 89.7716370 92.2414246
168.0173950 93.4546661 41.2985229
166.4956970 93.2711411 43.1922989
85.6680527 94.5406342 37.4267349
-74.8255844 91.8180618 77.1672211
-150.3876343 90.8137665 93.1402893
167.9511871 94.5545044 41.7957306
166.4148102 94.3708954 43.6852570
87.8044891 95.3272324 40.9678726
86.7279739 95.4949341 39.4563675
85.6383362 95.6712112 37.8277626
-73.7231979 93.0654831 75.8557816
-74.7189178 92.8488922 78.2077713
-150.2372589 91.8585815 93.9869385
-151.6452942 91.9989471 92.6675873
171.1560974 96.1041260 37.6858292
169.4459686 95.8645782 40.1693039
167.8524017 95.6542282 42.2978363
166.3465576 95.4730606 44.1240311
87.7685394 96.4626541 41.2720947
86.6965256 96.6309357 39.7782516
-73.6498642 94.1078949 76.9392700
-74.6439285 93.8864594 79.2122498
-150.1039124 92.9079285 94.7720032
169.3793793 96.9688110 40.6338768
87.7412415 97.6008072 41.5422173
86.6642609 97.7695084 40.0553741
-73.5912933 95.1552124 77.9101486
-74.5737152 94.9284286 80.1114502
-149.9687805 93.9592133 95.5032654
-151.3677979 94.1059570 94.2253799
-152.7755127 94.2548904 92.8734665
169.3219604 98.0799255 41.0212936
87.7257996 98.7402267 41.7931900
86.6503067 98.9106216 40.3167534
-72.5572586 96.4428024 76.4457626
-73.5292282 96.2011719 78.8120956
-74.5066757 95.9806671 80.9190903
-149.8788147 95.0156555 96.1510773
-151.2376556 95.1621246 94.9360962
169.2454224 99.1965790 41.3621864
87.7026672 99.8846054 41.9884605
86.6296082 100.0564117 40.5174294
-72.5060272 97.4931183 77.3353348
-149.7820435 96.0755997 96.7714767
-151.1445313 96.2203064 95.5748444
-152.5020142 96.3754883 94.2878952
170.8708954 100.5622940 39.2962456
169.1988831 100.3200989 41.6236649
87.6824036 101.0333023 42.1397629
86.6024323 101.2072144 40.6707726
-72.4443970 98.5490189 78.1210480
-149.6780243 97.1381226 97.3566895
-151.0412903 97.2816620 96.1778412
-152.3967743 97.4380493 94.9076843
-153.8171844 97.6097336 93.4714432
-71.4108582 99.8779831 76.3341064
-72.3749695 99.6093140 78.8142242
-152.3032990 98.5026398 95.4816971
-153.7180023 98.6753311 94.0683060
-71.3744812 100.9402695 77.0746002
-72.3327942 100.6732712 79.4856110
-152.2106476 99.5713730 96.0139618
-153.6255035 99.7422180 94.6300659
87.6565704 104.5034943 42.3646545
86.5663071 104.6868286 40.8810120
-71.3161163 102.0105362 77.6742783
-72.2838974 101.7455063 80.0530090
-152.1396637 100.6458054 96.4801331
-153.5397644 100.8161392 95.1214218
87.6626129 105.6662140 42.3760872
86.5791855 105.8515778 40.8968430
-71.2625656 103.0868683 78.2234344
-72.2354050 102.8247528 80.5555878
-152.0718689 101.7237091 96.9054108
-153.4736023 101.8955688 95.5590210
87.6611481 106.8357849 42.3417587
-71.2238235 104.1679382 78.7246017
-72.2045441 103.9062424 81.0281601
-152.0196533 102.8062210 97.2810364
-153.3927307 102.9762344 95.9735565
87.6650238 108.0103302 42.2625046
-70.2483521 105.5466080 76.6578979
-71.2005615 105.2538223 79.1835403
-72.1678619 104.9946976 81.4218140
-151.9626770 103.8915405 97.6250229
-153.3343811 104.0616302 96.3351135
170.8101959 108.6176453 39.5705757
169.1288757 108.3397980 41.9538727
87.6770020 109.1893921 42.1373520
-70.2109756 106.6423569 77.0360794
-100.3958206 103.2489777 107.6686859
-101.4635391 103.2139893 108.0432205
-102.5658722 103.1812439 108.4169312
-103.6417999 103.1505432 108.7532501
-104.7422943 103.1268387 109.0680389
-105.8217239 103.1029282 109.3329773
-151.9209900 104.9821167 97.9240265
-153.2952271 105.1519699 96.6456604
169.1812439 109.5178528 41.7597046
87.6868896 110.3764191 41.9649315
-70.1875839 107.7424622 77.3796463
-100.3783417 104.3246307 107.8794327
-101.4450760 104.2897339 108.2640457
-102.5502853 104.2562637 108.6327972
-103.6251526 104.2281265 108.9640656
-104.7239380 104.2036743 109.2694855
-105.8038254 104.1809921 109.5328140
-151.8669128 106.0739670 98.2018585
-153.2692261 106.2474823 96.9078064
169.2324829 110.7034378 41.4845657
167.5983887 110.4469604 43.6462173
166.0895386 110.2382507 45.4814758
87.7051086 111.5667191 41.7598495
-70.1744003 108.8489609 77.6648483
-100.3601074 105.4053497 108.0786743
-101.4338074 105.3683701 108.4655914
-105.7857971 105.2593231 109.7239227
-113.5025482 105.1841736 111.0208817
-114.6322098 105.1862030 111.1011810
-115.7336273 105.1908417 111.1630936
-116.8701019 105.1983643 111.2002640
-118.0045166 105.2102509 111.2058716
-119.1233063 105.2231216 111.1992722
-151.8316193 107.1716309 98.4268417
-153.2314606 107.3467026 97.1383972
-154.6208496 107.5322418 95.7704620
169.2833557 111.8942795 41.1554718
167.6494446 111.6307831 43.3616486
166.1271057 111.4129944 45.2401810
87.7257996 112.7630768 41.5122108
-70.1587982 109.9628067 77.8842163
-100.3519592 106.4862518 108.2371368
-101.4156342 106.4504623 108.6203003
-105.7685089 106.3382568 109.9006500
-113.4894257 106.2634583 111.1869278
-114.6286316 106.2646790 111.2732239
-115.7232590 106.2694321 111.3344879
-116.8603668 106.2800369 111.3543701
-117.9842224 106.2923126 111.3569489
-119.0964050 106.3044434 111.3594055
-151.8180542 108.2754517 98.5990219
-153.1967926 108.4501648 97.3326340
-154.5799255 108.6351776 95.9847260
167.7208862 112.8259888 42.9994316
166.1956635 112.6038742 44.9057465
87.7587128 113.9615936 41.2268829
86.6624222 114.1865540 39.6004677
-70.1381226 111.0850067 78.0305786
-100.3274536 107.5744171 108.3516464
-101.4203262 107.5350342 108.7540588
-102.5000916 107.5012665 109.1227493
-103.5850830 107.4702454 109.4579315
-104.6906433 107.4438705 109.7696991
-105.7739258 107.4208832 110.0442276
-113.4700851 107.3440094 111.3382874
-117.9855652 107.3757477 111.4951477
-119.0856476 107.3878632 111.4978104
-151.7957458 109.3816605 98.7476196
-153.1787720 109.5590134 97.4771805
-154.5724945 109.7475357 96.1216125
167.7678986 114.0189056 42.6243362
166.2434082 113.7931519 44.5563850
87.7672272 115.1814957 40.8388901
86.7078094 115.4009094 39.2182617
85.6313477 115.6473923 37.4490585
-70.1343918 112.2129211 78.1330948
-100.3321838 108.6606369 108.4736557
-101.3992767 108.6239319 108.8584747
-102.5004959 108.5889893 109.2243042
-103.5761108 108.5590744 109.5592270
-104.6712418 108.5319061 109.8701248
-105.7610245 108.5090485 110.1427765
-113.4665756 108.4299393 111.4529114
-117.9635468 108.4606171 111.6187744
-119.0699768 108.4729309 111.6185150
-151.7845459 110.4929352 98.8531799
-153.1657257 110.6725769 97.5812836
167.8724518 115.2381439 42.1352386
166.3126831 114.9951019 44.1372337
87.8168030 116.3957672 40.4542046
86.7578888 116.6242676 38.7853394
-70.1284409 113.3513794 78.1539154
-113.4694977 109.5195236 111.5318146
-114.5871582 109.5224075 111.6146774
-115.7065048 109.5280685 111.6694183
-116.8211212 109.5373154 111.6995468
-117.9438553 109.5469284 111.7214279
-119.0625610 109.5608597 111.7158127
-151.7867737 111.6110077 98.9092712
-153.1572876 111.7912979 97.6445923
167.9614258 116.4574127 41.5787964
166.3965759 116.2045593 43.6413078
87.8499603 117.6254807 39.9789581
86.7857132 117.8645020 38.2572174
-70.1453400 114.4933319 78.1467819
-113.4602737 110.6103592 111.5956726
-114.5744476 110.6127167 111.6793823
-115.6863937 110.6184006 111.7317352
-116.8297272 110.6308365 111.7652588
-117.9401855 110.6367874 111.7924500
-119.0751648 110.6544647 111.7842789
-151.7847137 112.7320709 98.9356461
-153.1706238 112.9173355 97.6526642
168.0867920 117.7018280 40.9157219
166.4908142 117.4275589 43.0636444
87.8925629 118.8635635 39.4511223
86.8331375 119.1107330 37.7058144
-70.1686096 115.6439896 78.0720901
-151.7898254 113.8580551 98.9253693
-153.1744995 114.0464630 97.6372910
168.2514038 118.9640579 40.1495934
166.6053925 118.6654358 42.3949852
87.9448395 120.1081390 38.8745880
-70.1939240 116.8040161 77.9192810
-151.8117981 114.9911652 98.8693695
-153.1851501 115.1803818 97.5834503
166.7478180 119.9208908 41.6274757
165.1441345 119.6501312 43.7283058
163.6454773 119.4368286 45.4997559
90.1498108 120.8876877 41.5338860
89.0576935 121.1240540 39.9210892
88.0159149 121.3602982 38.2487030
-70.2085724 117.9771652 77.6916885
-71.1770630 117.6358185 80.2694092
-72.1414795 117.3379593 82.5582428
-151.8310852 116.1271210 98.7844543
-153.2085876 116.3211212 97.4796753
-154.6189880 116.5346069 96.0607681
166.9061890 121.1938171 40.7898750
165.2870331 120.9064789 42.9476738
163.7581787 120.6718674 44.8240433
90.1937256 122.1442261 40.8790207
89.1236115 122.3797531 39.2481499
88.0716324 122.6344223 37.5132446
-71.1972427 118.8068466 80.0264893
-72.1642151 118.5003281 82.3526230
-151.8637238 117.2713776 98.6504669
-153.2482300 117.4702835 97.3237228
-154.6621094 117.6883316 95.8907166
165.4234619 122.1673126 42.0921555
163.8883362 121.9228973 44.0479431
90.2706070 123.4015961 40.1979828
89.1906509 123.6558151 38.4909439
-71.2282333 119.9892044 79.7144775
-72.2009735 119.6705627 82.0896149
-151.8968658 118.4195938 98.4756470
-153.3015594 118.6279755 97.1208801
165.5918274 123.4529190 41.1241684
164.0421295 123.1943588 43.1685944
90.3329086 124.6772003 39.4155693
89.2620239 124.9409027 37.6565247
-71.2536240 121.1835556 79.3314972
-72.2271271 120.8582764 81.7315292
-151.9498291 119.5797272 98.2361755
-153.3593750 119.7945404 96.8651733
164.1899261 124.4678345 42.2604256
162.6383820 124.2174454 44.1435394
161.1665497 124.0145721 45.7699547
92.5384369 125.4904251 41.7168007
91.4573517 125.7233124 40.1887245
90.4015121 125.9683990 38.5550156
89.3478394 126.2402344 36.7375526
-71.2830505 122.3922424 78.8641510
-72.2861176 122.0375824 81.3889313
-149.2920685 120.3687668 100.3693390
-150.6474457 120.5510406 99.2125854
-152.0143127 120.7481537 97.9533463
162.8153534 125.5118942 43.1352615
161.3170776 125.2846680 44.8712540
92.6075287 126.7742081 40.8833466
91.5352478 127.0175171 39.3132858
-71.3139954 123.6171722 78.3135910
-72.3182907 123.2456818 80.9050293
-149.3541565 121.5336380 100.0861130
-150.7064209 121.7167969 98.9145660
-152.0788116 121.9181900 97.6370926
162.9859467 126.8099594 42.0497322
161.4852753 126.5749207 43.8595200
92.7041016 128.0652618 39.9859581
-72.3684769 124.4592590 80.3785248
-73.3202286 124.1473236 82.6368713
-74.2949829 123.8652344 84.6975632
-149.4107819 122.7033463 99.7644348
-150.7738342 122.8936005 98.5650253
163.2227478 128.1544037 40.7835388
161.6728668 127.8817978 42.7301903
92.7962952 129.3782654 38.9721985
-72.4195938 125.6873627 79.7877808
-73.3768463 125.3601837 82.0906067
-74.3447647 125.0682220 84.2025604
-149.4824982 123.8795547 99.3930664
-150.8632507 124.0810699 98.1539536
-152.2291870 124.2912445 96.8555222
161.8942261 129.2223969 41.4456825
160.3576355 128.9657898 43.3102951
158.8666992 128.7527313 44.9447899
95.0313339 130.2191772 40.9862938
93.9480743 130.4618225 39.4649582
92.8913269 130.7186432 37.8517761
-73.4316254 126.5901794 81.4663696
-74.3999939 126.2835388 83.6385727
-146.9088745 124.7112885 101.1471786
-148.2256775 124.8817902 100.1081772
-149.5536041 125.0624237 98.9853134
-150.9420319 125.2716904 97.7138443
162.1559601 130.6007233 40.0125580
160.5567627 130.2998810 42.0203133
159.0470581 130.0644073 43.7801132
95.1294174 131.5505676 39.8911858
94.0559387 131.7988892 38.3057022
-73.4822235 127.8424988 80.7337570
-74.4854279 127.4981689 83.0520325
-146.9864197 125.8926392 100.7278214
-148.3163300 126.0725403 99.6603012
-149.6446381 126.2593384 98.5179596
160.8236237 131.6750336 40.5407562
159.2754364 131.4065094 42.4505920
157.8010254 131.1924133 44.0509224
156.3452454 131.0005035 45.4946938
97.3781891 132.4284515 41.5908737
96.3142776 132.6502838 40.2117004
95.2662277 132.8839111 38.7227478
94.1821594 133.1634674 37.0218658
-74.5424271 128.7469635 82.2964325
-147.0756531 127.0903320 100.2504044
-148.4021759 127.2692337 99.1705780
158.0129547 132.5402679 42.7063255
156.5628052 132.3383789 44.2240067
97.5081406 133.7632751 40.4309311
96.4329987 134.0092468 38.9455109
95.3857727 134.2611694 37.3644981
-74.6057358 130.0143738 81.4535522
-147.1769714 128.2911835 99.7242355
-148.5148621 128.4825745 98.6027374
-149.8529053 128.6825867 97.3730011
158.2683563 133.9272461 41.1663132
156.7672729 133.6860962 42.8447266
155.3425140 133.4921112 44.2909775
153.9137268 133.3188171 45.5851669
99.7752075 134.6983490 41.8019409
98.6984100 134.9023285 40.5248489
97.6349945 135.1268463 39.1163559
-74.7217026 131.2822266 80.5482483
-75.6531219 130.9605713 82.7957077
-76.6269531 130.6647339 84.8516006
-147.2807007 129.5026093 99.1521149
-148.6231537 129.7005463 97.9895935
158.5834198 135.3713531 39.3807449
157.0267029 135.0786438 41.2490997
155.5887299 134.8649750 42.8009109
154.1145630 134.6585236 44.2510376
99.9139023 136.0412598 40.5573387
98.8367615 136.2657623 39.1823349
97.7795029 136.5172119 37.6410027
-75.7497101 132.2359924 81.8651733
-76.7216644 131.9152069 84.0501709
-147.3875275 130.7247467 98.5213318
-148.7349091 130.9297485 97.3119812
155.8619385 136.2832031 41.1318512
154.3699341 136.0503998 42.6889038
102.2277527 136.9929199 41.7005501
101.1464615 137.1955719 40.4906998
100.0591965 137.4179993 39.1465263
98.9958725 137.6652832 37.6658096
-75.8491974 133.5377808 80.7839203
-76.8097763 133.2005615 83.0828400
-147.5165405 131.9626160 97.8033295
-148.8773956 132.1788330 96.5379791
154.6542664 137.4707947 40.9455070
102.3771973 138.3765564 40.2767830
101.3037643 138.5967712 38.9756393
100.2265244 138.8435059 37.5174141
-76.9168091 134.4993896 82.0034027
-147.6730499 133.2179871 96.9956512
155.0182190 138.9875946 38.8680038
153.5057526 138.7142639 40.5429001
152.0405579 138.4978638 42.0041504
150.6398926 138.3211670 43.2640419
149.2670288 138.1833801 44.3501205
104.7026749 139.3830414 41.1003494
103.6301270 139.5671082 39.9705734
102.5427246 139.7933044 38.6776886
101.4780655 140.0328217 37.2763290
-77.0407028 135.8224182 80.7893066
-77.9721909 135.4976349 83.0119247
-78.9475708 135.2000885 84.9982300
-145.1159668 134.0633850 98.5167542
-146.4569855 134.2622375 97.3837891
-147.8290710 134.4856262 96.1294022
152.3532104 139.9593048 40.0578384
150.9123230 139.7479248 41.4494972
149.5048065 139.5726318 42.6990547
104.8741379 140.7909241 39.5142593
103.8051071 141.0031738 38.2745399
-78.0956573 136.8226013 81.8100281
-79.0639267 136.5018921 83.9079895
-145.2775421 135.3272095 97.6597290
-146.6121368 135.5329590 96.4877472
151.2627258 141.2624664 39.3266640
149.8244629 141.0464172 40.7194481
148.3776550 140.8614655 41.9830627
147.0215759 140.7396851 42.9868546
109.4716187 141.4704742 42.0315590
108.3595428 141.6390686 41.1054535
107.2655182 141.8195190 40.0994186
106.1631622 142.0219727 38.9619637
105.0776749 142.2474518 37.6992340
104.0171280 142.4849854 36.3281593
-79.1836395 137.8385468 82.6824493
-80.1503372 137.5308075 84.6699600
-81.1376343 137.2557068 86.4707413
-142.7891846 136.2167969 98.8720245
-144.0793610 136.3943481 97.8761597
-145.4399567 136.6055298 96.7222366
-146.7928467 136.8282471 95.4801331
150.2008820 142.5975037 38.4321060
148.6958771 142.3261108 39.9098396
147.3246002 142.1993866 41.0227776
109.6585159 142.9215698 40.3121033
108.5586395 143.0913239 39.3250160
107.4707489 143.2952881 38.2157326
106.3920517 143.5090332 36.9939117
-79.3032150 139.2134705 81.2879105
-80.2780457 138.8649597 83.4137955
-81.2526016 138.5735474 85.3111877
-142.9587555 137.4977112 97.9400177
-144.2505951 137.6811981 96.8988113
-145.6146851 137.9040833 95.6866302
147.6842957 143.7373352 38.7098885
146.2629547 143.5341187 39.9404335
144.9098969 143.4001770 40.9464111
143.5423431 143.2777863 41.8517647
142.2161102 143.1780701 42.6161575
140.8968506 143.0870667 43.2910538
139.6024323 143.0015259 43.8943863
114.3535385 143.7446899 41.8601227
113.2135086 143.8925323 41.1112328
112.1059875 144.0293121 40.3263931
110.9879227 144.1962738 39.4149323
109.8901215 144.3835144 38.4046516
108.7932053 144.5907135 37.2765923
-80.4202347 140.2360840 81.9840088
-81.3827438 139.9237061 83.9913254
-140.5147400 138.4263458 98.8876266
-141.8007507 138.5953369 97.9676208
-143.1300812 138.7875977 96.9290390
-144.4474792 138.9899597 95.8097534
146.6650848 145.1336670 37.3265228
145.2545776 144.9205475 38.5679131
143.8706970 144.7739563 39.6100845
142.5304718 144.6586609 40.4794540
141.1807251 144.5586395 41.2556038
139.8722229 144.4647522 41.9572792
114.5788651 145.2070770 39.9851608
113.4420166 145.3720703 39.1578674
112.3370361 145.5382233 38.2664223
111.2264557 145.7258911 37.2508812
110.1396255 145.9219513 36.1324730
-80.5467529 141.6765289 80.3358459
-81.5337677 141.2998352 82.5244293
-140.6703491 139.7076721 97.9019165
-141.9718628 139.8896027 96.9225845
-143.3174438 140.1027374 95.8082886
-144.6494446 140.3242340 94.6267395
145.7309265 146.6177521 35.5775604
140.2072449 145.9823914 39.7065506
138.9021301 145.9108734 40.3424835
137.5898895 145.8507385 40.8779793
119.3848114 146.2197113 40.4662094
118.2380676 146.3294525 39.9228096
117.1007233 146.4516296 39.2992134
115.9539948 146.5897522 38.5771332
114.8312531 146.7422028 37.7732277
113.7147675 146.9029541 36.8858261
-81.6546021 142.7546082 80.8099213
-82.6661377 142.3791199 82.9626923
-83.6296539 142.0919800 84.8131409
-140.8646698 141.0281525 96.7871628
-142.1896973 141.2256927 95.7279968
140.6102905 147.5973663 36.9531288
139.2682800 147.4778137 37.7760544
137.9493256 147.3927002 38.4171638
119.6667786 147.7552795 38.2078209
118.5232773 147.8793030 37.5992279
117.3904343 148.0073242 36.9141693
116.2596588 148.1740417 36.0673409
115.1530609 148.3351593 35.1657448
114.0443878 148.5495605 34.1207352
-82.8272247 143.8199768 81.2078094
-83.7903519 143.4916992 83.2301636
-141.0688934 142.3561401 95.5668488
-142.3936920 142.5692444 94.4532852
138.4037170 149.1059113 35.3560104
137.0665741 148.9834595 36.0347290
135.7563324 148.8904877 36.6318893
134.4802094 148.8280182 37.0988503
133.2119598 148.8167877 37.3924980
131.9537354 148.7989960 37.6100731
130.6957092 148.7861633 37.7800980
129.4776306 148.8053284 37.8671036
128.2577209 148.8262024 37.8849945
127.0471191 148.8759766 37.7614975
125.8601990 148.9219971 37.5748978
124.6676102 148.9799042 37.3294487
123.4923096 149.0518341 37.0078239
120.0015106 149.3511200 35.4974937
-83.0124741 145.3275604 79.1771622
-83.9812164 144.9229431 81.4311447
-84.9461670 144.5994110 83.4482422
-85.9170532 144.3339233 85.1718750
-138.6687012 143.3354187 96.2462845
-139.9723969 143.5173340 95.2792358
-141.3015442 143.7236938 94.2021027
134.9889221 150.6095428 33.5742035
129.9020844 150.4763489 34.7421227
128.6887360 150.5267487 34.7560005
127.4591599 150.5512695 34.6464958
126.2648392 150.6035767 34.4386597
125.0794144 150.6540375 34.2097168
123.9081039 150.7546997 33.8550186
120.4523773 151.1867065 31.9107800
-84.1594467 146.4795685 79.2701263
-85.1190948 146.0819397 81.5485153
-86.0892792 145.7582397 83.4484482
-138.8851318 144.6886902 94.8965912
-140.2063751 144.8966522 93.8455048
-86.2678375 147.2705688 81.4568329
-87.2853394 146.9108429 83.4039383
-88.2596741 146.6558838 85.0542679
-89.2643738 146.3984833 86.6094360
-90.2643890 146.1943054 87.9574890
-136.5148926 145.7034302 95.3220749
-137.8359375 145.8908997 94.3791351
-139.1382446 146.0854034 93.3641586
-87.4686584 148.4646301 81.2706299
-88.4508133 148.1381073 83.1470413
-89.4524536 147.8459930 84.8192749
-90.4496613 147.6103516 86.3049316
-136.7671509 147.0986176 93.7810059
-138.1016083 147.3120728 92.7417297
-89.6622009 149.3576050 82.7433395
-90.6562424 149.0706635 84.4027863
-91.6484451 148.8405762 85.8721008
-92.6702042 148.6298828 87.2070084
-131.9291840 147.8634949 95.3956299
-133.1938629 148.0121155 94.6934128
-134.4451447 148.1650696 93.9238205
-135.7511749 148.3511658 93.0104828
-137.0540161 148.5475769 92.0184174
-91.8809967 150.3211975 83.8417816
-92.8887711 150.0890198 85.3196030
-132.1841278 149.2812042 93.7841415
-133.4553070 149.4412537 93.0065155
-134.7143555 149.6035156 92.1603241
-136.0610657 149.8312988 91.1157227
-93.1380997 151.6340027 83.0389099
-94.1254883 151.3781281 84.5393448
-95.1395569 151.1641541 85.8755798
-96.1549454 150.9760895 87.0495529
-97.2037735 150.8007050 88.1397247
-129.9512177 150.4447021 93.3767929
-131.1972351 150.5790100 92.7228775
-132.4733124 150.7438812 91.9416580
-95.4018936 152.7052917 83.5753326
-96.4035339 152.4976501 84.8895874
-97.4349213 152.2935486 86.1102295
-130.2384491 151.9162903 91.4716568
-131.5081177 152.0739441 90.7098083
-97.7114334 153.8550873 83.6915970
-98.7330322 153.6643219 84.9098816
-99.7606506 153.4909058 86.0243454
-100.8088531 153.3304138 87.0022659
-101.8665390 153.1914673 87.8826447
-102.9291458 153.0796661 88.6581802
-103.9860458 152.9578247 89.3785095
-123.2038956 152.7542725 92.4167328
-124.3931351 152.8318329 92.0889130
-125.6145172 152.9328156 91.6717529
-126.8242722 153.0376129 91.2067947
-128.0711670 153.1705322 90.6331787
-129.3191376 153.3087311 89.9774475
-130.5699158 153.4617310 89.2284546
-100.0550919 155.1028442 83.4416962
-101.0877304 154.9139862 84.5550842
-102.1263504 154.7458801 85.5608215
-103.1948090 154.6058350 86.4571686
-104.2462921 154.4884796 87.2245560
-123.4963684 154.2628021 90.3441162
-124.6987076 154.3584137 89.9388428
-125.9367371 154.4714203 89.4513855
-103.5205612 156.2337189 83.7659149
-104.5596008 156.0917664 84.6500015
-105.6389847 155.9633026 85.4634247
-106.6933594 155.8532104 86.1717758
-107.7929459 155.7686157 86.7785339
-108.8731384 155.6960754 87.2871552
-109.9723587 155.6204071 87.7631989
-111.0806274 155.5797729 88.1367111
-112.2001343 155.5401611 88.4512711
-113.3297653 155.5166016 88.6930847
-114.4533768 155.5050964 88.8679810
-115.5988770 155.5029602 88.9876175
-119.0700684 155.5703125 88.9730835
-120.2454453 155.6244202 88.8135452
-121.4319916 155.6780090 88.6038666
-122.6383286 155.7654877 88.2717056
-123.8577118 155.8491821 87.8709641
-125.0725555 155.9718628 87.3937759
-106.0022354 157.6648254 82.3368759
-107.0607376 157.5377808 83.1998444
-108.1508484 157.4391937 83.9107361
-109.2299347 157.3347321 84.5207901
-110.3217621 157.2703552 85.0407028
-111.4302979 157.2165070 85.4685516
-112.5437927 157.1691284 85.8130341
-113.6693268 157.1383057 86.0736465
-114.7895508 157.1121826 86.2755508
-115.9512634 157.1173401 86.3681564
-119.4359741 157.1923828 86.2632675
-120.6245804 157.2596436 86.0440674
-114.0986099 158.8866272 82.7488327
-116.3863907 158.9154205 83.0176544
-117.5401688 158.9429626 83.0418320
-118.7265015 158.9900055 82.9295578
-119.9107056 159.0378876 82.7132874
124.1564789 55.1554298 19.9716816
122.4123535 55.1912193 19.1705093
135.1849976 55.6790886 21.0616112
134.5161438 55.6652298 21.4538822
133.8510895 55.6689682 21.7876034
132.5471344 55.6720467 22.2882748
128.1277313 55.6274872 23.1550579
126.8979492 55.6174088 22.9794197
126.2884903 55.6274071 22.9045639
125.6827698 55.6411781 22.8034191
125.0726624 55.6615601 22.6672115
124.4704208 55.6885223 22.5592384
123.8699265 55.6913261 22.3407192
122.1043396 55.7274818 21.6255894
117.2564011 56.3063087 20.7095356
137.2647858 56.6614151 24.2004948
136.5823364 56.6849022 24.5871048
135.9104614 56.6954498 24.9321613
120.4631271 56.7078209 24.9918308
119.8744431 56.7229080 24.6700401
119.2997284 56.7430420 24.3313789
118.7291107 56.7724876 23.9777508
118.1517715 56.8085976 23.5907269
117.5797501 56.8331757 23.1984615
117.0118408 56.8463058 22.8124752
116.4424133 56.8452530 22.3362122
115.8893890 56.8628044 21.8196392
139.7174225 57.2167397 24.4040413
115.6740799 57.4049530 23.7181473
141.5243378 57.7896729 24.8161545
140.8367157 57.7800713 25.3301888
140.1262512 57.7826385 25.8716087
139.4326172 57.7798195 26.3671341
115.4835281 57.8966293 25.3990250
114.9109039 57.9191170 24.9730015
114.3400497 57.9459877 24.4463539
113.7917786 57.9920082 23.9380093
112.6698990 58.0320740 22.6820793
112.1100693 58.0194969 22.0456715
110.8087540 58.5859909 22.6324539
144.5257568 58.9182510 25.4444771
143.7887115 58.9151268 26.1541920
143.0375671 58.9177361 26.8489666
110.6415558 59.1351662 24.2983761
110.0775833 59.1306419 23.6509285
146.9060974 60.0529976 26.1652088
146.1289215 60.0527344 27.0118866
145.4188538 60.0314980 27.6800900
108.1318893 60.2885666 24.7493382
107.5723572 60.3065605 24.0133266
148.0950928 60.6252022 26.3898468
148.5827484 61.1774101 27.2948627
147.8000641 61.1769371 28.1351719
149.0843506 61.7139549 28.1326389
149.5953064 62.2662544 28.9586487
148.8135834 62.2501373 29.7180481
104.2755203 62.6079254 25.9120026
103.7483978 62.6427650 25.1374283
103.2173538 62.6824036 24.3162556
103.1050034 63.2498131 25.6670227
151.3424072 63.4120750 29.3718586
102.9765854 63.7841148 26.9271526
101.8827667 63.8597298 25.2747974
152.6149597 64.0345535 29.0374050
153.9159393 64.6032944 28.6742821
153.1604462 64.5783463 29.5810776
152.3824005 64.5456390 30.4965687
-111.3107758 63.0884094 67.0724869
-111.8582458 63.0659218 67.4128494
-112.4197769 63.0452728 67.7749023
-112.9630890 63.0283737 68.0566101
-113.5122147 63.0147362 68.3006210
-114.0739136 63.0007973 68.5414963
-114.6357803 62.9926910 68.7616043
-115.2096939 62.9805641 68.9241486
-115.7732697 62.9739418 69.0625381
-116.3477020 62.9725266 69.1591721
-116.9360123 62.9693832 69.2512054
-117.5151978 62.9834213 69.3233490
-118.0972595 62.9997559 69.3094254
-121.0956192 63.0611725 68.9705124
153.6803436 65.1232605 30.1035595
-120.1521759 63.5190697 71.4745941
-120.7424622 63.5265846 71.3746033
-122.6090469 63.5226288 70.8498840
154.2238922 65.6773834 30.5623951
153.4531860 65.6356506 31.4565754
-106.4222565 64.1554260 68.2539063
-106.9523163 64.1329041 68.8207016
-107.4824371 64.1112137 69.3276596
-108.0093002 64.0947876 69.7824631
-108.5462875 64.0928192 70.2200928
-118.0976257 63.9281731 73.5510254
-118.6899490 63.9273949 73.5294342
-119.2837677 63.9395447 73.5136490
-119.8804245 63.9536743 73.4596024
-120.4651947 63.9600754 73.3949432
-121.0606689 63.9780197 73.3046188
-121.6691055 63.9962425 73.1600037
-122.2877121 64.0025330 72.9818878
154.7938385 66.2406158 30.9297161
-122.6317978 64.4446182 74.6777191
-127.0283508 64.5495834 72.8580627
-127.6802292 64.5419846 72.4581299
156.1166840 66.8727493 30.2338200
155.3235626 66.8064957 31.2866402
154.5751495 66.7491837 32.1850853
99.0575714 67.1938248 28.8529072
98.5055542 67.2362289 28.0168934
97.9504547 67.2769699 27.1351318
-102.3098373 65.3127136 68.1111069
-102.8080521 65.2795258 68.8309708
-103.3267670 65.2563629 69.5455627
-103.8510590 65.2331085 70.1561279
-122.3941879 64.9121704 76.3454132
-122.9872665 64.9256897 76.2132950
-123.6125870 64.9328613 76.0121002
-124.2297058 64.9507141 75.8034592
-124.8598022 64.9720535 75.5661926
-125.4716034 65.0141678 75.3574066
-126.0916977 65.0408020 75.0866013
-126.7284927 65.0526962 74.7639008
157.2520294 68.0055313 30.8218365
96.7206039 68.4477768 27.5095215
-99.8211288 66.3996048 69.2580872
-100.3301163 66.3887253 70.0303421
-126.8978577 65.9755554 77.6729050
-127.5338135 65.9980774 77.3914032
96.6242828 68.9919205 28.4422016
-98.1089706 66.9973907 68.7087784
-130.4932709 66.6214218 77.1191483
-131.7895966 66.6738052 76.2616882
158.4483948 69.1201324 31.1784649
96.5537872 69.5422134 29.4032631
95.9710541 69.5658188 28.5044842
-96.9262924 67.5789185 68.9036865
-97.4176712 67.5504379 69.7927094
-97.9160156 67.5124435 70.6143723
-130.2748413 67.0983582 78.5950546
-130.9057312 67.1301422 78.2182693
-131.5558929 67.1442871 77.8098221
-132.2334595 67.1308060 77.3540649
95.3605270 70.1537552 28.5841713
95.3226395 70.7200165 29.5353489
94.7508163 70.7481461 28.6186752
-133.7674561 68.1811676 78.8219757
159.4766693 70.7624588 32.4996948
94.1413803 71.3496857 28.5747604
-95.4216614 69.0694885 72.3792572
-134.9012604 68.7325439 79.1747131
160.1218109 71.3239212 32.5027504
159.2510529 71.2931366 33.6460838
-92.7468185 69.8285446 69.3641815
-93.2454453 69.7855072 70.4235077
-93.7056198 69.7509079 71.3583832
-94.1807785 69.7095184 72.2041855
-94.6971512 69.6251450 72.9742737
-95.2299194 69.5802078 73.7731400
-134.6378326 69.2671204 80.5301895
-135.3553772 69.2721786 79.9891281
-136.0084839 69.2924271 79.4925079
93.9820404 72.4223480 30.2494545
-92.1054535 70.3861237 70.0601044
-135.7781525 69.8118286 80.7741852
160.5135193 72.4042435 33.7031784
93.9213181 72.9757385 31.0259323
93.3923111 73.0216599 30.2240505
-90.9738235 70.9717865 69.6143112
-91.4739304 70.9330826 70.6790619
-91.9474335 70.8817291 71.6127090
-135.5965576 70.3144455 81.9354095
-136.2570648 70.3331985 81.4693375
-136.9564362 70.3437500 80.9331665
160.3071442 72.9805908 34.8098640
-136.7571411 70.8594666 82.0941620
160.9568787 73.5156403 34.6160812
160.1926575 73.4542770 35.5415077
91.6356888 74.2932434 29.0060959
-89.6737061 72.0715103 70.6827164
-136.5788116 71.3723297 83.1952744
-137.2562103 71.3849716 82.7063446
-137.9191437 71.3986588 82.2135468
161.5818176 74.1098099 34.4804192
-89.5110550 72.5406189 72.0497208
163.0616150 74.7799454 33.1222496
162.2244263 74.7128067 34.2986259
161.4163666 74.6457367 35.3778687
91.5059128 75.3805771 30.4895992
-88.8841171 73.0799026 72.5573730
-89.3878784 73.0161209 73.3466568
-138.9010620 72.5067673 83.2779083
-139.6172485 72.5392380 82.6668625
-140.2833252 72.5830460 82.0951462
-140.9571075 72.6218033 81.4888992
91.4611130 75.9301529 31.1938496
90.8952866 75.9774399 30.2921352
-87.7880707 73.7167053 71.7318954
-88.2872543 73.6144638 72.7860336
91.4007263 76.4716110 31.8434353
-86.2637787 74.4288330 69.7049332
-87.7001190 74.1927414 73.0378036
-88.1823044 74.1188812 73.9724274
-141.3127899 73.6542282 83.0258713
164.2085724 76.4949951 33.5852242
90.2370987 77.1399994 30.7004700
-141.0823975 74.1844711 84.0948334
164.8517303 77.0824585 33.3467903
164.0208130 77.0134888 34.5174751
90.1959534 77.6945038 31.3355465
89.6504745 77.7608566 30.4056778
-140.9381409 74.6971207 85.0218658
163.8772125 77.5329971 35.3587074
89.0926132 78.3930283 30.0739594
88.5689087 78.4763794 29.0729885
-84.9153748 76.0176697 71.4209976
-140.7918243 75.1983185 85.9165955
164.5747528 78.1300354 35.0199203
163.7127838 78.0605087 36.1880379
89.0660095 78.9561768 30.7302189
-84.8126221 76.5164795 72.7025909
-140.6536255 75.6949310 86.7899170
-141.3348999 75.7430038 86.2490692
-142.0134735 75.7917252 85.6795578
-142.6790771 75.8471451 85.1074677
-143.3711853 75.8861313 84.4886475
165.2330780 78.7247543 34.7090492
89.0154190 79.4938507 31.3261986
165.1121979 79.2562943 35.4524879
88.9547501 80.0344009 31.9246826
-144.4817047 76.9553146 85.0495453
165.8172913 79.8431320 35.0490227
164.9458466 79.7756805 36.2378693
88.8904877 80.5777588 32.4846802
-83.5291824 78.1292343 73.8843536
-144.3390961 77.4685974 85.8940201
164.8795776 80.2963791 36.8651619
88.8322296 81.1166687 32.9983215
88.3191147 81.2024231 32.1007347
87.7768478 81.2837677 31.1129971
87.2309723 81.3524170 30.1188431
-82.9483261 78.7014771 73.8702240
-83.4400940 78.6286011 74.9036560
-144.1772461 77.9892349 86.7469482
-144.8806610 78.0214386 86.1290283
164.7367554 80.8234863 37.5707588
-82.3742599 79.2808609 73.8199692
-145.4288025 78.5752106 86.3166580
165.4171143 81.4307938 37.1744957
164.6167450 81.3568878 38.2232132
86.5951385 82.5276794 30.1895618
-80.8353043 80.0429688 71.2724762
-81.3169098 79.9608459 72.5304184
-81.7928238 79.8643646 73.6790466
-82.2872849 79.7797928 74.8009109
-145.2960968 79.0951614 87.0917969
-146.0074005 79.1289520 86.4558792
166.1120300 82.0411148 36.7181549
86.5663071 83.0848770 30.7449856
-80.2814178 80.6329041 71.1738358
-145.1489105 79.6127472 87.8702698
166.8369751 82.6530762 36.1941185
165.9732361 82.5746689 37.3766975
-79.6639633 81.2106781 70.8221207
-80.1965942 81.1296768 72.2916946
-145.0368195 80.1165009 88.5852127
-145.7514343 80.1542511 87.9752121
86.4926376 84.1808472 31.7664070
85.9387283 84.2651825 30.7503300
-80.0796890 81.6054382 73.2505341
-146.3262634 80.7234650 88.0633240
167.3666382 83.8133545 36.3662300
86.4661865 84.7429581 32.2273254
-79.4570847 82.1657181 73.0097351
-80.0073242 82.1029892 74.2394867
-146.1883087 81.2496796 88.7567062
-78.7922058 82.8230362 73.0650711
-146.0772858 81.7672195 89.4191971
-78.7979202 83.2591324 73.7231750
-145.9472809 82.2768402 90.1038361
168.7550812 85.5884476 35.6777649
86.3375778 86.3899384 33.5254745
-78.7620010 83.7648239 74.5443039
-145.8435822 82.7885666 90.7367249
168.6758423 86.1218109 36.2169533
-77.6670227 84.4975052 73.3127365
-78.1990891 84.3834610 74.2802505
-78.7083740 84.2800598 75.3506622
-145.7729492 83.2924576 91.3058319
-146.4594727 83.3467865 90.7260742
-147.0867157 83.4088669 90.1815796
-147.7914581 83.4757385 89.5190582
-148.4581451 83.5362854 88.8906555
-149.2081299 83.5820923 88.1747589
-149.8157959 84.1516037 88.1197662
168.4195251 87.1816788 37.4072227
86.2295837 88.0506897 34.6624374
85.6988144 88.1413193 33.7398987
168.3420715 87.7175751 37.8789444
85.1289520 88.7823944 33.1688881
84.5666885 88.8697586 32.1774406
-76.6002655 86.2076721 72.9484940
-149.5666046 85.1879196 89.4107513
168.2753601 88.2543259 38.3139191
85.0942612 89.3426590 33.4970322
-76.0605240 86.8209534 72.4724503
-76.5460587 86.7200317 73.7795868
-149.4562378 85.7152557 89.9970322
-150.1786652 85.7698441 89.2917252
-150.9043884 85.8314743 88.5640869
85.0838776 89.9008484 33.8629417
85.0692139 90.4640427 34.1931000
84.5125046 90.5556183 33.1971436
83.9357986 90.6540756 32.1310234
-75.4606705 87.9460144 72.7461929
-150.6864777 86.8628464 89.7762909
-75.4128265 88.4563904 73.5332794
169.5961304 90.6213608 37.6781769
-74.8741684 89.0765457 72.9306793
-75.3647156 88.9633942 74.2876434
-150.4841461 87.9063797 90.8716965
84.9676666 92.1442947 35.0182228
84.4236221 92.2371597 34.0869255
-74.3252563 89.6974792 72.2655487
84.9445953 92.7066727 35.3057442
-74.2721634 90.2108841 73.0043335
84.9309998 93.2662125 35.5930099
-74.2218552 90.7234726 73.7350769
-151.6910400 89.6015701 90.9516907
84.8828659 93.8288498 35.7954521
-73.6465302 91.3426971 72.9720535
-74.1600647 91.2264633 74.3846283
-151.5785065 90.1334915 91.4578018
169.2408600 93.3320465 39.5629044
-74.0989990 91.7311478 75.0090103
-151.4799194 90.6552811 91.9307861
-152.1941528 90.7183151 91.2492065
169.1942749 93.8788605 39.8575401
-74.0506287 92.2418671 75.6249771
-151.4174194 91.1768799 92.3549652
169.1627197 94.4306183 40.0958443
169.9563446 95.0970001 39.1694336
169.0914001 94.9828415 40.3809853
85.8848495 96.4790421 38.4959068
85.3305664 96.5680695 37.6672173
-151.1978302 92.7518845 93.6064301
85.8700638 97.0469284 38.6600151
-72.8853149 94.5539551 75.3759842
-151.1370087 93.2776031 93.9890594
-151.8160248 93.3477859 93.3530960
-152.4977112 93.4200363 92.6999969
170.6998291 96.8655167 38.7041740
85.8439026 97.6166534 38.7978630
-72.8804398 95.0688553 75.9050903
170.5965118 97.4237976 39.0640259
85.8312225 98.1866531 38.9397316
-72.3495331 95.7124176 75.1158981
-72.8399429 95.5955811 76.3481827
170.5677338 97.9726944 39.2816162
85.8068542 98.7597351 39.0513458
-152.2816315 95.0098801 93.8116684
170.4770050 98.5200424 39.5480690
85.8151321 99.3306198 39.1957245
-152.2208099 95.5383530 94.1640549
-152.9516449 95.6152344 93.4494019
-153.6782227 95.6979904 92.7094727
170.4694366 99.0809784 39.6674919
85.8072281 99.9038773 39.3034592
-71.7609482 97.4200668 75.1869507
-153.6107941 96.2381821 93.0301437
170.4515991 99.6476135 39.7703171
85.7979279 100.4784775 39.3996964
-71.7601471 97.9479218 75.6846313
-153.5573120 96.7707367 93.3461227
-71.7360916 98.4784698 76.0892868
-71.1907501 99.1470871 75.0892487
-71.6990433 99.0102386 76.4422226
-70.6366501 100.3581924 74.4331894
-154.7747192 99.0750580 93.1031036
-70.6151352 100.8929672 74.8006516
-70.6145401 101.4236298 75.2132721
-154.6581726 100.1387482 93.6921463
-155.4129333 100.2284317 92.9137039
-70.5809097 101.9619217 75.5027313
-154.6260986 100.6789932 93.9229736
-155.3631592 100.7693939 93.1658325
-70.5887070 102.4966507 75.8753281
-154.5719604 101.2168274 94.1773911
-70.0870056 103.1970062 74.7048187
-70.5599213 103.0368423 76.1470261
-154.5210571 101.7565613 94.4211349
-70.5435028 103.5713654 76.4663696
-154.4942169 102.2999115 94.6177521
86.8423157 106.6838837 41.2417755
86.2831421 106.7823334 40.4650002
-70.5182953 104.1115036 76.7308731
-154.4489899 102.8409348 94.8252640
-70.0418320 104.8102493 75.6234512
-70.5014038 104.6538620 76.9766159
-154.4298553 103.3837814 95.0091476
-155.1576233 103.4782104 94.2645798
86.8246689 107.8626251 41.1666985
-154.4012146 103.9258118 95.1998978
-155.1177673 104.0185089 94.4748383
86.8406677 108.4510651 41.1212425
-154.3697205 104.4684830 95.3853836
86.8416824 109.0427170 41.0472069
-154.3300323 105.0123138 95.5599289
86.8703384 109.6297913 40.9996529
86.8780823 110.2235184 40.9109421
86.8799973 110.8218460 40.8012657
-154.2835693 106.6569290 95.9624176
86.8863983 111.4206772 40.6857300
-102.2828674 105.0728836 108.7000580
-102.7990417 105.0564346 108.8627777
-103.3392715 105.0420685 109.0307693
-103.8779297 105.0286102 109.1916656
-104.4337616 105.0173645 109.3419800
-104.9870987 105.0057144 109.4774094
86.8735504 112.0269012 40.5306358
-102.2620468 105.6121750 108.7872696
-104.9811020 105.5445786 109.5674286
86.9070206 112.6189880 40.4292793
-102.2452164 106.1529465 108.8690872
-104.9729080 106.0845261 109.6557159
170.5639801 112.4137344 39.2863121
86.9278717 113.2181091 40.2912788
86.3241959 113.3483124 39.3905602
-102.2385559 106.6947098 108.9446487
-104.9522781 106.6244354 109.7364044
170.6176453 113.0235138 39.0573807
169.7516327 112.8652878 40.3061333
168.9039917 112.7183685 41.4951134
-114.3114090 107.0734329 111.3784637
-114.8736572 107.0750961 111.4218445
-115.4000244 107.0802002 111.4507599
-115.9854202 107.0818024 111.4625168
-116.5569763 107.0883865 111.4621735
-117.1445923 107.0955734 111.4585266
168.9673462 113.3257446 41.2652817
-117.1511383 107.6387863 111.5201721
169.0306091 113.9371262 40.9965096
-117.1227112 108.1809921 111.5791092
-154.1743927 110.5301056 96.5882950
-154.9372406 110.6356812 95.8412933
169.9475861 114.7060318 39.5148201
169.0505676 114.5390701 40.7790833
-114.2960358 108.7024765 111.5417480
-114.8456726 108.7039337 111.5748672
-115.3988495 108.7075729 111.5999374
-115.9995422 108.7151337 111.6182022
-116.5596619 108.7190781 111.6268005
-117.1079636 108.7237244 111.6345825
-154.1688385 111.0884628 96.6358795
169.9794159 115.3168869 39.2549286
169.0653992 115.1410522 40.5871773
85.9446564 116.5012741 37.5744934
-154.1948395 111.6528168 96.6424179
-154.9382324 111.7566223 95.9268112
85.9636536 117.1215210 37.3248253
-154.1901550 112.2140427 96.6660919
85.9681931 117.7506256 37.0321312
-154.1993713 112.7784271 96.6688156
169.2642212 117.0010986 39.6599617
85.9786301 118.3780060 36.7389107
-154.2182007 113.3458557 96.6511230
169.3702545 117.6441345 39.2274513
-154.2148438 113.9107056 96.6451187
-154.2248688 114.4794769 96.6168671
87.1520538 119.9760513 37.7371597
86.5790100 120.1324997 36.7555580
-154.2561340 115.0527954 96.5571442
87.1415176 120.6239853 37.3533249
-154.2469940 115.6205444 96.5228424
-154.9524536 115.7273178 95.8074036
167.9510040 119.8316956 40.1472626
87.1769714 121.2539139 37.0310631
-69.4435730 117.9782639 75.5803299
168.0684052 120.4907150 39.6651154
87.2181091 121.8885040 36.6947517
-69.4711685 118.5624542 75.4929581
168.1163635 121.1222687 39.2670822
-70.4364471 118.7766571 78.1521072
-70.4458008 119.3692474 78.0030746
167.4884033 122.2546310 39.4937706
166.5979919 122.0651398 40.7092628
88.3823700 123.5302353 37.3740730
-70.4342575 119.9784775 77.7627182
166.7189026 122.7233810 40.1448936
88.4254761 124.1714020 36.9808922
-70.4625626 120.5717621 77.6051712
-70.4629822 121.1796951 77.3517914
88.5100784 125.4659958 36.0643959
166.2261353 124.5511017 39.7155037
165.3449402 124.3629074 40.9472923
88.5141525 126.1486588 35.4908447
-153.0599823 120.6165314 96.9970245
-153.7811127 120.7346191 96.2809219
165.4858856 125.0387650 40.4015732
88.5626450 126.8108368 35.0014877
164.8061829 125.5626373 40.8790474
163.9490814 125.3835831 41.9741402
-153.1414642 121.7932281 96.6851959
164.0601654 126.0492249 41.3919220
-153.1702881 122.3860550 96.5069046
164.1606903 126.7082214 40.7798767
91.8646011 127.9324875 39.0108681
-71.6176834 124.4200745 78.6666641
-151.7723541 122.7475204 97.7121811
-152.4714966 122.8576050 97.0379410
-153.2319183 122.9882431 96.2923508
165.1242828 127.5652847 38.9595490
164.2741852 127.3842850 40.1547775
91.9124146 128.5928192 38.5024147
91.3845673 128.7258148 37.6673203
-71.6254501 125.0465698 78.3224106
-151.8025665 123.3393250 97.5276794
91.9587173 129.2513123 37.9697914
91.4217300 129.4010010 37.1023979
-71.6268234 125.6871338 77.9143600
164.5556030 128.7675171 38.7032433
92.0161133 129.9158630 37.4391136
163.8352051 129.2697906 39.2346153
163.0415955 129.1163788 40.2591324
-72.1540604 126.7467346 78.5319443
-72.6705551 126.5439072 79.8507614
-151.9587250 125.1375885 96.8344955
-152.6731110 125.2579575 96.1377869
163.1277008 129.7877197 39.6045494
-151.9950867 125.7369995 96.6047592
163.3129578 130.5144653 38.7584839
93.2346497 131.6595459 37.3771553
-72.7084961 127.8112640 79.0822067
-150.6601410 126.1141052 97.6862488
-151.3471985 126.2248917 97.0266953
-152.0434265 126.3431244 96.3488083
93.2964172 132.3429108 36.7362976
92.7507248 132.5085907 35.8215942
-72.7518311 128.4375763 78.7267609
-152.0773926 126.9348984 96.0399551
93.3679733 133.0216980 36.0924149
-73.7694778 128.7041931 80.7197189
-149.3865356 127.1147614 98.4352264
-73.3181839 129.5220337 79.0962143
-73.8179398 129.3296967 80.3291779
-149.4271240 127.7116776 98.1647491
-150.1126099 127.8158646 97.4969254
-150.7899017 127.9245071 96.7946777
-151.4547577 128.0361328 96.1164627
160.7048798 132.7026215 39.8528900
159.9028168 132.5467224 40.8543510
159.0731812 132.3755188 41.8444748
94.5447464 134.1319580 36.4195976
-73.3408813 130.1778107 78.5946884
-73.8573380 129.9627075 79.9266586
-150.8374481 128.5298157 96.5267639
-151.5504761 128.6581116 95.8052063
159.2220764 133.0868073 41.0694504
94.6222687 134.8352661 35.6975212
159.4031372 133.8260651 40.2009125
96.8014908 134.9710999 38.3200798
96.2607346 135.1161041 37.4921837
95.7756882 135.2205811 36.7504196
95.2353134 135.3793335 35.8476906
-73.9539337 131.2549744 78.9016342
-149.5833893 129.5417023 97.2427673
96.8808594 135.6582794 37.5943604
-149.6785583 130.1697845 96.8624725
159.7250671 135.2685242 38.3025398
-74.5711746 132.3430328 79.1695557
-75.0339966 132.1571503 80.4157181
-149.7352142 130.7906494 96.5073547
-150.4575500 130.9203644 95.7915192
-75.0707245 132.8230896 79.8234940
-149.8105927 131.4127502 96.1227341
158.4562683 136.4237366 38.4454994
157.6878052 136.2673035 39.4112968
156.8977203 136.1100769 40.3557930
98.1672668 137.5000458 36.8992271
97.6282425 137.6529236 36.0499001
-75.1215515 133.4831696 79.2511826
-149.8753510 132.0401459 95.7196121
157.0958557 136.8774109 39.3915405
98.2470169 138.2336426 36.0501060
156.5017242 137.4778900 39.3015366
155.7162628 137.3115540 40.1909409
99.3850632 138.6740112 36.8032379
98.8590317 138.8140259 36.0048103
98.3199997 138.9793091 35.1486244
-75.7074432 134.6141663 79.3079987
-76.1640549 134.4352875 80.5097656
-148.6620941 133.0667419 96.2407150
-149.3261414 133.1823120 95.5812912
155.9185333 138.0872498 39.1641693
99.4691772 139.4089355 35.8914795
-76.2276993 135.1011353 79.8912506
-148.7362823 133.7019806 95.8136520
100.6403580 139.8499146 36.6072578
100.1035156 139.9959869 35.7792168
-76.2667084 135.7894897 79.1728821
-148.8239288 134.3476563 95.3544159
100.7465363 140.5837097 35.6757469
154.1608734 139.9448700 38.5882912
153.3987885 139.7889404 39.4169388
102.9335251 140.8403931 37.6799469
-76.8789597 136.9560242 79.0763855
-77.3527679 136.7517242 80.3966751
-147.5850220 135.3793182 95.7903900
153.5883179 140.5736237 38.3264046
103.0471497 141.5574188 36.7787971
-147.6998138 136.0413208 95.2688446
153.0546570 141.2337799 37.8996239
152.2748260 141.0605621 38.7477074
-77.9409866 137.9432373 80.2280273
-78.4156189 137.7617950 81.3862000
152.5026703 141.8893585 37.4780998
-78.4566574 138.4279633 80.7243423
-147.9201813 137.3665619 94.1575317
151.2196350 142.4072571 37.9537048
105.5121613 143.3083038 36.5167313
104.9772263 143.4356384 35.7994576
104.4524612 143.5629120 35.0534363
-78.4962463 139.1775818 79.9132233
-146.5872803 137.7514038 95.0001984
-147.2935944 137.8830566 94.3142624
105.6235733 144.0831757 35.3745041
-78.5555954 139.7631836 79.2898331
-146.7064819 138.4192352 94.4212036
150.1523132 143.7703552 36.8569412
149.3745575 143.6240082 37.6800003
148.6351929 143.4895477 38.4094582
107.9160614 144.3602905 36.9672890
-79.1314926 140.3960266 79.4903488
-79.6411743 140.1800079 80.6890945
-145.4387512 138.8421936 95.1537476
148.8856812 144.2690277 37.0916672
108.0364075 145.1483612 35.7894516
-79.7167206 140.8779449 79.9069901
109.2627487 145.6853333 35.8654022
108.7087250 145.8175659 35.2121201
108.1638947 145.9605865 34.5399246
-79.7709732 141.6394958 78.9478531
-145.6491241 140.1869965 93.9572754
109.4038391 146.4926147 34.5757866
146.7112274 146.4025574 35.3613052
144.5318604 146.0198822 37.3187599
143.8065491 145.9085083 37.9303398
143.1147766 145.8344574 38.4332123
142.4391479 145.7651062 38.8967819
141.7624359 145.7082825 39.3424225
141.1069489 145.6680603 39.7492828
112.8239746 146.6392212 36.8064117
112.2630844 146.7563171 36.2472343
111.7175369 146.8579712 35.6986542
111.1730347 146.9625092 35.1110611
110.6218262 147.0830994 34.4544373
110.0943527 147.1926422 33.8375664
109.5531082 147.3516083 33.1328888
-80.8808517 142.6969757 79.5525818
-143.1603851 141.0533600 95.1754379
144.7417450 146.8678436 35.8599014
112.9712982 147.4445038 35.4979401
-143.2709198 141.7341156 94.5292587
-143.9343872 141.8480988 93.9449692
-82.0014267 143.7778473 80.0064011
-143.3688507 142.4090271 93.8831100
141.7322998 148.1439972 35.4446678
142.0471191 149.1149902 33.5560036
141.3431549 149.0048065 34.2165337
140.6504974 148.9105988 34.7843056
139.9670868 148.8466034 35.2229652
139.2764435 148.7334747 35.6732674
119.0392761 149.0442352 35.7522469
118.4803467 149.1290741 35.3796196
117.9227142 149.2221832 34.9703636
117.3725281 149.3041077 34.5525970
116.8317337 149.3465271 34.1747856
116.2540207 149.4684296 33.6153908
115.7103653 149.5688019 33.1338310
115.1469574 149.7126923 32.5624504
-82.2237015 145.2943115 77.8411102
-142.2437744 143.5455933 93.7067032
139.5785370 149.6916656 33.8358078
119.2468262 149.8962860 34.1688042
116.4646530 150.3856964 31.9079685
137.8244019 150.4319611 33.1063576
137.1337280 150.3607483 33.5254517
136.4725037 150.3037872 33.8565521
135.8265839 150.2307739 34.1439438
133.8683319 150.0651398 34.9553223
133.2290039 150.0621948 35.0970955
132.5794220 150.0269775 35.2541618
131.9518890 150.0027008 35.3826103
131.3190918 150.0197754 35.4487724
130.6918793 150.0273743 35.5230408
-83.3811951 146.4295349 77.9864273
-141.1631470 144.7208862 93.3751602
136.1389008 151.2272339 32.0380287
130.9619904 150.9268951 33.6804695
131.2483521 151.9145508 31.5884819
127.5434113 151.9982758 31.6455059
126.9479904 152.0328217 31.5775909
126.3498154 152.0788574 31.4452477
125.7561417 152.1250916 31.2731724
125.1717758 152.1640167 31.1152782
-85.4608688 147.1822510 80.4650955
-140.0628815 145.8957672 92.9569092
-140.2219391 146.6325531 92.0864944
