-118.4597473 92.2890167 103.2585678
-120.7344360 92.3078232 103.2704391
-123.0173264 92.3381119 103.1788177
-149.7232208 93.5874634 93.6337967
-152.3953247 93.8313599 91.5579224
162.0164795 99.1398010 37.1959457
159.0724792 98.8454742 40.1670456
88.9540787 100.0714417 34.8252792
-75.4300079 97.0022583 76.8298187
-111.7394104 94.5209351 102.6420288
-113.9627991 94.5054321 102.9674225
-116.2095337 94.5042267 103.1774902
-118.4710236 94.5138931 103.2767410
-120.7412567 94.5321732 103.2999802
-123.0235901 94.5624542 103.2117386
-149.7495422 95.8593597 93.5767517
-152.4231262 96.1132584 91.4720383
159.2597351 101.2793732 39.0541306
156.3941956 101.0198822 41.6138916
153.6289978 100.8112183 43.7140007
93.4560242 101.9392548 38.7576065
91.2435150 102.2242126 36.4036064
89.0467224 102.5484314 33.7008286
-75.4696579 99.3265228 76.5093384
-149.7919922 98.1472397 93.3791351
-152.4809570 98.4126282 91.2361145
159.4785767 103.7482758 37.6800613
156.5915833 103.4635086 40.4024048
153.7875824 103.2346649 42.6363068
93.5552444 104.4089127 37.6199760
91.3587952 104.7079010 35.1892815
-75.5245972 101.6765671 75.9738770
-149.8634033 100.4534454 93.0311432
-152.5611572 100.7323685 90.8364487
159.7471924 106.2621765 35.9677391
156.8328857 105.9496460 38.9094849
154.0064697 105.6983414 41.2885551
151.2585602 105.4937515 43.2591248
148.5721130 105.3265228 44.9075699
98.1335678 106.3643646 40.4887543
95.9068680 106.6180725 38.5260735
93.6869354 106.9050064 36.2857819
91.4872589 107.2322464 33.7003212
-75.6067810 104.0551605 75.2154770
-77.6021271 103.6399765 78.9326477
-79.6403809 103.2932510 82.0562286
-149.9705811 102.7831802 92.5113220
157.1228027 108.4784775 37.0930405
154.2606506 108.1974258 39.6910973
151.4798279 107.9705811 41.8094139
148.7807007 107.7906952 43.5455818
98.2727356 108.8592682 39.1173668
96.0442276 109.1315155 37.0481071
93.8303528 109.4444351 34.6649017
-77.6874542 106.0251465 78.0827484
-79.7185516 105.6553192 81.3238678
-150.1008606 105.1353760 91.8203430
154.5582886 110.7442245 37.7676620
151.7545013 110.4935379 40.0589523
149.0228882 110.2898941 41.9415207
146.3493347 110.1264038 43.5087357
143.7312012 109.9965973 44.7816582
102.9219666 110.9077759 41.0531921
100.6675720 111.1358719 39.3917732
98.4271164 111.3969574 37.4780960
96.2095871 111.6920013 35.2840195
94.0156403 112.0285797 32.7411346
-77.7979202 108.4464722 76.9848404
-79.8109055 108.0490494 80.3828430
-145.0085754 106.9908905 94.7301178
-147.6007385 107.2319717 93.0003662
-150.2701721 107.5174255 90.9349289
152.0843201 113.0698624 37.9495430
149.3180237 112.8368225 40.0305176
146.6139221 112.6542053 41.7273750
143.9796753 112.5088501 43.1073837
103.1065140 113.4419708 39.3711853
100.8510284 113.6939011 37.5897255
98.6164093 113.9774323 35.5484619
96.4098969 114.2974548 33.1940689
-77.9339905 110.9097595 75.6007156
-79.9348907 110.4742889 79.2218781
-145.1780396 109.3678665 93.8222046
-147.7866821 109.6257019 92.0093613
149.6768341 115.4470520 37.7209663
146.9403534 115.2357330 39.6097450
144.2671051 115.0660172 41.1388397
141.6430969 114.9396210 42.3733330
139.0717773 114.8413544 43.3591576
107.8508453 115.5854492 40.4137611
105.5705566 115.7959290 38.9985352
103.3099823 116.0348358 37.3594475
101.0681381 116.3039246 35.4672699
98.8456116 116.6173630 33.2477303
-80.0801544 112.9488144 77.7547455
-82.1087036 112.5573273 80.9634171
-84.1615295 112.2270889 83.7026520
-140.2729187 111.3279266 95.7223511
-142.7919617 111.5307312 94.3614044
-145.3730469 111.7741776 92.7293625
-148.0044250 112.0511551 90.8094559
150.1084442 118.1324387 34.8828011
147.3204956 117.8799667 37.0624695
144.6235657 117.6865540 38.7835274
141.9629974 117.5339050 40.1711044
139.3742981 117.4211121 41.2592697
108.0816345 118.1948090 38.2804947
105.8081589 118.4212952 36.7607307
103.5607910 118.6790924 35.0025520
101.3321381 118.9812012 32.9183693
-80.2612381 115.4720840 75.9485474
-82.2650223 115.0400696 79.4164429
-84.3107452 114.6804047 82.3271484
-140.4712982 113.7344208 94.5836487
-143.0141754 113.9573669 93.1373138
-145.5977631 114.2135773 91.4232788
145.0523224 120.3840179 35.9236679
142.3580627 120.2087326 37.5085907
139.7381134 120.0728149 38.7543030
137.1464539 119.9706345 39.7198181
134.6133423 119.9095840 40.4232063
112.9547806 120.4564743 38.3435898
110.6415253 120.6449661 37.1707001
108.3579788 120.8618698 35.7612610
106.0949783 121.1162415 34.1022263
-82.4601135 117.5809937 77.5138092
-84.4869690 117.1843948 80.6433868
-86.5447235 116.8481064 83.3111267
-88.6247482 116.5643692 85.6116104
-140.7000732 116.1771698 93.2339630
-143.2658081 116.4209976 91.6782303
142.8361969 122.9768677 34.2027550
140.1790771 122.8061829 35.7001419
137.5636139 122.6870117 36.8251686
135.0004425 122.6045151 37.6632118
113.2710571 123.1694641 35.5614471
110.9717560 123.3782883 34.2661629
108.7009125 123.6240692 32.6927032
-84.6967087 119.7464600 78.6073227
-86.7354965 119.3728180 81.4965363
-88.8064575 119.0619202 83.9519730
-140.9741516 118.6639862 91.6354599
-143.5684662 118.9323044 89.9359512
138.0696411 125.5138321 33.2126045
135.4663239 125.3956680 34.2796478
132.9174347 125.3311081 34.9962807
130.4073029 125.2998886 35.4528084
127.9286957 125.3008728 35.6708794
125.4810944 125.3383636 35.6431465
123.0778046 125.4053650 35.4028397
120.6818314 125.4964523 34.9508438
118.3191528 125.6276779 34.2542114
115.9763947 125.7865601 33.3281326
113.6662140 125.9866562 32.1393127
-86.9646606 121.9642487 79.2882385
-89.0231476 121.6127930 81.9738693
-91.1011353 121.3164215 84.2735291
-93.2008209 121.0632324 86.2626190
-95.3194885 120.8453293 88.0033035
-97.4567261 120.6604156 89.5223541
-136.2284546 120.7404099 92.5399628
-138.7442017 120.9537430 91.2656860
-141.2987213 121.2040405 89.7285309
133.4999084 128.2668762 30.7426682
130.9515991 128.2066498 31.4015713
128.4540863 128.2004547 31.7100067
125.9845123 128.2282104 31.7300282
123.5693207 128.2915192 31.5083904
121.1711578 128.4024200 30.9821949
118.8154755 128.5417633 30.2101460
-89.2762604 124.2392960 79.5649719
-91.3392563 123.9040527 82.0889816
-93.4299316 123.6236191 84.2360992
-95.5375824 123.3848495 86.0943527
-97.6784821 123.1780243 87.7222366
-136.5501251 123.2899780 90.5745850
-139.0929108 123.5283356 89.1596527
-91.6282959 126.5770721 79.4317627
-93.7027740 126.2511520 81.8196869
-95.8031006 125.9846497 83.8428192
-97.9278564 125.7554855 85.5954208
-100.0687790 125.5678558 87.0896530
-102.2302399 125.4081421 88.3792419
-131.9494019 125.4999847 90.5522690
-134.4183960 125.6832428 89.5208817
-136.9390869 125.9081802 88.2229233
-94.0410538 128.9846497 78.8193665
-96.1156464 128.6703949 81.1022034
-98.2253876 128.4138184 83.0261688
-100.3598633 128.1997375 84.6657639
-102.5131760 128.0182800 86.0692825
-132.3361511 128.1387939 88.0704117
-96.5091705 131.4754333 77.6664734
-98.5941925 131.1752777 79.8845215
-100.7064514 130.9239197 81.7347107
-102.8523712 130.7156372 83.2919769
-105.0172882 130.5522766 84.5768433
-107.2104187 130.4252319 85.6444931
-123.1106720 130.2947998 87.9761734
-125.4806442 130.3899689 87.5792923
-127.8843842 130.5171814 86.9649506
-130.3212585 130.6813354 86.1296310
-132.8134460 130.8872681 85.0131760
-103.2702026 133.5397034 79.8167877
-105.4262466 133.3441315 81.2865067
-107.6050797 133.1886292 82.4884796
-123.5663147 133.0601196 84.8464661
-125.9585953 133.1720276 84.3471146
-128.3980408 133.3293152 83.5816956
-105.9503708 136.3053284 76.9937134
-108.1157761 136.1157227 78.4443130
-110.3108521 135.9752960 79.5554428
-112.5415039 135.8765564 80.3982697
-114.7945023 135.8179016 80.9842834
-117.0800095 135.7967529 81.3310699
-119.3972321 135.8194427 81.4222412
-121.7470703 135.8767548 81.2741394
-124.1368713 135.9766235 80.8563538
128.9595337 36.5566559 14.5597334
127.6756744 36.5790024 14.7738132
122.7471237 36.5707474 14.3389502
134.9577637 37.7183952 16.4044952
133.6151733 37.7199898 17.1402454
132.3069763 37.6940155 17.6885014
130.9959259 37.6855278 18.1539650
129.7074280 37.6738586 18.4974365
128.4516144 37.6612587 18.7014904
127.1870575 37.6487503 18.8067589
125.9517670 37.6387444 18.8425179
124.7049866 37.6429253 18.7614155
123.4901276 37.6523476 18.5479641
122.2718811 37.6667404 18.2925625
121.0687408 37.6632118 17.9769917
119.8836746 37.6918564 17.5619869
118.7030945 37.7197838 16.9926472
117.5274887 37.7088432 16.3284874
116.3588333 37.7115936 15.5638056
138.5224304 38.8794861 17.7440109
137.1466064 38.8542824 18.7361031
135.7886353 38.8213959 19.5300179
134.4640808 38.7937698 20.1901398
115.9668121 38.8442993 19.0308971
114.8096542 38.8639717 18.2398834
113.6711884 38.9143028 17.3997688
112.5515289 38.9603996 16.4094276
139.4154968 39.9746933 20.3347282
138.0266113 39.9525299 21.2923260
136.7018738 39.9130859 22.0159760
135.3655548 39.8975334 22.6770668
134.0629883 39.8739929 23.1952553
115.6347046 39.9268036 21.8756943
114.4846191 39.9537888 21.2225590
113.3214111 39.9805069 20.4434433
112.1811676 40.0140991 19.5886841
111.0484009 40.0424576 18.6204643
143.1554871 41.1589355 20.2286968
141.7473602 41.1282692 21.4294662
140.3526611 41.0947266 22.4759846
139.0107422 41.0526428 23.3247910
110.7338562 41.1344299 21.3530960
109.5970306 41.1681061 20.3841515
108.4797668 41.2177048 19.3089790
107.3664246 41.2550049 18.0622253
144.1311035 42.2904510 22.0808506
142.7124786 42.2476196 23.2611084
141.3432312 42.2049637 24.2509956
139.9729004 42.1755829 25.1287174
138.6510468 42.1408691 25.8364086
110.4690247 42.2355766 23.7049294
109.3359070 42.2687988 22.8326359
108.2111664 42.3156548 21.8742161
107.0777664 42.3688278 20.7896690
105.9637756 42.4117317 19.5863857
146.5773315 43.4521980 22.3495312
145.1457367 43.4062424 23.6522064
143.7373657 43.3696060 24.8116074
105.7110443 43.5044670 22.0134487
149.0906067 44.6488838 22.1203728
147.6249084 44.5958252 23.6416855
146.1719666 44.5463943 25.0027657
144.7883301 44.4907227 26.1196404
143.4040985 44.4528618 27.1182556
105.4798965 44.6044426 24.1647682
104.3588104 44.6508408 23.0644798
103.2524033 44.7077866 21.8445625
102.1466293 44.7644043 20.4807587
101.0502396 44.7992325 19.0321732
150.1839142 45.7780800 23.2808723
148.6835938 45.7248192 24.7761536
100.8306274 45.9318466 21.3303909
-115.1298370 44.4075089 62.0419006
-116.2714462 44.3841019 62.4204216
-117.4153366 44.3830032 62.7129593
-122.1592026 44.3974266 62.8097572
151.2525024 46.9144287 24.1911850
149.7979736 46.8558121 25.6965008
148.3427124 46.8120041 27.0539246
100.6112289 47.0288162 23.3639984
99.5037079 47.0846977 21.9645653
-109.0965424 45.5474739 62.8292351
-110.1677551 45.5348701 63.7184296
-111.2487183 45.5141106 64.4379272
-112.3541718 45.4865227 65.0826721
-113.4704590 45.4721298 65.6408615
-114.5901642 45.4506836 66.0634232
-115.7400055 45.4385643 66.4243698
-116.8786316 45.4224014 66.6712189
-118.0384216 45.4025497 66.8643112
-119.1975250 45.4040451 66.9750748
-120.3870087 45.4203873 66.9884262
-121.5723343 45.4239349 66.9235306
-122.7725906 45.4364014 66.7669220
-123.9995575 45.4496346 66.4870834
-125.2355118 45.4633255 66.1218948
-126.4837036 45.4604263 65.6630859
152.3942566 48.0775833 24.8862400
150.8983154 48.0115738 26.4892330
100.4165649 48.1322060 25.1800880
99.3160553 48.1984100 23.9094009
98.2241592 48.2696114 22.4997635
97.1186218 48.3117523 20.9492512
-104.4113083 46.7349548 62.2780151
-105.4379730 46.6879883 63.5468864
-106.4863281 46.6642914 64.6627579
-107.5686646 46.6280136 65.6019287
-108.6329498 46.5873985 66.4099121
-109.7264175 46.5493202 67.1322021
-124.7479630 46.4778824 69.5170135
-125.9855728 46.4905663 69.1640472
-127.2257767 46.5088654 68.7024689
153.5153809 49.2323990 25.4886990
152.0341034 49.1619263 27.1215172
150.5787964 49.0954094 28.5361156
100.2559662 49.2478447 26.8376789
99.1280518 49.2984161 25.5959835
98.0468140 49.3724594 24.3167114
96.9516754 49.4416733 22.8599262
95.8336639 49.4824295 21.2502975
-102.9456635 47.8239098 64.6333237
-103.9858093 47.7734909 65.8084641
-105.0398788 47.7241669 66.8685379
-106.0990753 47.6777344 67.7836151
-107.1852264 47.6371994 68.5974884
-108.2631378 47.6089706 69.3302002
-109.3720245 47.5807076 69.9835205
-124.3656693 47.4937286 72.2684021
-125.5851440 47.5111198 71.9951324
-126.7931519 47.5345993 71.6600876
-128.0518951 47.5465202 71.2094574
-129.2928772 47.5759583 70.6935501
-130.5694580 47.6186142 70.0489197
154.6960144 50.3846664 25.9034233
153.2044983 50.3086205 27.5747337
95.6780396 50.6217651 23.0939865
-101.5315323 48.8889046 66.5463257
-102.5765991 48.8413010 67.6627121
-128.9104767 48.6176910 73.3298569
-130.1745911 48.6422310 72.7907333
-131.4382477 48.6713409 72.1692123
-132.7146301 48.7269287 71.4510345
155.8808899 51.5511398 26.2318497
154.3651123 51.4720917 27.9482594
152.9154358 51.3958321 29.4297104
95.5303497 51.7385330 24.7581558
94.4357224 51.8075333 23.2326546
-97.1230011 50.1847725 63.8312912
-98.1204834 50.1200676 65.4535828
-99.1488571 50.0524559 66.8558884
-100.1692047 49.9739609 68.0482330
-101.2200470 49.9318886 69.2095642
-102.2831192 49.8746643 70.1912842
-128.5788422 49.6608200 75.5991516
-129.8256073 49.6872177 75.1488495
-131.0717010 49.7179794 74.6247559
-132.3303833 49.7591591 74.0101395
155.5888519 52.6272049 28.1296329
95.3821640 52.8536148 26.2638664
94.2878876 52.9306908 24.7997990
-94.7953796 51.3453674 63.4585953
-95.7900848 51.2815933 65.2038498
-96.7982788 51.2064133 66.7866745
-97.8149414 51.1335526 68.1417999
-130.7588196 50.7590523 76.7384796
-132.0056458 50.7932854 76.2008133
-133.2839966 50.8288269 75.5707703
-134.5671539 50.8798599 74.8521957
-135.8595886 50.9309464 74.0316772
-137.1880798 50.9609909 73.1013947
158.3411865 53.8963966 26.2852478
156.7939453 53.7973709 28.2217865
155.3032684 53.7183990 29.8743477
95.2390976 53.9624977 27.6235390
94.1479187 54.0444412 26.2614651
93.0570068 54.1239624 24.7653561
91.9739380 54.2055817 23.1236534
-93.4937668 52.4620056 64.6082916
-94.4915161 52.3899384 66.3199539
-95.4965668 52.3030930 67.8216629
-96.5256424 52.2316170 69.1954575
-97.5506439 52.1725502 70.4203186
-130.4729462 51.8223763 78.6643906
-131.7240448 51.8471527 78.1664047
-132.9796600 51.8800964 77.6036224
-134.2481079 51.9174423 76.9556580
-135.5320282 51.9612007 76.2190323
-136.8131409 52.0125732 75.4237137
159.5848236 55.0802002 26.1487465
158.0444183 54.9751587 28.1432419
92.9194336 55.2392044 26.1467628
91.8489227 55.3275719 24.6094418
90.7337189 55.3957558 22.8746738
-92.2216949 53.5823822 65.4772110
-93.2165527 53.4968300 67.1903458
-135.2442017 53.0098000 78.1866608
-136.5124512 53.0503006 77.4615173
159.2962036 56.1591568 27.9597645
157.7860413 56.0583687 29.7791576
92.7949219 56.3544006 27.4138870
91.7189026 56.4451752 25.9248447
90.6222229 56.5360336 24.2620716
-90.9674301 54.7110062 66.1778336
-91.9691315 54.6199722 67.9282532
-92.9818573 54.5348740 69.4590836
-134.9555664 54.0651398 79.9710693
-136.2247314 54.1059952 79.3047714
-137.5281372 54.1472321 78.5294113
-138.8202972 54.2036400 77.6842422
-140.1461334 54.2687416 76.7158203
160.5968475 57.3423157 27.5996990
159.0385437 57.2424889 29.5609417
157.5360413 57.1466026 31.2711430
90.5044250 57.6570282 25.5584068
89.3992004 57.7415161 23.8465481
-88.7619781 55.9380951 64.7497787
-89.7359924 55.8416061 66.7076035
-90.7281647 55.7429314 68.4548492
-139.8494568 55.3098946 78.6021729
-141.1652069 55.3772316 77.6329346
-142.5474091 55.4230995 76.5129013
160.3444366 58.4287186 29.1618099
158.8076630 58.3282356 31.0045147
157.3271179 58.2421951 32.6016579
90.3947449 58.7778931 26.7757473
89.3084259 58.8751526 25.1353359
88.2180176 58.9755478 23.3309174
-87.5390167 57.0793724 65.0827560
-88.5233994 56.9787483 67.0876389
-89.5073853 56.8723526 68.8431702
-90.5195313 56.7871742 70.4461975
-139.5908661 56.3620605 80.2884216
-140.8942719 56.4226341 79.3891678
-142.2345123 56.4858246 78.3730316
-143.5957336 56.5456848 77.2557144
-145.0048828 56.5926514 75.9796906
161.6492310 59.6328125 28.6559563
160.1187897 59.5166969 30.5821209
90.2855225 59.8955307 27.8879089
89.1952057 59.9955063 26.3045998
-87.3193512 58.1212769 67.3201447
-88.3120651 58.0182800 69.1492767
-144.6558380 57.6754265 77.8889008
163.0070190 60.8376160 27.9472294
161.4165802 60.7185287 30.0698719
159.8949127 60.6088905 31.8939667
90.1911392 61.0227928 28.9230404
89.0915451 61.1205750 27.3869267
88.0246124 61.2310905 25.7188454
-86.1417999 59.2716751 67.4370499
-87.1210175 59.1593628 69.2744064
-88.1295700 59.0595016 70.9462891
-144.3737793 58.7332153 79.5916748
-145.7534485 58.7934074 78.4105453
162.7517548 61.9306107 29.3843231
87.9104156 62.3489685 26.7482834
-84.9687958 60.4310684 67.3923492
-85.9513779 60.3147697 69.3028336
-144.1235352 59.7853394 81.1311417
-145.4817810 59.8583717 80.0121002
-146.8804626 59.9163742 78.7808609
164.1537628 63.1445274 28.4897041
162.5605469 63.0192451 30.6311588
87.8330078 63.4761734 27.7217884
86.7575378 63.5904427 26.0029297
85.6924438 63.7097473 24.1521912
-83.8142853 61.5968857 67.2217560
-84.7866516 61.4722824 69.1814957
-85.7841644 61.3618279 70.9621429
-143.8978729 60.8447189 82.5392609
-145.2427979 60.9146881 81.4847717
163.9284363 64.2407608 29.7603607
162.3631287 64.1182175 31.7896538
85.6008835 64.8401108 25.1268520
-82.6672363 62.7742386 66.9247665
-83.6445084 62.6430054 68.9894485
-143.6859436 61.9053535 83.8380737
-145.0256805 61.9712906 82.8439865
-146.3578949 62.0539932 81.7816162
165.3467407 65.4726334 28.6875267
163.7361298 65.3383636 30.9021778
162.1893005 65.2164993 32.8274078
85.5273590 65.9731369 26.0608253
-81.5291290 63.9546432 66.4670715
-82.4934692 63.8151932 68.6196060
-83.4802475 63.6882019 70.5337601
-143.4925232 62.9737434 85.0432587
-144.8161316 63.0376358 84.1101761
-146.1468811 63.1170464 83.0876617
-147.5335999 63.2009048 81.9092865
165.1411743 66.5709686 29.8278999
85.4550018 67.1069794 26.8914452
-80.3894043 65.1451721 65.8239365
-81.3785095 65.0044098 68.1679916
-145.9549561 64.1779251 84.2864075
-147.3431702 64.2554169 83.1682587
-148.6742859 64.3464508 82.0151367
-150.0799866 64.4243851 80.7119980
164.9771118 67.6709595 30.8464699
85.3853226 68.2431870 27.6494751
84.2864685 68.3698273 25.8075047
-80.2568817 66.1991501 67.5284882
-81.2398071 66.0567856 69.6833496
-145.7689667 65.2471924 85.4069977
-147.1495819 65.3239212 84.3340912
-148.4729004 65.4140396 83.2275772
-149.8571777 65.4972458 81.9833069
166.4510498 68.9140930 29.6036434
164.7927551 68.7775345 31.8134327
85.3137589 69.3816910 28.3327923
84.2325134 69.5138397 26.5321846
-80.1252670 67.2499084 69.0191269
-81.1073303 67.1106873 71.0243683
-148.2831879 66.4793243 84.3582306
-149.6467438 66.5688019 83.1761398
164.6565552 69.8832932 32.6494942
85.2611847 70.5215683 28.9800415
84.1608429 70.6550674 27.1786938
83.0903320 70.7911987 25.3060741
-78.0769043 68.6284485 65.8305893
-79.0244751 68.4613190 68.2322769
-80.0109787 68.3118439 70.3981018
-80.9999466 68.1786118 72.3034515
-148.1119690 67.5460892 85.4073944
-149.4579010 67.6376343 84.2780914
-150.8533020 67.7273331 83.0214310
166.1202393 71.1394272 31.3231297
164.5171509 70.9936371 33.4237518
83.0376282 71.9404602 25.9373360
-77.9451141 69.6856842 67.2835770
-78.8951645 69.5195313 69.5498123
-150.6696472 68.8035126 84.0702133
167.6501160 72.4071121 29.7691059
165.9889832 72.2530365 32.0799522
164.4188080 72.1082001 34.0827332
82.9911346 73.0880203 26.5169239
-76.8675461 70.9175797 66.1512833
-77.8264999 70.7430573 68.6184311
-78.7985916 70.5832367 70.7985077
-150.4941559 69.8783493 85.0676346
-151.9054260 69.9777756 83.7713242
165.8650970 73.3672409 32.7663918
164.3047485 73.2242737 34.7110519
85.1071701 73.9569397 30.5509243
84.0193787 74.0928802 28.8663902
82.9416962 74.2354202 27.0626087
-76.7463303 71.9807434 67.4606628
-150.3518066 70.9485321 85.9704895
167.4026794 74.6419296 31.1735783
165.7695923 74.4878845 33.3513184
164.2130127 74.3465118 35.2614021
85.0762711 75.1083221 30.9910736
83.9792099 75.2445831 29.3060360
-76.6398773 73.0467911 68.6527634
-150.2037659 72.0263748 86.8253555
-151.6029053 72.1283035 85.5979309
167.2774963 75.7685165 31.7601318
85.0293808 76.2606888 31.3337936
83.9381485 76.3987656 29.6807137
-75.6029205 74.3004761 67.3770905
-76.5503845 74.1149139 69.7462616
-150.0764923 73.1067352 87.6038895
-151.4628754 73.2067795 86.4165497
-152.8517914 73.3169708 85.1418839
167.1765747 76.8963623 32.2564240
85.0046463 77.4166641 31.6772957
-75.5076065 75.3711853 68.4256210
-76.4725647 75.1899414 70.7476959
-149.9642334 74.1895142 88.3288193
-151.3230438 74.2907715 87.1944122
-152.7045593 74.3994827 85.9500427
-154.0743103 74.5186310 84.6114960
167.0955353 78.0276947 32.7011185
84.9745560 78.5737457 31.9730854
-75.4306564 76.4476624 69.4164047
-76.3876038 76.2678528 71.6119690
-152.5909729 75.4835968 86.6746902
-153.9618530 75.6010818 85.3741379
168.6761780 79.3493500 30.7136326
167.0431061 79.1629028 33.0613556
84.9667892 79.7344055 32.2331238
83.8413239 79.8757477 30.5987587
-74.3823471 77.7217865 67.8616486
-75.3554611 77.5278854 70.2938843
-76.3224640 77.3528442 72.4365234
-152.4866943 76.5690689 87.3421402
-153.8449402 76.6850662 86.0788651
-155.2718811 76.8044357 84.6712494
168.6262207 80.4879913 31.0518379
166.9670410 80.2983551 33.4154968
131.0496521 78.8079529 53.5667686
129.8387756 78.8078766 53.6622734
128.6263428 78.8109665 53.7128143
127.4374695 78.8138962 53.7475624
126.2294388 78.8214951 53.7714157
125.0232391 78.8306198 53.7525177
84.9334869 80.8989334 32.4138184
83.8223114 81.0422058 30.8033333
-74.3070297 78.8086472 68.7015381
-155.1383667 77.8984833 85.3688431
168.5684204 81.6313400 31.3443184
166.9441071 81.4416504 33.6532822
131.0381317 79.9367142 53.7059288
129.8256836 79.9379578 53.7851334
128.6067657 79.9397278 53.8542595
127.4024048 79.9421005 53.9187202
126.2020950 79.9478836 53.9324722
125.0043259 79.9576263 53.9137917
84.9154510 82.0654602 32.5764275
-74.2542572 79.8960419 69.5222321
-155.0448456 78.9909973 85.9686737
168.5111694 82.7774429 31.5899811
166.8935547 82.5872345 33.8726959
131.0185242 81.0696869 53.8087692
129.8083649 81.0691299 53.8928642
126.1919785 81.0787354 54.0638809
124.9825897 81.0893021 54.0384140
84.8991241 83.2341461 32.7060165
-73.2288971 81.2001953 67.7069092
-74.1816330 80.9872742 70.2105560
-154.9348755 80.0852509 86.5612717
168.4880981 83.9327545 31.7165604
166.8602753 83.7373581 34.0254822
131.0057526 82.2024307 53.9062805
126.1720200 82.2140656 54.1486511
124.9766159 82.2240143 54.1237564
84.8919373 84.4062881 32.7956352
-73.1742783 82.2952271 68.4112244
-74.1377029 82.0811920 70.8764954
-154.8519440 81.1826477 87.0724030
168.4750977 85.0908813 31.8092403
166.8499908 84.8928299 34.1142807
130.9924164 83.3363266 53.9880142
126.1697388 83.3505249 54.2063904
124.9678345 83.3597641 54.1900024
84.8845596 85.5831757 32.8289757
-73.1286087 83.3927689 69.0484619
-74.0853043 83.1823120 71.4335175
-154.7801361 82.2836304 87.5259171
168.4630737 86.2527771 31.8545475
166.8407898 86.0528412 34.1459999
130.9685364 84.4715881 54.0480461
129.7776794 84.4724503 54.1429939
128.5554504 84.4730377 54.2181931
127.3496094 84.4784317 54.2504807
126.1526031 84.4875107 54.2509003
124.9437332 84.4970779 54.2410965
84.8770599 86.7652740 32.8107147
-73.0833817 84.4964523 69.6000061
-74.0508575 84.2853699 71.9621201
-154.7112885 83.3876801 87.9410782
-156.1286774 83.5230103 86.5590668
168.4826202 87.4247513 31.7969685
166.8390198 87.2182846 34.1215363
84.8836365 87.9490051 32.7649269
-73.0449066 85.6052856 70.0784912
-74.0089874 85.3951111 72.3871765
-154.6503143 84.4945221 88.3142853
168.4997864 88.6001282 31.7151604
166.8386841 88.3864288 34.0591850
84.8857193 89.1380920 32.6674423
-72.0666428 86.9623642 67.8719025
-73.0142670 86.7187500 70.5028915
-73.9823074 86.5087128 72.7791290
-154.6041565 85.6049957 88.6299210
-156.0110474 85.7443848 87.2700043
168.5431824 89.7847672 31.5421104
166.8928223 89.5692749 33.8708267
84.8862534 90.3324966 32.5230331
-72.0371323 88.0793228 68.2815323
-154.5461578 86.7169647 88.9275970
-155.9556427 86.8590546 87.5673523
168.5729370 90.9732132 31.3154678
166.9056702 90.7492218 33.6833572
84.9089508 91.5282745 32.3523636
-72.0012207 89.2052460 68.5753784
-154.5218201 87.8335419 89.1665115
-155.9172974 87.9754791 87.8329163
168.6372070 92.1761932 30.9795151
166.9504852 91.9407349 33.4081497
84.9129791 92.7366104 32.0906067
-71.9869537 90.3352051 68.8357315
-115.6778793 87.3127670 102.6935883
-116.7919998 87.3137817 102.7770386
-117.9193192 87.3172607 102.8299255
-119.0474167 87.3238602 102.8629913
-154.4890442 88.9527054 89.3763046
-155.8914337 89.0973053 88.0342102
168.6995087 93.3818054 30.6176701
166.9879608 93.1328964 33.1014099
84.9495850 93.9415359 31.8217392
-71.9797134 91.4709167 69.0261612
-115.6547165 88.4120026 102.8398743
-119.0507202 88.4236298 102.9983978
-154.4643097 90.0757675 89.5382080
-155.8505554 90.2225266 88.2001343
-157.3259277 90.3880386 86.6818924
167.0702820 94.3432693 32.6789970
84.9856567 95.1536636 31.4948368
-71.9765167 92.6124878 69.1544189
-115.6440048 89.5144272 102.9472733
-119.0429306 89.5268860 103.1056519
-154.4606018 91.2044296 89.6440659
-155.8380585 91.3526611 88.3096619
-157.3147278 91.5213852 86.7900772
167.1547699 95.5575256 32.2115288
85.0109024 96.3778610 31.0899773
-71.9577179 93.7613144 69.2118912
-115.6309891 90.6181259 103.0310822
-116.7477570 90.6180878 103.1206818
-117.8794098 90.6233978 103.1676025
-119.0349579 90.6324005 103.1837158
-154.4586487 92.3366318 89.7146454
-155.8360138 92.4869461 88.3787689
167.2831421 96.7909470 31.5995979
165.6421967 96.5599289 33.8804321
164.0363159 96.3507996 35.9513397
85.0497055 97.6054535 30.6456985
83.9565811 97.8118057 28.8214417
-71.9675598 94.9127426 69.2400208
-154.4422607 93.4703217 89.7619324
-155.8311462 93.6244202 88.4125595
164.1392212 97.5682678 35.4210472
85.0890198 98.8420486 30.1427784
84.0000000 99.0553665 28.2715969
-71.9856186 96.0759277 69.1562195
-154.4594727 94.6127625 89.7378006
-155.8472595 94.7688980 88.3871613
164.2400360 98.7915955 34.8397865
87.3011780 99.7007446 32.9363556
86.2091751 99.8868790 31.3253250
85.1447067 100.0799942 29.6042786
-71.9937820 97.2487946 69.0013504
-72.9812622 96.9694595 71.6361313
-73.9270248 96.7366104 73.8752670
-154.4697418 95.7568741 89.6909714
164.3608856 100.0314026 34.1556244
87.3364410 100.9452362 32.3659821
86.2523346 101.1367798 30.7217808
85.1833038 101.3402252 28.9683056
-72.9946365 98.1381531 71.4707184
-73.9474411 97.8984833 73.7455826
-154.5060730 96.9079971 89.5889053
164.4844208 101.2747726 33.4075508
162.9254913 101.0667953 35.3827286
161.4186401 100.8927536 37.1188545
87.3919525 102.1901550 31.7566757
86.3199158 102.3850632 30.0901794
-73.0107803 99.3174286 71.2258301
-73.9688416 99.0684357 73.5521164
-154.5213776 98.0598373 89.4688110
164.6362762 102.5408630 32.5698242
163.0576477 102.3179932 34.5968094
161.5194702 102.1305923 36.4288864
87.4482346 103.4457550 31.0817204
86.3709412 103.6532288 29.3484020
-73.0361710 100.5013580 70.9373322
-74.0082092 100.2395020 73.3294144
-154.5704041 99.2218628 89.2780914
163.1943665 103.5731049 33.7460175
161.6623535 103.3778076 35.6283798
89.6695557 104.3394623 33.4541473
88.5878906 104.5182648 31.9597130
87.5186920 104.7103271 30.3419743
-73.0619812 101.6966782 70.5912476
-74.0335617 101.4297791 72.9882660
-154.6183777 100.3885727 89.0544434
163.3815002 104.8568115 32.7430153
161.7838898 104.6336899 34.7729797
89.7485046 105.5907211 32.7463989
88.6549377 105.7879333 31.1796093
-73.1035843 102.8973083 70.1867752
-74.0808868 102.6192322 72.6196213
-154.6717224 101.5615005 88.7822113
161.9496460 105.9099960 33.7803993
89.8042297 106.8738556 31.9151230
88.7295074 107.0628433 30.3289433
-74.1209259 103.8235245 72.1651001
-151.9525604 102.4072113 91.0380402
-153.3196411 102.5643082 89.8100891
-154.7386780 102.7407379 88.4491272
162.1495972 107.2063446 32.6379776
89.8876190 108.1508026 31.0564804
88.8099594 108.3609695 29.3797207
-74.1626129 105.0374832 71.6610947
-152.0265503 103.5871658 90.6945343
-153.3961792 103.7475128 89.4469070
162.3811035 108.5365067 31.3519516
160.7671509 108.2844315 33.4865303
159.2467651 108.0855713 35.3107986
92.1453629 109.0541611 33.1446648
91.0667725 109.2365570 31.7047005
89.9749832 109.4454803 30.0870171
88.9076691 109.6658401 28.3352623
-74.2107468 106.2571716 71.0672379
-75.1887512 105.9874268 73.3957214
-76.1625061 105.7478561 75.5135498
-152.1046448 104.7697983 90.3120422
-153.4747925 104.9348068 89.0432434
-154.9106140 105.1279373 87.6400909
160.9801025 109.6047058 32.2349548
159.4298248 109.3826523 34.1628799
92.2332840 110.3514557 32.1883926
91.1584854 110.5428848 30.6835709
90.0678253 110.7599869 28.9922829
-74.2578888 107.5101471 70.3300934
-75.2667770 107.2011261 72.8263702
-76.2199402 106.9577026 74.9719849
-152.1842346 105.9604950 89.8853989
-153.5613556 106.1325150 88.5912399
159.6392212 110.7056885 32.9044609
158.1252441 110.5043564 34.6661644
156.6425781 110.3231125 36.2673645
92.3270569 111.6574860 31.1334705
91.2540817 111.8613281 29.5484848
-75.3270569 108.4399490 72.1117706
-76.2765121 108.1822357 74.3340988
-152.2677307 107.1564789 89.4083557
-153.6516724 107.3355255 88.0808182
159.9015808 112.0641708 31.4572563
158.3124390 111.8074112 33.4061127
156.8352051 111.6326752 35.0646439
92.4354401 112.9775238 29.9798241
-75.4103775 109.6879578 71.3171921
-76.3460083 109.4164200 73.6154785
-152.3661957 108.3644028 88.8673401
-153.7643280 108.5528641 87.5069351
158.5737915 113.1733246 31.8907223
157.0549011 112.9604340 33.6961250
155.5578613 112.7751312 35.3321152
154.1057281 112.6170883 36.7429047
94.7047119 113.9153748 31.7604370
93.6427765 114.0964203 30.3260670
92.5634460 114.3183517 28.6962662
-75.4598694 110.9725037 70.3620911
-76.4175110 110.6721954 72.7774506
-149.7323761 109.2400436 90.7283249
-151.0938721 109.4031982 89.5531464
-152.4865112 109.5839539 88.2651215
158.8605804 114.5720673 30.2066479
157.2892914 114.3097000 32.1769905
155.7802429 114.1062317 33.9246902
154.3123779 113.9371490 35.4497337
94.8195267 115.2543640 30.4970016
93.7588501 115.4523926 28.9583569
-76.5276718 111.9221725 71.9185104
-149.8490143 110.4571838 90.1314392
-151.2120667 110.6231232 88.9250793
156.0397339 115.4816208 32.3415489
154.5228119 115.2717667 34.0216370
153.0767822 115.1126862 35.4580765
151.6616516 114.9682770 36.7269745
97.1353302 116.2028961 32.0436401
96.0450897 116.3907089 30.6658134
94.9678268 116.5975723 29.1457157
93.9021530 116.8309250 27.4563656
-76.6109314 113.2182922 70.8490143
-77.5814972 112.9110336 73.3080750
-78.5420532 112.6597366 75.4009628
-149.9546356 111.6723938 89.4944839
-151.3278046 111.8516541 88.2436905
156.3468018 116.8982773 30.5552177
154.7848206 116.6436920 32.3859291
153.3065186 116.4657974 33.9568100
151.8750153 116.3082199 35.3349495
97.2653656 117.5574799 30.6731243
96.1861191 117.7569199 29.2193546
95.1108627 117.9823914 27.5799084
-77.6803741 114.1943054 72.2898483
-78.6442184 113.9185715 74.5067825
-150.1003265 112.9131165 88.7508240
-151.4777374 113.0974045 87.4575806
153.5555267 117.8310547 32.2894478
152.1190796 117.6661453 33.7703094
99.6018753 118.5512238 31.8747883
98.4973526 118.7453766 30.5483418
97.4250488 118.9316635 29.1576881
96.3474121 119.1502457 27.5814419
-77.7632599 115.5114441 71.1091461
-78.7421722 115.2022629 73.4580688
-147.5141296 113.8142548 90.3103714
-148.8708496 113.9792709 89.1845245
-150.2278900 114.1519852 87.9638367
153.9031982 119.2880402 30.2804184
152.4085999 119.0691681 31.9608650
99.7443771 119.9335861 30.3402519
98.6627808 120.1300430 28.9508705
-78.8518600 116.5095367 72.2730255
-147.6547241 115.0584793 89.5181427
-149.0236816 115.2309189 88.3436279
-150.4043579 115.4222641 87.0674286
152.7506409 120.5344543 29.9153099
151.2431793 120.3044891 31.5232182
149.7761078 120.1369476 32.9642525
148.3601227 119.9937286 34.2104645
146.9759827 119.8689804 35.3017273
104.3400574 120.6323471 33.4558487
103.2199783 120.7879028 32.4068375
102.1168213 120.9555283 31.2774601
101.0085602 121.1397705 30.0228710
99.9231033 121.3337555 28.6547089
98.8494949 121.5564423 27.1437588
-78.9472427 117.8518295 70.9671936
-79.9428787 117.5387039 73.2860565
-80.9097900 117.2805862 75.3327942
-145.1338959 115.9976044 90.7605972
-146.4829102 116.1565475 89.7334366
-147.8004150 116.3108215 88.6591034
-149.1875153 116.4987411 87.4268494
151.5971527 121.7750854 29.2741337
150.0735779 121.5528717 30.9666634
148.6370697 121.3920135 32.3619118
147.2310638 121.2523575 33.5873947
104.4904022 122.0307083 31.8749237
103.3851929 122.1924667 30.7707672
102.2891998 122.3591003 29.5785961
101.1921921 122.5622559 28.2148132
100.1195984 122.7877884 26.7135353
-80.0742111 118.8647079 71.9639740
-81.0293121 118.5893021 74.1215057
-145.2848053 117.2506256 89.9062805
-146.6347504 117.4148254 88.8447266
-147.9822998 117.5843811 87.6982040
-149.3675232 117.7810822 86.4214630
148.9771729 122.8651123 30.1986580
147.5135498 122.6688995 31.6196556
146.1364594 122.5471649 32.7634354
144.7589722 122.4303665 33.7989769
106.9210815 123.1082916 32.2559204
105.7864075 123.2647095 31.2448864
104.6885452 123.4252090 30.1665878
103.5795135 123.6110687 28.9495430
-80.1935425 120.2565079 70.3815460
-81.1695938 119.9144669 72.7872696
-82.1372375 119.6479111 74.8645706
-83.1305923 119.4065552 76.7416992
-145.4325409 118.5111542 88.9897690
-146.7987061 118.6846619 87.8617096
147.8981018 124.1999130 29.2611790
146.4605713 124.0032883 30.5743999
145.0315552 123.8480682 31.7871304
107.1059418 124.5533295 30.4050331
105.9898911 124.7162552 29.3223267
104.9000397 124.8923340 28.1436996
-81.2773285 121.3230362 71.2050934
-82.2823410 120.9843292 73.4854660
-83.2705841 120.7213821 75.4785156
-145.6243286 119.7998276 87.9457169
146.8790741 125.5681229 28.0024776
145.4067230 125.3685532 29.4115047
143.9850769 125.2102661 30.6012573
142.5919037 125.0753860 31.6366749
141.2616119 124.9898300 32.4907799
139.9102631 124.8901443 33.2955399
111.8407059 125.4292603 32.0832291
110.7005920 125.5519562 31.2969055
109.5610962 125.6916199 30.4062004
108.4436035 125.8437119 29.4338379
107.3374481 126.0084610 28.3592033
106.2325439 126.1962585 27.1422405
-82.3970337 122.3961487 71.8431015
-83.4018478 122.0830688 74.0027924
-84.3920822 121.8184509 75.9409714
-85.3836594 121.6015701 77.6481628
-143.1612244 120.7726669 88.9224396
-144.4874878 120.9292297 87.9175415
-145.8244324 121.1003799 86.8127289
142.9667358 126.5988846 29.1835442
141.5802612 126.4496002 30.2109489
140.2359619 126.3669205 31.0756340
112.0634003 126.8818130 30.0786514
110.9321899 127.0209503 29.2125740
109.8089981 127.1717682 28.2467003
108.6966476 127.3429260 27.1576023
-83.5547714 123.4635010 72.4200668
-84.5377960 123.1827545 74.4314270
-85.5273209 122.9362564 76.2901230
-143.3448334 122.0674820 87.8084335
-144.6960144 122.2426147 86.7216187
141.9938202 128.0357361 27.4157734
140.5983124 127.8742065 28.4755669
139.2242889 127.7732315 29.3712463
137.8850250 127.7015686 30.1238632
136.5557556 127.6194611 30.8137474
135.2606354 127.5619812 31.3726883
116.9145584 127.9185638 30.6291790
115.7561798 128.0244293 30.0152950
114.6043854 128.1309357 29.3458157
113.4749222 128.2505341 28.6040478
112.3288498 128.4001923 27.7202835
111.2082520 128.5538025 26.7391434
-84.6974487 124.5748062 72.7768402
-85.6915970 124.2894440 74.7828064
-86.6661072 124.0632324 76.5207214
-87.6717987 123.8609924 78.1048584
-140.9104614 123.0689087 88.5396042
-142.2430725 123.2285538 87.5846863
-143.5667419 123.3913193 86.5532379
-144.9121094 123.5720139 85.4076538
139.6614990 129.4146118 26.3657990
138.2932892 129.2910156 27.2910366
136.9313660 129.1549072 28.1319637
135.6207275 129.0787506 28.7922039
117.1984711 129.4446106 28.2091064
116.0518570 129.5493317 27.5344143
114.9069061 129.6727905 26.7590618
-85.8507614 125.7015381 73.0339432
-86.8402328 125.4287720 74.9416962
-87.8355331 125.1984024 76.6689835
-141.1223450 124.3897247 87.3016663
-142.4529724 124.5576706 86.2891693
-143.7821045 124.7267914 85.1945648
136.0915833 130.7436218 25.5554199
134.7420197 130.6290283 26.2575989
133.4072723 130.5729828 26.8059921
132.1252441 130.5348816 27.2224712
130.8533173 130.4843445 27.6283455
129.5985413 130.4788666 27.8455696
128.3294678 130.4917297 27.9324875
127.0900726 130.4910736 27.9824982
125.8631592 130.5233765 27.9409389
124.6504517 130.5530548 27.8645935
123.4482727 130.6144867 27.6347351
122.2497025 130.6654205 27.3414001
121.0518799 130.7334900 26.9725761
119.8747253 130.8121033 26.5534649
118.7135849 130.9240112 25.9996624
117.5576630 131.0363312 25.3017941
116.4164429 131.1589661 24.5010071
-87.0126877 126.8622589 73.0987854
-88.0155792 126.5865784 75.0015869
-89.0043564 126.3617706 76.6716919
-90.0093231 126.1647415 78.1696548
-138.7612610 125.4377594 87.7371445
-140.0441895 125.5802689 86.8860397
-141.3505859 125.7295990 85.9368744
-142.6854401 125.9075470 84.8649979
132.6391144 132.2862091 23.5319748
131.3461609 132.2402344 24.0505905
130.0638428 132.2101135 24.3905640
126.3011856 132.1676025 24.6077766
125.0901794 132.1964722 24.5550976
123.8738861 132.2539368 24.3112602
122.6723557 132.3569183 23.9301109
121.4851456 132.4470520 23.5147133
-88.2057495 128.0219421 73.0675201
-89.1890945 127.7668457 74.8960571
-90.1871948 127.5434113 76.5498581
-138.9778290 126.7773285 86.3728104
-140.2796326 126.9320602 85.4476242
-141.6001892 127.1018524 84.4192963
-90.3965836 128.9646759 74.6969147
-91.3783188 128.7485657 76.2842712
-92.3960876 128.5410309 77.7584229
-134.1046448 127.6249619 87.9129181
-135.3453064 127.7277145 87.2847900
-136.6370392 127.8661728 86.5403290
-137.9123688 127.9973221 85.7516479
-139.2253113 128.1466217 84.8463058
-140.5520630 128.3198090 83.8195038
-90.6226883 130.4429321 72.4807358
-91.6074142 130.1882629 74.2799301
-92.6061630 129.9592743 75.9029236
-134.3279419 128.9768372 86.4791794
-135.5866089 129.0986633 85.7833481
-136.8764801 129.2354736 84.9955444
-138.1645050 129.3830872 84.1300812
-139.4933167 129.5520782 83.1231613
-91.8529434 131.7029114 71.9256744
-92.8427277 131.4277191 73.7577209
-93.8464355 131.2067261 75.3435211
-94.8516388 131.0158691 76.7465744
-134.5862274 130.3688660 84.8647919
-135.8514862 130.4991760 84.1056137
-94.0976410 132.7204590 73.0278778
-95.0973129 132.4806824 74.6077728
-134.8558960 131.7789459 83.0710754
-136.1464996 131.9354858 82.1946411
-95.3475647 134.0688019 72.0291901
-96.3819885 133.7942200 73.6736603
-97.3798904 133.5935059 75.0994644
-98.4206467 133.4039612 76.4326324
-99.4458923 133.2518158 77.5790863
-100.4932404 133.1114655 78.6160202
-101.5457764 132.9815216 79.5575256
-130.0930786 132.7390442 83.8390121
-131.3460693 132.8501282 83.2538605
-132.6144257 132.9692993 82.5840607
-133.8845673 133.1022034 81.8272247
-135.1774292 133.2550964 80.9665375
-97.6733932 135.1629944 72.4863586
-98.6958771 134.9307709 73.9707489
-99.7167664 134.7538147 75.2759628
-100.7534943 134.6017914 76.4260330
-101.7967987 134.4516296 77.4839935
-130.4081421 134.2018890 81.8193512
-131.6588135 134.3159485 81.1637650
-132.9524384 134.4665375 80.3857880
-134.2511444 134.6382751 79.5084000
-101.0581589 136.1488647 73.8359146
-102.0895844 135.9687195 75.0490723
-103.1307526 135.8267212 76.0885162
-104.1979752 135.7025146 77.0340500
-125.7784195 135.3190613 81.5668411
-127.0010452 135.3947144 81.1853333
-128.2296906 135.4898987 80.7181931
-129.4835815 135.6021729 80.1408615
-130.7441559 135.7177734 79.4823151
-103.4804993 137.4035950 73.2511673
-104.5245132 137.2526550 74.3441315
-126.1141663 136.8368225 79.1780853
-104.9169464 139.0101318 70.8980713
-105.9543991 138.8197327 72.0732269
-107.0156708 138.6318359 73.1489639
-108.0730133 138.5119781 74.0397491
-109.1555023 138.4147949 74.8115616
-110.2423096 138.3350983 75.4773331
-111.3452148 138.2575073 76.0459366
-112.4570389 138.2039337 76.5240631
-113.5672760 138.1560364 76.9270401
-114.7092133 138.1206360 77.2591629
-115.8360901 138.0941620 77.5248108
-116.9873734 138.0811462 77.7252960
-118.1282654 138.0936584 77.8134232
-119.3104019 138.1085358 77.8340302
-120.4709778 138.1280060 77.7940521
-121.6623383 138.1630096 77.6542664
-122.8588715 138.2123566 77.4330063
-124.0693512 138.2789001 77.1299438
-125.3095398 138.3741150 76.7212067
-126.5272827 138.4830017 76.2417068
-111.7663116 139.9277954 72.6836014
-112.8646927 139.8560791 73.2666779
-113.9844513 139.8163452 73.7079544
-115.1205826 139.7761688 74.0812683
-116.2461853 139.7438965 74.3745422
-117.3939438 139.7451324 74.5725021
-120.9138489 139.7900085 74.5896912
-122.1100540 139.8628235 74.3892822
127.2403259 35.7170410 10.6339035
126.8885269 36.3388405 13.6943569
121.9855652 36.2694626 12.8588810
134.4215546 36.8385277 13.3748589
133.7344666 36.8482819 13.8725834
133.0547333 36.8617134 14.2774343
132.3789825 36.8798599 14.6039219
129.7702332 36.8309250 15.6366320
126.6022339 36.8482170 15.9957428
125.9896240 36.8383827 16.0324249
125.3588562 36.8320465 15.9936724
124.7265015 36.8418465 15.9373236
124.1192551 36.8552780 15.8438282
123.5230560 36.8732262 15.7598886
121.7127228 36.8805199 15.2565184
118.7495880 36.8580780 13.7862797
118.1580276 36.8335762 13.3995438
136.1375580 37.4064522 14.5917244
115.6267166 37.4191475 13.9183474
138.6271057 38.0010147 14.6901779
137.9302826 37.9927406 15.3190069
137.2098083 37.9990082 15.9407425
136.5173340 38.0066261 16.4432564
135.8233490 38.0128670 16.9035187
115.3909531 38.0191078 15.9027205
114.8217850 38.0076065 15.4483271
114.2656326 38.0200195 14.9796953
113.7044830 38.0503159 14.4295530
139.7400970 38.5718575 15.7916965
111.7992325 38.6683960 14.5936985
140.1620331 39.1514320 17.2906113
139.4145508 39.1765709 17.9825001
111.5923233 39.2337341 16.4443836
142.4700775 40.2658730 18.6159878
141.7667084 40.2594566 19.2359962
141.0157166 40.2732544 19.9173794
140.3327179 40.2650948 20.4359703
110.1072922 40.3443527 18.5674801
107.3080139 40.3919067 15.3503647
144.3587494 40.8768005 18.3360767
106.6136246 40.9543190 16.2680683
144.8639679 41.4558144 19.3059826
144.1237030 41.4538498 20.0332394
106.4449310 41.5454178 17.8309593
105.8972626 41.5549660 17.2165165
105.3277054 41.5458450 16.4542198
145.3193512 42.0379906 20.3181992
105.2163544 42.1586609 17.9479103
145.0828705 42.5946541 21.9140072
105.0763702 42.7290230 19.3008823
104.9356537 43.2677307 20.5502739
149.0529480 43.7871475 20.3007126
148.3457031 43.7610512 21.0712719
147.6061554 43.7454109 21.8806782
104.8128586 43.8141365 21.7361126
104.2579880 43.8343697 21.1203308
103.7065430 43.8575974 20.4679470
103.1511765 43.8845596 19.7573452
102.6010284 43.9184036 19.0251617
102.0414581 43.9268494 18.2353630
150.9141693 44.9473610 20.5769901
150.1259613 44.9393425 21.5473080
100.1317520 45.0878296 18.4050236
100.0560074 45.6826897 19.6321068
-118.4448700 44.1141815 61.7214661
-121.4312057 44.1110001 61.7525787
99.9598694 46.2549629 20.7933445
-111.3872223 44.6910362 61.0917091
-111.9190216 44.6770515 61.5170746
-112.4657364 44.6659622 61.9028740
-113.0280151 44.6679344 62.2911873
-113.5766373 44.6637764 62.5685806
-114.1359940 44.6779861 62.8207855
-118.1274719 44.6636162 64.0171738
-120.4837418 44.6663246 64.1647263
-121.0828552 44.6705704 64.1029282
-123.5188217 44.6700897 63.7355003
-124.1402512 44.6373825 63.5537910
-124.7533112 44.6185989 63.3378029
-125.3776398 44.6223640 63.1039124
-126.0221176 44.6324692 62.8006172
152.5503845 46.6632195 22.1283684
-108.4400558 45.2841263 60.9503212
152.3212738 47.2240143 23.4583950
98.6348801 47.4150009 21.3651218
98.0973892 47.4547958 20.5874252
97.5538940 47.4685936 19.7709751
-107.0919952 45.8327446 62.0643311
-107.6364899 45.8558464 62.6431007
-108.1768875 45.8572121 63.1703415
-103.7800140 46.4877167 60.1022987
154.1791229 48.4226608 23.2846375
153.4419098 48.3895531 24.1540852
96.2177429 48.6136665 20.1951714
-102.0481339 47.1487274 59.8421974
-102.5331116 47.1116371 60.7381325
-103.0340271 47.0765457 61.5753021
-103.5316696 47.0512581 62.2829361
-128.0479126 46.7703438 69.1423264
154.7849274 48.9952965 23.4968052
-102.2885208 47.6073723 62.8027420
154.5953979 49.5406799 24.6614304
-101.5834351 48.0865669 63.9051704
-102.0719452 48.1045227 64.5695114
-131.4188843 47.8970947 70.3017197
-132.0522614 47.9167747 69.9241409
94.8808212 50.3612404 21.4639912
-98.8467102 48.8157425 61.6998062
-99.3144684 48.7735329 62.5806923
-100.8290787 48.6538925 64.8750153
-133.8303375 48.4968567 70.0364304
156.5799713 50.7200928 24.0676403
155.7736359 50.7084503 25.0701637
94.8163681 50.9398842 22.3700962
94.2382431 50.9497299 21.5091362
-97.1774368 49.4373779 60.7505798
-98.1533661 49.3724976 62.6142845
-98.6398163 49.3377571 63.4758453
-99.1496506 49.2964745 64.2378998
-99.6677399 49.2700577 65.0092697
-100.1662521 49.2299461 65.7170029
-100.6636047 49.1814919 66.3371964
-133.6019440 49.0294456 71.5220108
93.6190643 51.5503693 21.5302219
-96.4752426 49.9716377 61.6286659
-133.3948517 49.5280571 72.8657532
-136.7264862 49.5902443 70.5297165
93.5805588 52.1440659 22.4229412
93.0346069 52.1766205 21.5322781
-95.7946701 50.5274353 62.4685211
-96.2880249 50.4903488 63.3336487
-133.2131500 50.0364113 74.0784912
-133.8692169 50.0406303 73.6743317
-134.5099487 50.0722618 73.2904587
-135.1518250 50.1132698 72.8820572
-135.8320007 50.1323128 72.3986588
-136.5106964 50.1336327 71.8985291
-137.1746063 50.1399307 71.4039078
-137.8682098 50.1410980 70.8366241
156.7998352 52.4050446 26.3314419
93.5130539 52.7159004 23.2289391
159.0275726 53.1099625 24.1284618
158.2144165 53.0547218 25.2804794
157.3721313 53.0116234 26.4181843
156.6204529 52.9658012 27.3356342
93.4398422 53.2725105 24.0207157
-138.1132813 51.2314682 72.9625473
159.4358673 54.2449112 25.1724892
-92.6694031 52.7674942 63.8937149
-91.5526352 53.3716125 63.3993950
-137.5623474 52.8238792 76.3605423
-141.6336060 52.9746017 73.0964890
89.8678207 55.7342911 21.8749142
-90.9095612 53.9317818 63.7161942
-91.4153976 53.9114609 64.7667007
-137.3952332 53.3504982 77.3712311
-138.0747528 53.3682251 76.9100494
-138.7285309 53.3955841 76.4516754
-139.3758850 53.4309006 75.9757080
-140.0451355 53.4681702 75.4396133
-140.7359924 53.4988556 74.8648987
-141.4234161 53.5195618 74.2763748
160.5477448 55.9612083 25.9780884
89.8156509 56.3076477 22.5840378
89.2617035 56.3377914 21.6750565
-90.2794342 54.5085831 64.0716019
-141.2147064 54.0591125 75.4312363
-142.6254730 54.0903664 74.1926651
161.2186890 56.5468483 25.7645798
160.3918915 56.5046005 26.8783131
89.7492142 56.8745041 23.2610188
-89.1784592 55.1159134 63.3304482
-89.6734543 55.0936394 64.4336319
-90.1667480 55.0495796 65.4297943
-141.0730743 54.5699425 76.4402313
-141.7434845 54.5989265 75.8892365
-142.4511261 54.6143036 75.2842941
-143.1543884 54.6179199 74.6872940
161.9315033 57.1260757 25.4601460
88.5595322 58.0902672 22.8396549
87.9926147 58.1343498 21.8611603
-87.9570770 56.2664185 63.7717285
-143.5172577 55.7103386 76.1319809
87.4015274 58.7495193 21.4948215
162.2541809 58.8320885 26.9560833
161.4230194 58.7856903 28.0863857
162.9679108 59.4298668 26.5654697
88.4215317 59.7969933 24.7405014
-86.6372528 57.9369240 65.2843933
-145.8066559 57.4264870 76.4837418
162.8024902 59.9915962 27.3898277
88.3634872 60.3572960 25.3158703
-86.0409927 58.5119934 65.3504486
-86.5265808 58.4613991 66.3674011
-145.6479797 57.9683113 77.3930435
-146.3668365 57.9820290 76.7506485
-85.4460983 59.0837975 65.3519669
164.1949921 61.1961098 26.5517464
-84.8378448 59.6588898 65.2730026
-85.3522491 59.6193886 66.4262085
-146.7589264 59.0849915 77.8667145
164.9078217 61.7939987 26.0834942
164.0473785 61.7473068 27.3221321
87.1343231 62.1490326 25.2017365
-84.2743759 60.2518272 65.2910995
163.9271698 62.2915154 28.0350094
87.0885620 62.7140312 25.7322712
86.5516739 62.7705917 24.8014240
86.0294876 62.8318024 23.8735218
85.4557724 62.8780327 22.8274174
84.9066620 62.9327812 21.8018684
-83.7053604 60.8361244 65.2229156
-84.1975479 60.7817917 66.3378220
-83.1194687 61.4186020 65.0612717
-146.3062592 60.7079430 80.2878723
84.8402710 64.0724716 22.9010601
84.2787247 64.1303940 21.8329029
-82.5395432 62.0094490 64.8913879
-83.0421829 61.9564781 66.0886078
-146.2097321 61.2359695 80.9971313
165.2182617 64.0561295 27.7305946
84.8001785 64.6460953 23.4126682
-81.9718246 62.5999413 64.7192459
-147.4954071 61.8463783 80.4769287
165.0923920 64.6124954 28.3789482
-81.8795547 63.1343536 65.6617126
-147.3380432 62.3855324 81.2266998
84.7038727 65.7711105 24.3986206
