99.4103394 48.8577728 35.3161697
94.8317566 49.0102692 32.1414986
90.3020020 49.2034607 28.1045227
-91.3088303 47.3811111 73.6595688
-95.5790100 47.2166100 77.3617783
-99.9100342 47.0896950 80.2686920
-104.2999191 46.9934959 82.5108414
-108.7312927 46.9232025 84.1816101
-113.2133331 46.8763008 85.3402481
-117.7504120 46.8530197 86.0077896
-122.3519135 46.8497276 86.2111511
-127.0340347 46.8717613 85.8990479
-131.8048859 46.9178619 85.0462646
-136.6837006 46.9925842 83.5873413
-141.6996918 47.1013107 81.3967590
153.3362122 53.4721909 34.6077156
147.9138031 53.3086624 37.9979630
142.6645203 53.1938477 40.4389496
137.5520020 53.1167870 42.1409760
132.5385590 53.0706635 43.2431793
127.6079254 53.0535164 43.8098145
122.7526550 53.0597343 43.8842278
117.9553223 53.0914993 43.4725189
113.2097702 53.1474037 42.6021881
108.5064545 53.2273178 41.2520752
103.8473511 53.3342743 39.3964767
99.2286835 53.4701462 36.9778786
94.6530991 53.6399918 33.8990135
90.1155930 53.8511162 30.0171337
-86.7524643 52.0380325 72.5750809
-90.9774551 51.8202896 76.9486465
-95.2624054 51.6520538 80.3860245
-99.6016846 51.5211220 83.1085052
-103.9875336 51.4196091 85.2395554
-108.4174118 51.3466034 86.8408813
-112.8852844 51.2986298 87.9616852
-117.4090805 51.2737999 88.6265182
-121.9971390 51.2733345 88.8445282
-126.6564941 51.2963142 88.5916443
-131.4002686 51.3462372 87.8397827
-136.2358704 51.4242172 86.5321808
-141.2015533 51.5372009 84.5688477
158.7393646 58.2989731 31.5055695
153.0971069 58.0538750 36.0493546
147.7029724 57.8821144 39.3052444
142.4712219 57.7619934 41.6509972
137.3714905 57.6823311 43.2961235
117.8131943 57.6687202 44.5307312
113.0689926 57.7316895 43.6719971
108.3744583 57.8233452 42.3284073
103.7187500 57.9425926 40.4903946
99.1003647 58.0935020 38.1088448
94.5250778 58.2813873 35.0857544
89.9868164 58.5128937 31.3016472
-86.4884186 56.4899445 75.3620377
-90.7309189 56.2665672 79.4569855
-95.0215454 56.0903549 82.7148743
-99.3607025 55.9537430 85.3227539
-103.7458420 55.8482971 87.3748398
-108.1709518 55.7716179 88.9303436
-112.6365433 55.7212372 90.0200577
-117.1506653 55.6962700 90.6903992
-121.7263718 55.6965675 90.9201126
-126.3664856 55.7222595 90.7088547
-131.0870667 55.7765007 90.0189972
-135.8964233 55.8594971 88.8129654
-140.8204956 55.9784012 86.9994736
-145.8902435 56.1401787 84.4523926
158.5696106 62.9167900 32.4617157
152.9533844 62.6568184 36.8813171
147.5737915 62.4746094 40.0611420
142.3526611 62.3474426 42.3661728
137.2631073 62.2638321 43.9760208
117.7231140 62.2597275 45.1620483
112.9829865 62.3318138 44.2982597
108.2885361 62.4343033 42.9508591
103.6354980 62.5675163 41.1211929
99.0221481 62.7341003 38.7585373
94.4476089 62.9410553 35.7585106
89.9071426 63.1962280 31.9955482
-82.1104813 61.2560959 72.4327545
-86.3012695 60.9561424 77.4025574
-90.5480118 60.7227631 81.3264847
-94.8437195 60.5385361 84.4741516
-99.1866531 60.3941498 87.0033417
-103.5690765 60.2835846 88.9969482
-107.9880524 60.2027550 90.5175247
-112.4482269 60.1508789 91.5988312
-116.9576492 60.1250687 92.2606125
-121.5242233 60.1264114 92.5077820
-126.1569519 60.1555367 92.3076324
-130.8603973 60.2127838 91.6713867
-135.6470795 60.3029480 90.5298538
-140.5443726 60.4293213 88.8189163
-145.5819092 60.5998421 86.4190521
158.5173492 67.5711060 32.7152328
152.9021301 67.2894440 37.1346626
147.5191956 67.0931244 40.3086510
142.3074951 66.9565506 42.6071205
137.2142334 66.8674164 44.2143135
117.6846619 66.8711395 45.3808975
112.9442444 66.9541931 44.4864769
108.2554321 67.0673218 43.1437988
103.6029358 67.2144852 41.3101730
98.9899216 67.3992310 38.9327774
94.4182434 67.6277618 35.9197655
89.8819275 67.9090881 32.1415253
-81.9771271 65.7550354 74.0295258
-86.1767044 65.4408875 78.8291931
-90.4289932 65.1948547 82.6508179
-94.7241745 65.0006409 85.7260590
-99.0641174 64.8478317 88.2044067
-103.4427338 64.7302704 90.1759644
-107.8603973 64.6457672 91.6754150
-112.3184128 64.5915451 92.7373810
-116.8235321 64.5654144 93.3988571
-121.3864822 64.5680084 93.6447449
-126.0075378 64.6006851 93.4673309
-130.6967773 64.6632690 92.8581390
-135.4754181 64.7601166 91.7560730
-140.3543701 64.8954163 90.1073074
-145.3701782 65.0772247 87.7972183
152.9427490 71.9628143 36.7965012
147.5539551 71.7472992 40.0305176
142.3278198 71.5984726 42.3642998
137.2351990 71.5021820 43.9902725
132.2427521 71.4495926 45.0232277
127.3305206 71.4356995 45.5489960
122.4836044 71.4569702 45.5855026
117.6949539 71.5140686 45.1540146
112.9568939 71.6041489 44.2656326
108.2672729 71.7294617 42.9104576
103.6189346 71.8922577 41.0530663
99.0072250 72.0971985 38.6369781
94.4368286 72.3500214 35.5713844
89.9040527 72.6615753 31.7266922
-81.9035034 70.2836914 74.9742737
-86.1065063 69.9503555 79.7010727
-90.3596725 69.6892700 83.4652405
-94.6547165 69.4822769 86.5133667
-98.9941483 69.3205566 88.9626312
-103.3727798 69.1960754 90.9176102
-107.7871170 69.1064987 92.4064941
-112.2416534 69.0496216 93.4652100
-116.7443390 69.0225372 94.1278458
-121.2993622 69.0266724 94.3804092
-125.9207993 69.0631714 94.2044983
-140.2449646 69.3827820 90.9094772
-145.2491608 69.5783463 88.6392212
-150.4187012 69.8369980 85.5395813
153.0844116 76.6883316 35.8458710
147.6655884 76.4469147 39.2132645
142.4299011 76.2825012 41.6211777
137.3179321 76.1764069 43.3014030
132.3203430 76.1198425 44.3602753
127.4008026 76.1036530 44.8998985
122.5526276 76.1280670 44.9433212
117.7614899 76.1909790 44.5133247
113.0267487 76.2909546 43.6070824
108.3338776 76.4303360 42.2212677
103.6824341 76.6111984 40.3155823
99.0758667 76.8371201 37.8455887
94.5092621 77.1181335 34.6925926
89.9870529 77.4660110 30.7122154
-81.8901138 74.8497391 75.3189850
-86.0908813 74.4924316 80.0383224
-90.3395386 74.2123871 83.8049774
-94.6375961 73.9917297 86.8423386
-98.9754028 73.8183899 89.2958832
-103.3524628 73.6859283 91.2463074
-107.7638550 73.5905914 92.7394562
-112.2153168 73.5302582 93.8030396
-116.7179565 73.5031738 94.4605484
-121.2787933 73.5098572 94.6995697
-125.8935776 73.5497284 94.5366058
-140.2135620 73.8986053 91.2398682
-145.2139130 74.1104355 88.9757919
-150.3816833 74.3901672 85.8818512
147.8779144 81.2080765 37.7865372
142.6067810 81.0208588 40.3330536
137.4816742 80.9017944 42.0981064
132.4644012 80.8365784 43.2184410
127.5376587 80.8202209 43.7838516
122.6828003 80.8456116 43.8399429
117.8861084 80.9158325 43.3944397
113.1494598 81.0264282 42.4710121
108.4556580 81.1799316 41.0486526
103.8058472 81.3802185 39.0799141
99.1959152 81.6341705 36.5047836
94.6379700 81.9483337 33.2152634
-81.9330750 79.4637985 75.0610504
-86.1296844 79.0753555 79.8547287
-90.3762283 78.7737045 83.6566162
-94.6683044 78.5345840 86.7384949
-99.0068512 78.3483505 89.2099609
-103.3785248 78.2064590 91.1746979
-107.7950439 78.1053848 92.6722107
-112.2480011 78.0416718 93.7417526
-116.7457581 78.0129700 94.4019318
-121.3118439 78.0230713 94.6316681
-125.9221191 78.0668793 94.4695206
-130.6104126 78.1502304 93.8567657
-135.3794250 78.2760925 92.7593384
-140.2561493 78.4498901 91.1134644
-145.2612305 78.6821976 88.8084259
148.1892395 86.0485306 35.6623993
142.8796082 85.8305817 38.4251175
137.7211761 85.6910629 40.3280029
132.6904144 85.6188278 41.5163651
127.7456970 85.5959473 42.1365128
122.8782959 85.6245804 42.2108727
118.0738983 85.7003479 41.7623520
113.3293152 85.8228989 40.8043137
108.6341553 85.9930496 39.3257446
103.9839935 86.2170868 37.2640076
99.3857727 86.4997482 34.5535431
94.8364105 86.8568954 31.0451679
-82.0355453 84.1410370 74.1508865
-86.2233505 83.7119598 79.1148376
-90.4653702 83.3817139 83.0221176
-94.7538300 83.1230774 86.1534348
-99.0863495 82.9205322 88.6797333
-103.4583054 82.7684326 90.6667175
-107.8718643 82.6596222 92.1829834
-112.3286514 82.5909348 93.2680817
-116.8357849 82.5638580 93.9195328
-121.3973846 82.5737762 94.1600876
-126.0171585 82.6240845 93.9756470
-130.7099762 82.7169342 93.3344116
-135.4908142 82.8558655 92.2006683
-140.3797302 83.0486298 90.4963837
-145.4070587 83.3063049 88.0983963
143.2635040 90.7361298 35.7542152
138.0625000 90.5679932 37.8688850
132.9982910 90.4785614 39.1930923
128.0292206 90.4504089 39.8784180
123.1483688 90.4780731 39.9844093
118.3328552 90.5603790 39.5306396
113.5813293 90.6959229 38.5361214
108.8851700 90.8871155 36.9648743
104.2392654 91.1396942 34.7655334
-86.3779449 88.4181671 77.7567902
-90.6089859 88.0511475 81.8362732
-94.8934174 87.7652435 85.0877075
-99.2236633 87.5441284 87.6823730
-103.5954361 87.3783493 89.7204590
-108.0096359 87.2621460 91.2616806
-112.4695892 87.1901398 92.3556519
-116.9819336 87.1603546 93.0185547
-121.5494995 87.1745682 93.2414780
-126.1755981 87.2298203 93.0400238
-130.8824768 87.3339844 92.3601608
-135.6755371 87.4903946 91.1556854
-140.5858002 87.7056885 89.3556747
-145.6451721 87.9949417 86.8183517
133.4218445 95.4487457 36.0590935
128.4202423 95.4084930 36.8612823
123.5147095 95.4342575 37.0129318
118.6885910 95.5234833 36.5540390
113.9281769 95.6730499 35.5001068
109.2294617 95.8922424 33.7852669
104.5853729 96.1830902 31.3812904
-90.8216782 92.7990417 80.0263672
-95.0946198 92.4806976 83.4469910
-99.4256592 92.2340851 86.1612091
-103.7970428 92.0534973 88.2678452
-108.2088013 91.9242935 89.8654785
-112.6744385 91.8464508 90.9823456
-117.1909561 91.8171539 91.6442108
-121.7676315 91.8341370 91.8549194
-126.4087753 91.9000549 91.6074829
-131.1328888 92.0184174 90.8556061
-135.9513245 92.1940155 89.5661774
-140.8942108 92.4396439 87.6151123
133.9969482 100.5751953 31.8066673
128.9499817 100.5118561 32.8121567
124.0108795 100.5311356 33.0473099
119.1648407 100.6281433 32.5847015
114.3944397 100.7989044 31.4234428
109.6978455 101.0523911 29.5103550
-95.3708191 97.2877350 81.1392899
-99.6915054 97.0117493 84.0172272
-104.0643768 96.8082275 86.2385101
-108.4825897 96.6676178 87.8996429
-112.9509277 96.5814438 89.0565796
-117.4781723 96.5506439 89.7197571
-122.0661545 96.5716248 89.9132233
-126.7299652 96.6499557 89.6014709
-131.4732666 96.7850952 88.7694397
-136.3270721 96.9889526 87.3240204
-141.3178406 97.2729263 85.1553345
124.7044144 105.8506012 27.5385971
-100.0485077 101.9014587 81.1155167
-104.4132843 101.6684341 83.5133362
-108.8335114 101.5080261 85.2757721
-113.3117523 101.4151993 86.4708252
-117.8509521 101.3816986 87.1473389
-122.4607849 101.4099350 87.3033218
-127.1482849 101.5021210 86.9120712
-131.9303436 101.6635742 85.9269257
-104.8797607 106.6757278 79.8338776
-109.2996826 106.4904556 81.7574463
-113.7829285 106.3834076 83.0337448
-118.3413544 106.3485260 83.7225952
-122.9750671 106.3852081 83.8251953
-127.6999207 106.4995422 83.3033142
-132.5353394 106.6988831 82.0867996
-109.9258728 111.6797485 76.9454269
-114.4128418 111.5489044 78.3726959
-118.9945450 111.5114975 79.0754242
-123.6707306 111.5660934 79.0691833
132.3906097 22.1395664 17.6918640
129.8064575 22.1213932 18.4025154
127.2615356 22.1126213 18.8427124
124.7570343 22.1027355 18.9783096
122.2791290 22.0986328 18.8670998
119.8414688 22.0955505 18.5125370
117.4216309 22.0984612 17.9049435
115.0290222 22.1036911 17.0270309
112.6643524 22.1142960 15.8687077
139.7398834 24.5339527 18.5209026
137.0537720 24.5018044 20.0081558
134.4086304 24.4807281 21.1599598
131.8171997 24.4614792 21.9796028
129.2626190 24.4480896 22.5337353
112.1887741 24.4494057 20.0719643
109.8498840 24.4630737 18.8078079
107.5288849 24.4820099 17.2460995
144.6512756 26.9175568 18.9954720
141.8745422 26.8767624 21.0403748
139.1683960 26.8398724 22.6038780
136.5237427 26.8143730 23.8330212
133.9113312 26.7935524 24.7690620
131.3506317 26.7756443 25.4376049
128.8215942 26.7599773 25.8765755
111.7999878 26.7752819 23.4974785
109.4586182 26.7922897 22.3534336
107.1286926 26.8144073 20.9638176
104.8245010 26.8394394 19.2900238
102.5481644 26.8765602 17.3015862
144.0800934 29.2146416 22.9061317
141.3632202 29.1722183 24.5805645
138.6922607 29.1456261 25.9269314
106.7855759 29.1357117 24.0393524
104.4751129 29.1654644 22.5358849
102.1822510 29.2010555 20.7665329
-115.0566864 27.9979839 61.9230118
-117.3398285 27.9809303 62.5911102
-119.6666336 27.9681950 62.9677353
-122.0182953 27.9634666 63.0977020
146.3613892 31.5534191 24.2325630
143.6112366 31.5087852 26.0729065
140.9297180 31.4714737 27.5353355
138.2995605 31.4378681 28.6988277
106.5015564 31.4530029 26.6663265
104.1827240 31.4821262 25.2586899
101.8835144 31.5198326 23.6371822
99.5996552 31.5643616 21.7150059
97.3417206 31.6168385 19.4704742
-107.7309875 30.3139305 63.5280457
-109.9329834 30.2781315 64.8652802
-112.1637802 30.2510872 65.9325256
-114.4222717 30.2277203 66.7608032
-116.7058716 30.2119789 67.3631973
-119.0294647 30.1978512 67.7211914
-121.3654785 30.1935673 67.8737488
-123.7408371 30.1922321 67.7942505
-126.1527405 30.1970711 67.4821625
151.5457001 33.9701118 22.6706886
148.6972046 33.9005928 25.1425209
145.9295349 33.8428612 27.1022778
143.2208252 33.7986069 28.7226353
140.5654907 33.7607536 30.0409164
137.9508362 33.7296219 31.1107826
101.6251373 33.8382339 26.1073246
99.3337097 33.8834610 24.3162422
97.0650787 33.9395752 22.2558403
94.8134689 34.0012665 19.8620491
-100.7457733 32.6909561 62.4948807
-102.8734207 32.6317291 64.5527954
-105.0366669 32.5843468 66.2801056
-107.2195282 32.5432816 67.6970215
-123.2101593 32.4237099 71.6088638
-125.5970078 32.4282570 71.3968887
-128.0146637 32.4385338 70.9734879
-130.4683838 32.4532700 70.3149414
151.0951233 36.2481537 25.5912933
148.2909393 36.1817665 27.7675018
145.5553589 36.1294479 29.5526276
142.8807831 36.0840225 31.0127811
140.2502594 36.0441475 32.1977310
137.6503296 36.0152969 33.1824722
101.4035797 36.1492844 28.2385292
99.1044617 36.1974945 26.5497169
96.8291702 36.2562141 24.6306973
94.5648117 36.3198891 22.4098358
92.3335724 36.4009171 19.8511677
-98.1621475 34.9756241 64.3775330
-100.2833176 34.9113541 66.5002136
-102.4393387 34.8580093 68.3048096
-104.6133118 34.8114548 69.8215866
-106.8103638 34.7705421 71.0850143
-122.7667389 34.6517944 74.7969055
-125.1367569 34.6551170 74.6347351
-127.5302429 34.6647263 74.2863617
-129.9590149 34.6806183 73.7487946
-132.4231262 34.7036285 72.9984741
-134.9295502 34.7313385 72.0015793
153.5591278 38.6096077 25.6363506
150.7124176 38.5276489 28.0410118
147.9381409 38.4631920 30.0169258
145.2400360 38.4100761 31.6424160
142.5779877 38.3640366 33.0026627
96.6213150 38.5713196 26.6799698
94.3567963 38.6387482 24.5839691
92.1090622 38.7183342 22.1930065
-93.5846710 37.3574829 63.0350380
-95.6628418 37.2694817 65.6527252
-97.7773132 37.1951599 67.8714066
-99.9188080 37.1342773 69.7687683
-102.0813446 37.0779953 71.3722305
-131.9737549 36.9238892 76.0056305
-134.4481659 36.9528618 75.1495743
-136.9747467 36.9892464 74.0413742
-139.5425262 37.0401115 72.6687469
156.1015320 40.9802780 25.1972675
153.1888428 40.8845520 27.9264221
150.3831482 40.8068085 30.1254501
147.6444397 40.7438622 31.9406090
144.9664612 40.6868134 33.4564362
142.3203430 40.6435471 34.7249374
96.4386902 40.8818588 28.4454975
94.1714783 40.9544334 26.4606628
91.9191132 41.0373840 24.1940784
89.6784134 41.1307526 21.5576954
-91.1552734 39.6700249 63.6914482
-93.2254868 39.5727463 66.4509125
-95.3269577 39.4888687 68.7877502
-97.4580307 39.4180832 70.7943726
-99.6034775 39.3546562 72.5205460
-101.7805023 39.3035660 74.0216675
-131.5893402 39.1462555 78.5879364
-134.0481567 39.1732216 77.8242111
-136.5371704 39.2110748 76.8575592
-139.0840149 39.2528114 75.6391983
-141.6655579 39.3097763 74.1517487
158.7191010 43.3740807 24.2758217
155.7382202 43.2575150 27.3820686
152.8788757 43.1621246 29.8650703
150.1052551 43.0852661 31.9058666
147.3825073 43.0206718 33.6197929
91.7508545 43.3548851 25.9176216
89.5063019 43.4527588 23.4239941
87.2870789 43.5669174 20.5334549
-88.7786636 41.9959602 63.8891678
-90.8298416 41.8824921 66.8063660
-92.9284058 41.7879295 69.3003387
-95.0410843 41.7090988 71.4338837
-97.1840363 41.6356392 73.2669067
-141.2374573 41.5251198 76.8550568
-143.8625793 41.5911293 75.2194977
158.3703613 45.6475792 26.3614826
155.4464264 45.5347862 29.1965408
152.6157684 45.4394608 31.5157433
149.8660126 45.3599701 33.4313812
147.1584167 45.2967033 35.0646019
91.6093445 45.6711311 27.4088192
89.3550720 45.7734909 25.0136166
87.1269073 45.8891869 22.2645264
-86.4484482 44.3379669 63.6274910
-88.4899521 44.2075882 66.7703094
-90.5652161 44.0993805 69.4215088
-92.6730957 44.0055351 71.7046509
-94.8018875 43.9240036 73.6869354
-96.9490662 43.8538361 75.4363251
-140.8666229 43.7423935 79.1767502
-143.4680176 43.8069534 77.6894608
-146.0856323 43.8862953 75.9359131
158.0874023 47.9261131 28.0960274
155.1905670 47.8127441 30.7511368
152.3881531 47.7174721 32.9332848
129.1153717 47.3559113 41.7260933
126.6692200 47.3530731 41.8976593
86.9956512 48.2152672 23.7432480
-86.1843185 46.5502853 66.3176270
-88.2507706 46.4241562 69.1898651
-145.7149963 46.0995255 78.2114258
160.8205566 50.3487358 26.4592628
157.8468933 50.2080917 29.5498257
154.9841309 50.0924149 32.0484962
152.1870422 49.9995422 34.1541176
128.9883423 49.6352654 42.6226234
126.5496979 49.6315079 42.7764091
86.8859787 50.5450516 25.0008183
84.6640320 50.6885910 22.0420265
-83.9188766 48.9123917 65.4574738
-85.9652481 48.7663383 68.5686188
-88.0510712 48.6431313 71.2552643
-145.3958435 48.3182106 80.1775055
-148.0739899 48.4072456 78.3339844
160.5889893 52.6331100 27.8238087
157.6395416 52.4914093 30.7578049
86.7864456 52.8747673 26.0375786
84.5624084 53.0243454 23.1814690
-81.6856384 51.3007393 64.1313477
-83.7171326 51.1312561 67.5862350
-145.1290588 50.5361824 81.8682404
-147.7634125 50.6275711 80.1707840
-150.4286499 50.7341881 78.1796417
163.4544373 55.1052513 25.4210663
160.3986206 54.9245491 28.9299164
157.4762878 54.7818832 31.7482529
86.7046967 55.2105637 26.8968391
84.4805908 55.3644104 24.1033154
-81.5008698 53.5220032 66.1565628
-83.5470886 53.3539238 69.3933029
-144.8895721 52.7578430 83.3551254
-147.5072632 52.8491478 81.7428589
-150.1449585 52.9560814 79.8796921
163.2759094 57.4028664 26.4353523
133.6401062 56.5004272 43.9496803
131.1630554 56.4852982 44.3343163
128.7028809 56.4765091 44.5950089
126.2699432 56.4752731 44.7596359
123.8348236 56.4797516 44.7704239
121.4321899 56.4928246 44.6901016
86.6359482 57.5504990 27.5652466
84.4085159 57.7104492 24.8317566
-79.3283234 55.9477348 64.2233200
-81.3482819 55.7480049 67.8543167
-83.4099960 55.5807419 70.9417648
-149.9069214 55.1803780 81.3386307
163.1384277 59.7085114 27.2239971
133.5803528 58.7856903 44.3803024
131.1012726 58.7713661 44.7741508
128.6396790 58.7638779 45.0340462
126.2053680 58.7625656 45.1706200
123.7821960 58.7692184 45.1901779
121.3738403 58.7806168 45.1089897
86.5836258 59.8949471 28.0941067
84.3573914 60.0625725 25.3778381
-79.1859589 58.1786499 65.8582153
-81.2205811 57.9809875 69.3085556
-83.2893600 57.8130188 72.2527084
-149.7028809 57.4093628 82.5833435
-152.4125671 57.5399628 80.5275650
163.0520325 62.0252838 27.7547131
133.5260620 61.0768967 44.7079544
131.0553284 61.0613556 45.0940056
121.3176880 61.0743294 45.4237251
86.5427475 62.2463303 28.4621429
84.3180237 62.4219170 25.7602253
-77.0743256 60.6593971 63.2079391
-79.0669861 60.4183388 67.1947021
-149.5288391 59.6430969 83.6452026
-152.2190704 59.7744865 81.6653976
166.1395721 64.6032562 24.0268250
162.9876556 64.3509369 28.1046829
133.4880829 63.3713608 44.9305840
131.0175781 63.3563232 45.3112488
121.2836456 63.3725052 45.6311874
86.5203094 64.6053085 28.6778793
84.2905426 64.7888184 25.9830513
-76.9690781 62.9055176 64.4890594
-78.9773560 62.6643600 68.3144760
-149.3922882 61.8810959 84.5302734
-152.0615540 62.0154419 82.6174469
166.1134949 66.9520721 24.1580410
162.9563599 66.6886215 28.2369118
133.4683228 65.6725082 45.0374107
130.9915009 65.6562042 45.4352798
121.2702484 65.6762848 45.7358894
86.5069962 66.9725494 28.7511559
84.2759552 67.1660614 26.0346870
-76.8811111 65.1621094 65.5023346
-78.9010391 64.9193726 69.2077026
-149.2684326 64.1239014 85.2701874
-151.9437866 64.2621155 83.3846588
-154.6496429 64.4218063 81.2031860
162.9569397 69.0400238 28.1626549
133.4606781 67.9801559 45.0446587
130.9850769 67.9642792 45.4300995
128.5281830 67.9561005 45.6859818
126.0939789 67.9583130 45.8273926
123.6681671 67.9695129 45.8266487
121.2600708 67.9855347 45.7427368
86.5122528 69.3507080 28.6595516
84.2784882 69.5546112 25.9205914
-76.8213806 67.4292679 66.2844849
-78.8496094 67.1825104 69.9086304
-149.1824036 66.3735962 85.8511353
-151.8314972 66.5151138 84.0218430
-154.5350952 66.6792068 81.8713684
163.0049438 71.4081497 27.8581352
159.9985352 71.1827545 31.1345558
157.1011353 70.9996567 33.8093262
86.5269470 71.7403564 28.4134827
-76.7801514 69.7080307 66.8538818
-78.8097687 69.4550781 70.4233780
-154.4650116 68.9460449 82.3539810
160.0565491 73.5520096 30.7241325
157.1510620 73.3588562 33.4446716
86.5575562 74.1438446 28.0100040
-76.7530518 71.9989624 67.2145996
-78.7876434 71.7378769 70.7664795
-154.4181976 71.2218628 82.6842957
160.1598053 75.9436951 30.0801239
157.2408447 75.7365417 32.8800888
86.6003418 76.5634003 27.4222527
-76.7468109 74.3033066 67.3815994
-78.7787323 74.0320282 70.9408646
-154.3934631 73.5076904 82.8617554
160.2877808 78.3512955 29.2390671
157.3585968 78.1316452 32.1390457
86.6575317 79.0019608 26.6585159
84.4526672 79.2577362 23.6868286
-76.7582321 76.6211243 67.3715210
-78.7845535 76.3390656 70.9463272
-154.4038086 75.8066330 82.8702240
160.4665680 80.7882080 28.1237202
157.5050964 80.5478058 31.1878777
154.6455078 80.3534775 33.6720963
151.8702545 80.1962280 35.7317581
91.2034760 81.0058441 30.6974220
88.9612808 81.2162476 28.3733635
86.7356033 81.4598083 25.6994915
-76.7786713 78.9580231 67.1390533
-78.8118896 78.6594925 70.7861710
-149.0944672 77.7479706 86.6845398
-151.7355804 77.9192581 84.8637009
-154.4404297 78.1186905 82.7179718
157.6939087 82.9886627 29.9904327
154.8160553 82.7796936 32.6028519
152.0123749 82.6067352 34.7694588
91.2939987 83.4551849 29.7146702
89.0486221 83.6860428 27.2813969
86.8360901 83.9447174 24.4946861
-76.8363190 81.3128967 66.7120743
-78.8495102 81.0001907 70.4162674
-149.1483765 80.0557251 86.4426956
-151.7956848 80.2365952 84.5887756
-154.5087585 80.4467773 82.4041901
157.9391479 85.4686127 28.4790287
155.0128632 85.2308273 31.3115025
152.1887207 85.0415649 33.5965958
91.3964462 85.9292755 28.5187054
89.1601105 86.1771545 25.9744263
86.9572525 86.4584045 23.0478859
-76.8998413 83.6905594 66.0589905
-78.9113464 83.3590546 69.8732605
-149.2279358 82.3787003 86.0475616
-151.8783875 82.5690842 84.1574631
158.2261810 87.9836197 26.6390553
155.2729187 87.7212906 29.6962719
152.4044189 87.5078735 32.1729584
91.5220947 88.4342041 27.0809841
89.2959976 88.6988678 24.4155140
-76.9975128 86.0962601 65.1454086
-78.9895401 85.7401886 69.1168594
-149.3372192 84.7210007 85.4862595
-151.9973450 84.9216309 83.5431824
155.5677032 90.2480774 27.7699909
152.6834106 90.0139160 30.4410954
149.8721008 89.8214493 32.6307373
147.1405029 89.6678467 34.4287376
100.7119293 90.1229248 33.4332809
98.4259796 90.2943726 31.8173771
96.1576233 90.4944077 29.9579163
93.9057541 90.7162476 27.8274097
91.6765671 90.9694901 25.3802567
-79.0890808 88.1506042 68.1136246
-81.1232452 87.8322754 71.5554657
-83.1889420 87.5633087 74.5019684
-149.4679565 87.0789795 84.7781143
-152.1430969 87.2952271 82.7534790
152.9906769 92.5541153 28.3821144
150.1572876 92.3440018 30.7626762
147.3944092 92.1696472 32.7174950
100.8661499 92.6228333 31.9125633
98.5802002 92.8135300 30.1929474
96.3152771 93.0281067 28.2239990
94.0742569 93.2702026 25.9688568
91.8542175 93.5517883 23.3280983
-79.2232361 90.5886002 66.8615494
-81.2345810 90.2464447 70.4751587
-83.2957916 89.9571228 73.5416260
-149.6389618 89.4629745 83.8718338
-152.3305817 89.6946793 81.7538147
150.4958191 94.9087067 28.5337124
147.7015991 94.7140121 30.6742439
144.9783783 94.5572052 32.4235229
142.3082733 94.4322205 33.8501282
139.6925201 94.3362808 35.0242920
137.1062927 94.2627029 35.9535065
101.0386963 95.1634445 30.1112938
98.7659073 95.3689575 28.2894669
96.5139313 95.6027908 26.1908092
94.2749481 95.8731689 23.7442856
-81.3711929 92.6950455 69.1286621
-83.4133453 92.3834457 72.3388214
-85.4900284 92.1157227 75.1023026
-87.5849457 91.8883820 77.5071411
-144.6001892 91.4722290 86.2279663
-147.1887054 91.6556854 84.6496582
-149.8337708 91.8697281 82.7748184
150.9169006 97.5386124 25.7644711
148.0724487 97.3127213 28.2125626
145.3150787 97.1307144 30.1700344
142.6105652 96.9865875 31.7671242
139.9712830 96.8729782 33.0473061
137.3622742 96.7868652 34.0650406
101.2548218 97.7440948 28.0136108
98.9889069 97.9689789 26.0541191
96.7478485 98.2324829 23.7597408
-81.5375214 95.1833344 67.4569778
-83.5653076 94.8400803 70.8935013
-85.6239624 94.5529480 73.7911072
-87.7155762 94.3039856 76.3116150
-144.7949219 93.8784027 85.0982056
-147.3995667 94.0764160 83.4334564
-150.0745697 94.3109055 81.4353638
145.7106018 99.7652588 27.4607067
142.9780273 99.5966797 29.2603302
140.3074646 99.4656067 30.6957111
137.6774750 99.3647461 31.8391380
106.0775757 99.9736099 28.8742599
103.7839508 100.1613922 27.3325520
101.5084686 100.3775101 25.5142708
99.2573090 100.6321869 23.3592739
-83.7505341 97.3387299 69.1363525
-85.7929916 97.0203934 72.2393341
-87.8706512 96.7556152 74.8892212
-89.9656372 96.5234756 77.1992950
-92.0843353 96.3212814 79.2334442
-145.0331268 96.3157883 83.7526245
-147.6612701 96.5334549 81.9617615
143.4151154 102.2787704 26.2058449
140.7084808 102.1211014 27.8700581
138.0487061 102.0006638 29.1811829
106.3609695 102.6285248 26.2151718
104.0753937 102.8405151 24.5090981
101.8119659 103.0865936 22.4775162
-85.9855728 99.5406113 70.3457794
-88.0489273 99.2449646 73.1867752
-90.1405182 98.9900055 75.6333771
-92.2529068 98.7736130 77.7715302
-145.3088684 98.7863998 82.1608582
141.2134705 104.8654938 24.3447475
138.5037384 104.7168121 25.9254189
135.8749695 104.6065750 27.1236954
133.2775574 104.5302048 28.0224380
130.7346039 104.4789963 28.6515579
128.2113342 104.4642563 29.0317478
120.8339691 104.5463715 28.9342346
118.4222717 104.6155548 28.5088692
116.0391769 104.7201233 27.8507633
113.6741867 104.8383942 26.9985847
111.3277664 104.9803619 25.9365540
109.0094681 105.1587372 24.5882492
106.7098465 105.3648224 22.9814148
-86.2241898 102.1153564 68.0279922
-88.2701492 101.7777710 71.1596069
-90.3418274 101.5023499 73.7735748
-92.4441071 101.2603607 76.0550003
-94.5671158 101.0592194 78.0224991
-96.7074890 100.8802261 79.7607117
-135.4459839 100.5881195 85.6439667
-137.9281006 100.7251740 84.6572113
-140.4492798 100.8893433 83.4484024
-143.0081635 101.0801849 81.9994278
-145.6357422 101.3047028 80.2476807
136.4100342 107.4033585 23.2767715
133.7676697 107.3080902 24.3830566
131.1958618 107.2409058 25.1704750
128.6501923 107.2072754 25.6612797
121.2339325 107.2842102 25.6487045
118.8248138 107.3639679 25.1852360
116.4287491 107.4670715 24.4872189
114.0676498 107.6081314 23.5202427
111.7338028 107.7700500 22.3126068
-88.5327072 104.3812866 68.6607132
-90.5829163 104.0623398 71.5673141
-92.6693726 103.7995300 74.0119095
-94.7826309 103.5742493 76.1189423
-96.9181671 103.3781281 77.9682236
-135.7277527 103.0778198 83.9034195
-138.2283783 103.2284241 82.8293457
-140.7651672 103.4061584 81.5203552
-143.3622437 103.6240616 79.9040070
129.2146912 110.0852203 21.3048706
126.6829300 110.0659943 21.6935577
124.2029190 110.0882874 21.7461357
121.7467651 110.1447372 21.4955349
119.3354416 110.2326202 20.9774094
-90.8759079 106.7015305 68.8303146
-92.9401398 106.3958893 71.5683136
-95.0419388 106.1425705 73.8658218
-97.1632690 105.9233932 75.8618088
-99.3047028 105.7440033 77.5739975
-101.4729614 105.5880966 79.0611115
-136.0536652 105.6151047 81.8663559
-138.5814514 105.7857819 80.6678772
-93.2711182 109.0768051 68.5427475
-95.3480148 108.7856750 71.1435928
-97.4496613 108.5371780 73.3396301
-99.5866165 108.3321609 75.2059937
-101.7441711 108.1555405 76.8116608
-136.4441833 108.2097778 79.4552002
-138.9962463 108.4058228 78.0866470
-95.7326355 111.5180893 67.7399521
-97.8033295 111.2310181 70.2601166
-99.9192886 110.9945145 72.3477707
-102.0658722 110.7973557 74.1111298
-104.2376480 110.6301880 75.6195602
-106.4222641 110.4985046 76.8759003
-127.0247955 110.3290482 80.0553665
-129.4410400 110.4225693 79.5219269
-131.8848572 110.5423431 78.7873611
-134.3735199 110.6951141 77.7979584
-136.9048767 110.8821487 76.5304718
-100.3381500 113.7613754 68.7760162
-102.4552765 113.5282745 70.8105087
-104.6129150 113.3377457 72.5091629
-106.7973785 113.1798553 73.9052887
-127.4548035 113.0043182 77.1445465
-129.8970947 113.1159210 76.4980164
-107.2553558 115.9873505 70.1771622
-109.4473724 115.8345337 71.5104599
-111.6617126 115.7250061 72.5535431
-113.9111938 115.6451721 73.3656693
-116.1795197 115.5941010 73.9461975
-118.4830933 115.5753937 74.3106689
-120.8098297 115.5832291 74.4585571
-123.1698456 115.6238174 74.3840714
-125.5574646 115.6874237 74.0908661
-127.9880447 115.7902985 73.5319901
-114.4776764 118.5450592 69.0023193
-116.7555389 118.4881516 69.6558380
-119.0665817 118.4672699 70.0314789
-121.4058838 118.4748993 70.1599503
-117.5761490 121.6881714 63.3168564
122.8951416 18.0297127 8.6515961
121.6655121 18.0259972 8.4470282
118.0352020 17.9662285 7.1577253
135.4563293 19.2178326 8.7185249
134.0686646 19.2319088 9.6914415
128.7623596 19.2014484 11.9614458
127.4798737 19.1933765 12.1848688
126.2097855 19.2114506 12.3839312
124.9497223 19.1938133 12.4382839
123.7019730 19.1833630 12.4253349
122.4576111 19.1921825 12.3591881
121.2458420 19.1909275 12.1309414
120.0167694 19.1862850 11.8204184
118.8046417 19.1935844 11.4731655
117.5908203 19.1940079 10.9939814
116.4168243 19.1931152 10.4449949
115.2497559 19.1965256 9.7724934
114.0617905 19.1759472 8.9603729
112.9016190 19.1626873 8.0510015
136.2932587 20.4409237 11.7792187
134.9411774 20.4260406 12.6278324
133.5892487 20.4126987 13.3329573
132.2679291 20.4059353 13.9077196
130.9541626 20.3854408 14.3633804
129.6588440 20.3784981 14.7697010
128.3725586 20.3659458 15.0588570
127.0968628 20.3653889 15.2662773
125.8369751 20.3516483 15.3516445
124.5787888 20.3537178 15.4088383
123.3447647 20.3474274 15.3770456
122.0954056 20.3395691 15.2461338
120.8697205 20.3497353 15.0817327
119.6595383 20.3424397 14.8029976
118.4478836 20.3458805 14.4737530
117.2507095 20.3464222 14.0535574
116.0557327 20.3588104 13.5728464
114.8758850 20.3604889 12.9696751
113.6974487 20.3659725 12.2748337
112.5355072 20.3822594 11.5068359
111.3823547 20.3857136 10.6261120
138.6136932 21.6230679 13.1859636
137.2320099 21.5995312 14.1537991
135.8643036 21.5872364 14.9850464
134.5336456 21.5744553 15.6658955
111.0549850 21.5469151 13.5803270
109.9013748 21.5439758 12.6923628
108.7516632 21.5554619 11.6706324
107.6302490 21.5875320 10.5706825
142.4113159 22.8331871 12.8145323
140.9940186 22.8085938 14.1037464
139.5802612 22.7990131 15.2415600
138.2109375 22.7768326 16.1494770
136.8591614 22.7573185 16.9288292
135.5059967 22.7495689 17.6349621
134.1754456 22.7331429 18.2106438
110.7686844 22.7013588 16.0137882
109.6114044 22.7121506 15.2274370
108.4583817 22.7282906 14.3611364
107.3230209 22.7485676 13.3986692
106.1907349 22.7527733 12.2917252
144.8821564 24.0202847 13.0888634
143.4108276 24.0156269 14.5825481
141.9915161 23.9850521 15.8304367
105.9258118 23.9137821 14.7677584
104.7875137 23.9335117 13.6640234
103.6758728 23.9593849 12.4168091
102.5554504 23.9628315 11.0494213
147.4380951 25.2164078 12.8434811
145.9041443 25.2228069 14.6168785
144.4631195 25.1830425 16.0254974
143.0452881 25.1547966 17.2591362
141.6478577 25.1306915 18.3263664
105.6958847 25.0788498 16.9212666
104.5532074 25.1002293 15.9211845
103.4250946 25.1257534 14.8121681
102.3054047 25.1465416 13.5817204
101.1769485 25.1383972 12.2279873
146.9914246 26.3883991 15.8230448
100.9569397 26.3298988 14.5075655
99.8431702 26.3570366 13.1508274
148.0778198 27.5693665 16.8757877
146.6033783 27.5394039 18.3371353
100.7426453 27.4871559 16.5489311
99.6253433 27.5177975 15.3004971
-114.0168228 26.3723831 56.2792892
-115.1351776 26.3507538 56.8608246
-116.2633972 26.3429184 57.3599243
-117.3956451 26.3296108 57.7360611
-118.5451889 26.3243999 58.0417557
-119.7163391 26.3213577 58.2447128
-120.9012299 26.3160133 58.3387718
-122.0885620 26.3136177 58.3647041
-123.2729874 26.3181095 58.3109779
-124.5116577 26.3155022 58.1230812
150.7015839 28.7765770 16.0225830
149.1940613 28.7484169 17.7146187
147.7605438 28.6989174 19.1233826
146.2974091 28.6804924 20.4380550
100.5683136 28.6525898 18.4230156
99.4360275 28.6738796 17.2395935
98.3217773 28.6994190 15.9429321
97.2115631 28.7309532 14.5165472
96.0973053 28.7450123 12.9411116
-108.1082306 27.5510616 55.7808151
-109.1687851 27.5429153 56.7998352
-110.2463989 27.5396423 57.7693138
-111.3370972 27.4882927 58.5289993
-112.4212952 27.4761524 59.2106781
-113.5560303 27.4651489 59.8223190
-124.0144424 27.4071941 61.6136475
-125.2272568 27.4101677 61.4281197
-126.4691620 27.4247208 61.1237526
-127.7088623 27.4350567 60.7457924
-128.9682770 27.4336071 60.2778358
150.3600159 29.9153690 18.3338051
148.8821411 29.8872337 19.8626938
147.4454498 29.8515892 21.1549225
146.0120087 29.8308544 22.3241119
100.3924026 29.8063145 20.0387402
99.2637787 29.8355961 18.9426670
98.1514282 29.8645344 17.7505016
97.0345840 29.8985882 16.4222202
95.9328995 29.9362679 14.9766064
94.8173981 29.9511509 13.3701982
-106.5918503 28.6535988 58.1901817
-107.6662750 28.6606998 59.1915665
-108.7586136 28.6386948 60.0670128
-109.8456116 28.6194782 60.8502960
-110.9407043 28.6054993 61.5486145
-112.0501938 28.5774479 62.1185265
-113.1755219 28.5681190 62.6604805
-123.6306458 28.5122166 64.3956146
-124.8262100 28.5143509 64.2543182
-126.0453491 28.5271244 64.0574722
-127.2654724 28.5340805 63.7571106
-128.5173492 28.5475769 63.3764305
-132.3509521 28.5433159 61.7045441
153.0246429 31.1389771 17.1119385
151.5160522 31.1016426 18.8679276
150.0216522 31.0661373 20.4388657
148.5811157 31.0339508 21.7821445
95.7525558 31.0880089 16.7430401
94.6368942 31.1200161 15.2337790
93.5196381 31.1297760 13.6105909
-102.0438461 29.8952770 56.3791695
-103.0887451 29.8844852 57.7962799
-104.1234665 29.8513489 59.0117264
-105.1879120 29.8187466 60.1254044
-106.2468643 29.7914028 61.0992355
-128.1369019 29.6496201 65.9688721
-129.3838043 29.6560135 65.5929413
-130.6302338 29.6748600 65.1405182
-131.9077454 29.6877975 64.5700989
-133.1833801 29.7049522 63.9343910
-134.4901733 29.7107525 63.1713829
154.2443848 32.3214035 17.3981438
152.7005463 32.2811317 19.2355042
151.2169495 32.2360458 20.8273830
149.7581024 32.1993408 22.2263527
148.3303223 32.1719208 23.4602203
95.5907822 32.2478256 18.3599777
94.4763336 32.2852020 16.9526176
93.3831635 32.3227921 15.4472523
92.2541656 32.3332291 13.7375288
-99.6406250 31.0700111 56.5462303
-100.6689682 31.0520058 58.0760574
-101.6918106 31.0159950 59.4140091
-102.7470703 30.9801407 60.6284294
-103.7990646 30.9498100 61.6888504
-104.8773804 30.9238319 62.6690979
-105.9472504 30.8980656 63.5336227
-127.8125000 30.7632275 68.2159729
-129.0549316 30.7638283 67.8813477
-130.2873993 30.7797737 67.5026855
-131.5481873 30.7967091 67.0330734
-132.8031158 30.8103161 66.4736938
-134.0945740 30.8265820 65.8215179
-136.7211609 30.8588963 64.2172241
-138.0737915 30.8461761 63.2263794
155.4623413 33.5022240 17.5702496
153.9090118 33.4693489 19.4726276
93.2303085 33.4873924 17.0981636
92.1232681 33.5231094 15.4830589
91.0127869 33.5408478 13.7329330
-97.2902222 32.2557182 56.2368240
-98.3008728 32.2382050 57.9569778
-99.3104248 32.1941719 59.4296799
-132.4781799 31.9137287 68.6845016
-133.7453613 31.9297295 68.1373444
-135.0229340 31.9489632 67.4978256
-136.3320007 31.9735565 66.7323608
-137.6395874 31.9957733 65.9018173
-138.9905853 31.9903774 64.9260788
155.1338043 34.6546745 19.5692635
153.6323395 34.6020699 21.2884922
93.0679169 34.6356964 18.5515461
91.9801254 34.6840477 17.0613670
90.8741531 34.7224197 15.3996239
-95.9737244 33.4267311 57.4251747
-96.9788284 33.3752632 59.0494156
-98.0030289 33.3341942 60.5566406
-99.0341263 33.2933884 61.8806381
-132.1791687 33.0297852 70.6490097
-133.4518890 33.0369492 70.1346054
-134.7076569 33.0555305 69.5763168
-135.9953613 33.0797195 68.9160233
-137.2840729 33.1021271 68.1577759
-138.6121979 33.1292534 67.2881470
154.8363647 35.7935944 21.3614388
153.3778992 35.7362747 22.9074173
90.7424011 35.8909378 16.9247379
89.6259995 35.9154816 15.2108107
-93.6867371 34.6211891 56.4614296
-94.6867447 34.5800743 58.3764648
-95.6910400 34.5279198 60.0169792
-96.7077789 34.4791183 61.4702835
-136.9801178 34.2076492 70.1729126
-138.2674713 34.2378731 69.4242172
-139.6063538 34.2603264 68.5354004
-140.9495850 34.2688751 67.5724792
157.6687469 37.0361404 19.2911873
156.1079102 36.9793549 21.2333717
154.6074524 36.9200172 22.9039917
153.1435852 36.8784370 24.3781815
90.6132584 37.0482674 18.2992859
89.5147552 37.0923347 16.6829491
-92.4314346 35.7874718 57.2463608
-93.4133148 35.7300491 59.1101112
-94.4212494 35.6725769 60.7613945
-95.4451752 35.6230392 62.2304230
-96.4854431 35.5846405 63.5744324
-136.7114105 35.3078995 71.9597931
-137.9851227 35.3376312 71.2838593
-139.2944641 35.3647537 70.4971161
-140.6010132 35.3976288 69.6314926
-141.9669189 35.4129753 68.6277008
157.3795929 38.1747665 20.9996586
155.8748322 38.1090012 22.7545376
90.4935608 38.2085152 19.5646305
89.3974152 38.2612038 18.0118809
88.2826996 38.3028870 16.3097000
-91.1648712 36.9379921 57.7832680
-92.1690674 36.8869896 59.6872749
-141.6499023 36.5299454 70.5387344
-142.9911804 36.5607872 69.5349808
-144.3926849 36.5717087 68.3947601
158.7137756 39.3659363 20.5752449
157.1364288 39.3073044 22.5160160
155.6417542 39.2472458 24.1497574
90.3810883 39.3671379 20.7145901
89.2897797 39.4226303 19.2370186
88.1709976 39.4759293 17.5735035
-89.9484406 38.1045914 58.1849403
-90.9275360 38.0420570 60.0523987
-91.9449387 37.9824638 61.7548218
-141.3800659 37.6322899 72.2689438
-142.6811981 37.6730576 71.3667603
-144.0580750 37.7063370 70.3029785
-145.4296112 37.7341919 69.1602478
160.0283508 40.5740776 20.0373306
158.4532928 40.5075607 22.0915298
88.0686417 40.6344528 18.7606487
86.9786224 40.6982803 17.0679035
85.8805389 40.7570190 15.1749315
-88.7487640 39.2804871 58.3997498
-89.7279358 39.2061005 60.3301010
-143.7962952 38.8083038 72.0085678
-145.1300659 38.8519669 70.9652710
-146.5193176 38.8732643 69.7914276
161.3641510 41.7886162 19.3355732
159.7871552 41.7048798 21.5015278
158.2302399 41.6378174 23.4203434
87.9764938 41.7960396 19.8661919
86.8800735 41.8580704 18.2157459
85.7906036 41.9269791 16.4070587
-87.5535736 40.4514389 58.4566574
-88.5309830 40.3714600 60.4372559
-89.5387955 40.3100433 62.2449684
-143.5365295 39.9123917 73.5791473
-144.8696442 39.9532547 72.6013336
-146.2118530 39.9973297 71.5327682
-147.6229248 40.0148048 70.3145752
161.1317902 42.9143486 20.8131294
85.6912994 43.0857239 17.5259190
-86.3708344 41.6243935 58.3455429
-87.3516388 41.5455933 60.4338455
-145.9660187 41.1031761 73.0818100
-147.3390045 41.1417923 71.9408569
160.9243927 44.0517883 22.1031723
85.6105347 44.2500648 18.5734959
84.5060730 44.3161469 16.7318897
-85.2162857 42.8084145 58.1763039
-86.1857224 42.7204590 60.2939987
-87.1756592 42.6449471 62.1882286
-145.7425385 42.2019653 74.4989853
-147.0867920 42.2499771 73.4432983
-148.4862061 42.2850647 72.2570343
160.7300262 45.1837807 23.2667732
85.5225296 45.4110031 19.5114098
84.4329987 45.4852219 17.7315006
-84.0504684 43.9881516 57.7872543
-85.0274811 43.9029808 60.0363579
-148.2471771 43.4010239 73.6822968
162.1272125 46.4033203 22.3526077
160.5414581 46.3227005 24.3519840
85.4419556 46.5731659 20.3692493
84.3450699 46.6489182 18.6230755
-83.8877029 45.0977097 59.6606903
-84.8598251 45.0046806 61.6869087
-148.0253906 44.5100403 74.9837036
-149.4062347 44.5610428 73.8151398
161.9321594 47.5445328 23.4226246
160.3739166 47.4611244 25.3312836
85.3646545 47.7375221 21.1463604
84.2704086 47.8128471 19.4574966
83.1662598 47.8885040 17.6309357
-82.7418213 46.2853546 59.0553703
-83.7296066 46.1881027 61.2491341
-84.7183151 46.1003075 63.1503029
-147.8332825 45.6128311 76.1908264
-149.1927185 45.6687088 75.0876465
-150.5582123 45.7164841 73.9007111
163.3862610 48.7699242 22.2567558
161.7815399 48.6800804 24.3611279
160.2379303 48.5975456 26.1917267
85.2920456 48.8995743 21.8542557
84.2174759 48.9809761 20.2575359
83.1175308 49.0606003 18.4731979
-82.5957489 47.3864784 60.6445694
-83.5919800 47.2945366 62.6949539
-84.5985184 47.2122726 64.5197449
-147.6411438 46.7232780 77.3302002
-149.0041351 46.7734985 76.2592010
-150.3475037 46.8309174 75.1230392
-151.7467651 46.8854828 73.8397293
163.2157440 49.9101563 23.1932850
83.0446396 50.2275963 19.1726303
-81.4885788 48.5872612 59.9321251
-82.4668579 48.4841995 62.0769348
-150.1462402 47.9354897 76.2711487
-151.5404053 47.9956131 75.0392761
-152.9738312 48.0458755 73.6991882
164.6876984 51.1555481 21.8095913
163.0762634 51.0511284 24.0391636
82.9860916 51.3983955 19.8367081
81.8837814 51.4830208 17.9931736
-80.3807983 49.7950821 59.0527191
-81.3616867 49.6916313 61.3506470
-82.3374329 49.5914917 63.3606834
-149.9729462 49.0434837 77.3272781
-151.3549805 49.1028748 76.1503296
-152.7627411 49.1638412 74.8570862
164.5230560 52.2983513 22.6923370
162.9321899 52.1917305 24.8351593
82.9379349 52.5670624 20.4603004
81.8523178 52.6599388 18.6472263
80.7269135 52.7476921 16.6591244
-79.2839813 51.0108528 57.9722099
-80.2460403 50.8990555 60.3928375
-152.5612793 50.2824097 75.9229813
166.0686493 53.5497284 21.0419159
164.4013672 53.4381409 23.4504299
162.8275757 53.3352013 25.5178394
82.8843536 53.7369576 21.0059719
81.7871933 53.8311310 19.1931229
-79.1809845 52.1267242 59.3765793
-80.1381454 52.0046883 61.6727753
-152.3988495 51.3896255 76.9025040
165.9087830 54.6990395 21.8230019
82.8536835 54.9092979 21.5222054
81.7503967 55.0048103 19.7476540
-78.0913849 53.3511276 58.0845337
-79.0576324 53.2279053 60.5940552
-80.0311432 53.1133957 62.8084717
-152.2533569 52.4981613 77.8148346
-153.6790619 52.5663147 76.5186615
165.7908936 55.8451157 22.5014839
82.7958679 56.0822678 21.9375591
81.6973190 56.1754684 20.2224159
-77.9968262 54.4667740 59.3586388
-78.9609680 54.3369675 61.7505798
-79.9405136 54.2227974 63.8422241
-152.1282654 53.6039429 78.6432190
-153.5392151 53.6765289 77.3952942
165.6983032 56.9945564 23.0825882
82.7757263 57.2575645 22.3577042
-76.9283295 55.7049217 57.8806610
-77.9009705 55.5714111 60.4921989
-151.9666443 54.7192802 79.4510803
-153.3905334 54.7904129 78.2169189
-154.7876282 54.8621864 76.9261246
165.6047974 58.1471443 23.5811863
82.7256927 58.4343872 22.6603642
-76.8374863 56.8202209 58.9847984
-77.8092499 56.6821175 61.5007057
-151.8677979 55.8306541 80.1475372
-153.2724304 55.9018250 78.9564514
-154.6423492 55.9802971 77.7081223
-156.0737915 56.0533905 76.3303375
165.5216675 59.3011665 24.0303154
82.7168808 59.6135178 22.9721298
-76.7609940 57.9338264 60.0141563
-77.7324066 57.7946014 62.4308853
-154.5175018 57.0946884 78.4304810
-155.9313354 57.1734734 77.0885773
165.4399109 60.4566116 24.4359474
82.6753311 60.7934837 23.2023201
-75.7056808 59.1957130 58.2663956
-76.6910248 59.0488396 60.9500198
-77.6592255 58.9110870 63.2575989
-154.4029694 58.2100143 79.0953979
-155.8040619 58.2913551 77.7874298
165.3809814 61.6159134 24.7407532
129.2285004 60.4797974 45.2217560
128.0014038 60.4805984 45.3235092
126.7823486 60.4797211 45.3869324
125.5647583 60.4817047 45.4307709
124.3425446 60.4835243 45.4504738
123.1396713 60.4902496 45.4360847
82.6486511 61.9753952 23.4061012
-75.6495590 60.3179970 59.1864586
-154.2981873 59.3287468 79.7070084
-155.6897888 59.4104996 78.4281769
167.0334015 62.9220314 22.5786667
165.3569641 62.7801857 24.9470196
129.1789398 61.6297455 45.3637924
127.9798660 61.6270523 45.4412918
125.5276642 61.6273155 45.5726776
124.3164291 61.6316338 45.5895653
123.1154633 61.6371536 45.5680885
82.6408844 63.1596909 23.5828285
-75.5752029 61.4374008 59.9765244
-154.2201233 60.4474106 80.2481232
-155.5979919 60.5320625 78.9991302
129.1709137 62.7763214 45.4637413
124.2996826 62.7792206 45.7003860
123.0985413 62.7850761 45.6741600
82.6260529 64.3467407 23.6934795
-75.5228653 62.5568428 60.7525024
-154.1264191 61.5680847 80.7637329
-155.5114899 61.6526299 79.5249939
-156.9162445 61.7453613 78.1680908
129.1561432 63.9252472 45.5449257
124.2809067 63.9276505 45.7998199
123.0809555 63.9346466 45.7664948
82.6160431 65.5366058 23.7604351
-75.4666367 63.6847038 61.3986320
-154.0567322 62.6907272 81.2150726
-155.4231415 62.7761726 80.0102921
-156.8402100 62.8701210 78.6565933
129.1468811 65.0750046 45.5990677
125.4805603 65.0896988 45.8639297
124.2763214 65.0779953 45.8593712
123.0864487 65.0853882 45.8212090
82.6229782 66.7279434 23.7978802
-75.4310760 64.8131561 61.9911575
-156.7602539 63.9950676 79.1127243
129.1469421 66.2282410 45.6269836
127.9292374 66.2264023 45.7365952
126.7024918 66.2251587 45.8277359
125.4860153 66.2267303 45.8724632
124.2767639 66.2319946 45.8707237
123.0785828 66.2394257 45.8341408
82.6099854 67.9248505 23.7617664
-75.3885193 65.9441376 62.4867592
-156.6964874 65.1232605 79.5075455
-158.1417999 65.2286224 78.0529327
166.9573975 68.8048859 22.9123516
165.2801361 68.6444244 25.2794495
-74.3645325 67.2498550 60.3899460
-75.3456039 67.0791931 62.9088211
-156.6493073 66.2545776 79.8491058
166.9770660 69.9945450 22.7895546
165.3027954 69.8298187 25.1593266
-74.3411407 68.3894882 60.7970581
-75.3249664 68.2160034 63.3032837
-156.5975189 67.3861694 80.1593018
165.3322144 71.0185623 25.0018349
84.8448029 71.2985764 26.4557400
83.7312927 71.4107361 25.0004826
-74.3142014 69.5328369 61.1310349
-75.2945557 69.3589020 63.5888863
-156.5545654 68.5217514 80.4177551
165.3694000 72.2126617 24.7617111
84.8557053 72.5004044 26.2828922
83.7473297 72.6155396 24.8170528
-74.2975311 70.6794586 61.4112129
-75.2767410 70.5044937 63.8351822
-156.5265350 69.6596603 80.6252975
-157.9548035 69.7707443 79.2265930
165.4137878 73.4134216 24.4633389
163.8446655 73.2618561 26.5601063
162.2943726 73.1285706 28.4433098
84.8805237 73.7036438 26.0785751
83.7744751 73.8231125 24.5844173
-74.2836914 71.8303909 61.6260071
-75.2618790 71.6532440 64.0285416
-156.4981995 70.8001328 80.8015213
-157.9137878 70.9115524 79.4273453
163.8793640 74.4585953 26.2582016
162.3292236 74.3218994 28.1610909
84.8915558 74.9170990 25.7961311
83.7839813 75.0412750 24.2717400
-74.2747650 72.9869537 61.7515793
-75.2588196 72.8047104 64.1810989
-156.4759674 71.9428253 80.9358597
-157.9128113 72.0584412 79.5360565
165.5849457 75.8407822 23.6334896
163.9364166 75.6639557 25.8583870
162.3889771 75.5246582 27.7883339
84.9120026 76.1329651 25.4729061
83.8188934 76.2566528 23.9469185
-74.2856522 74.1450958 61.8527756
-75.2619934 73.9602509 64.2716446
-156.4647522 73.0887756 81.0234528
-157.8877563 73.2062683 79.6288605
-159.3486023 73.3364258 78.0778809
165.6775513 77.0638885 23.1037579
164.0343933 76.8829117 25.3507042
162.4494476 76.7319641 27.3706551
84.9457092 77.3508377 25.1212234
83.8425827 77.4830551 23.5515461
82.7396545 77.6265259 21.8698654
-74.2900620 75.3078918 61.8904419
-75.2603302 75.1217194 64.2882080
-156.4597778 74.2377777 81.0684280
-157.8788910 74.3574753 79.6726837
-159.3558960 74.4914703 78.1141586
164.1022949 78.0963516 24.8442268
162.5425568 77.9454880 26.8713264
82.7842636 78.8585434 21.4002075
-74.2917023 76.4774017 61.8462105
-75.2676620 76.2847595 64.2790298
-156.4607239 75.3902130 81.0718765
-157.8829651 75.5124893 79.6717224
-159.3597717 75.6493683 78.1146774
164.2154846 79.3270798 24.2138615
162.6127625 79.1601334 26.3326321
82.8256760 80.1010818 20.8537483
-74.3045654 77.6516342 61.7463341
-75.2809830 77.4521484 64.2219162
-156.4798889 76.5470734 81.0206604
-157.8935852 76.6707230 79.6228943
-159.3702240 76.8114929 78.0502243
164.3554688 80.5785217 23.4887524
162.7295532 80.3943329 25.6553555
85.0624924 81.0391693 23.7419453
83.9676514 81.1851501 22.0761757
82.8737106 81.3462601 20.2585335
-74.3292160 78.8310318 61.5804634
-75.2967758 78.6252975 64.0920868
-156.5047455 77.7088318 80.9213409
-157.9250336 77.8362579 79.5120392
162.8370361 81.6282501 24.9460716
85.1031799 82.2836075 23.1356926
84.0075531 82.4407272 21.4159012
82.9168854 82.6102448 19.5716076
-73.3902969 80.2662964 58.4320984
-74.3542786 80.0188522 61.3298340
