-78.6702499 58.6127930 58.4945221
-80.7099457 58.4020157 62.1660080
-122.4107285 57.1092606 86.2458344
-124.7146759 57.1139030 86.2775726
-157.0936279 57.9481125 73.8639450
158.1463623 62.5415421 19.7010460
155.1617126 62.3635063 22.7487869
152.3065796 62.2206764 25.2023411
86.1306839 62.8409576 18.8883038
83.8723755 63.0270958 16.0347023
-76.7224503 61.2537689 53.6072731
-78.7024307 60.9761505 58.1869926
-80.7383118 60.7533340 61.9003258
-151.7101593 60.0130959 77.7990799
-154.3958282 60.1408234 75.8822708
-157.1477203 60.2908173 73.6222839
155.3615570 64.8103333 21.4779873
152.4797821 64.6538544 24.0663109
86.2195587 65.3170013 17.7218723
-78.7634430 63.3561401 57.6461525
-80.7900772 63.1175117 61.4490662
-151.7742004 62.3487816 77.4694672
-154.4738464 62.4858322 75.5146713
-157.2317657 62.6459770 73.2084579
155.5964050 67.2828369 19.9179058
152.6843872 67.1073685 22.6945000
149.8460999 66.9630203 24.9816875
147.0870361 66.8472977 26.8660278
90.8594513 67.4572830 21.3138847
88.5821915 67.6272507 18.9751968
86.3313980 67.8162689 16.3152161
-78.8434448 65.7547302 56.8702469
-80.8565140 65.4971466 60.8077049
-151.8695221 64.6965027 76.9878540
-154.5762634 64.8440247 74.9889755
152.9338074 69.5902481 21.0248013
150.0745544 69.4313965 23.4772472
147.2907104 69.3014984 25.4881516
90.9800110 69.9505615 19.8923378
88.7108307 70.1352768 17.4366150
-80.9486237 67.8989334 59.9319534
-151.9868011 67.0591125 76.3431549
-154.7009735 67.2161713 74.2860489
153.2475586 72.1073761 19.0057869
150.3360443 71.9255447 21.6995754
147.5290070 71.7790756 23.8510780
144.7815857 71.6620636 25.6293926
142.0918579 71.5669479 27.1112099
95.6879272 72.1388245 22.3982601
93.3928223 72.2938309 20.4549217
91.1200867 72.4696503 18.2097664
88.8658905 72.6712570 15.6118240
-81.0636292 70.3204956 58.8106995
-83.1013031 70.0701141 62.3574791
-85.1762543 69.8580246 65.3781662
-152.1476593 69.4384918 75.5021210
-154.8775787 69.6100311 73.3636475
150.6574097 74.4550781 19.5448151
147.8181915 74.2919006 21.9063911
145.0405426 74.1570129 23.8522053
142.3288879 74.0499344 25.4362831
95.8416748 74.6574707 20.6772327
93.5570068 74.8265686 18.6121025
91.2924500 75.0224457 16.2130337
-81.2061234 72.7711792 57.3882904
-83.2247925 72.4972229 61.1409874
-85.2916489 72.2675171 64.2947311
-152.3250580 71.8377075 74.4895935
148.1675720 76.8460693 19.5637074
145.3485107 76.6881790 21.7292614
142.6098480 76.5649414 23.4647827
139.9230042 76.4668198 24.8885841
137.2899017 76.3913879 26.0391598
96.0328217 77.2065506 18.6568203
93.7583466 77.3975906 16.4361534
91.5036926 77.6146240 13.8421230
-83.3761673 74.9556122 59.6361847
-85.4275818 74.7033691 62.9711990
-87.5147247 74.4869919 65.8193512
-89.6201859 74.3029175 68.2835922
-147.2360229 73.9428864 76.8882523
-149.8661041 74.0896988 75.2183914
-152.5535126 74.2610245 73.2421036
148.5881805 79.4489594 16.6890488
145.7187042 79.2698746 19.1658707
142.9426727 79.1233215 21.1223831
140.2310791 79.0104218 22.6923847
137.5739136 78.9233551 23.9509182
96.2550583 79.7979660 16.2725945
93.9971542 80.0133362 13.8424940
-83.5647278 77.4471893 57.7854309
-85.5964966 77.1677399 61.3727570
-87.6649780 76.9324265 64.3760300
-89.7653275 76.7316284 66.9671707
-147.4467163 76.3599548 75.6319122
-150.1036224 76.5223694 73.8582687
146.1767883 81.9016113 16.0085754
143.3610992 81.7409668 18.2653160
140.5967712 81.5989761 20.0873089
137.9107361 81.4978561 21.5044060
135.2731781 81.4161072 22.6370049
132.6670532 81.3573914 23.5159950
105.7439880 81.7718506 20.6357613
103.4162292 81.9015808 19.2560730
101.0984650 82.0582581 17.6111870
98.8007736 82.2404327 15.6683016
96.5351715 82.4465027 13.3900414
-85.7956543 79.6704712 59.4273720
-87.8431778 79.4098511 62.6530457
-89.9319458 79.1903687 65.3985748
-92.0531006 78.9984970 67.7876434
-94.1839905 78.8374786 69.8541946
-142.5321960 78.5271683 77.0437622
-145.1020203 78.6574936 75.7089462
-147.7148132 78.8099136 74.1240616
-150.3927612 78.9883194 72.2254181
141.0462646 84.2512131 16.9043446
138.3216553 84.1286011 18.5603294
135.6471710 84.0265045 19.8759670
133.0206299 83.9610748 20.8591499
106.0303345 84.3944550 17.9520035
103.6987915 84.5466843 16.4182930
101.3940201 84.7197342 14.6025410
-86.0422592 82.2226791 57.0145264
-88.0624084 81.9283142 60.5751228
-90.1332397 81.6846619 63.5249329
-92.2406845 81.4717712 66.0711670
-94.3687363 81.2927322 68.2687988
-142.7967224 80.9769440 75.5021744
-145.3777466 81.1176758 74.0791473
-148.0177155 81.2878342 72.3615265
138.8273926 86.8327026 14.8944178
136.1119995 86.7125320 16.4765835
133.4490356 86.6260452 17.6519470
130.8456421 86.5607529 18.5525227
128.2730865 86.5233612 19.1656933
125.7411346 86.5095367 19.5289268
123.2354736 86.5125122 19.6791954
120.7551193 86.5319901 19.6235924
118.3027191 86.5773010 19.3444080
115.8744659 86.6408997 18.8598557
113.4636230 86.7159119 18.1873455
111.0738068 86.8131104 17.2765484
108.7120361 86.9391174 16.1133976
106.3701324 87.0834198 14.6989412
104.0566406 87.2583160 12.9553127
101.7756042 87.4624863 10.8455973
-90.3777161 84.2199402 61.2929916
-92.4617691 83.9869385 64.0317383
-94.5784912 83.7860565 66.3797302
-96.7131653 83.6153412 68.4244766
-98.8660126 83.4693756 70.2128830
-138.0246887 83.2120819 76.0219421
-140.5449219 83.3261261 74.9682465
-143.0993958 83.4604111 73.6905136
-145.7098541 83.6214828 72.1276932
133.9944611 89.3841248 13.6003981
131.3469849 89.2982407 14.7402077
128.7350311 89.2466431 15.5094891
126.1885376 89.2211533 15.9914446
123.6605377 89.2195282 16.1985893
121.1699142 89.2440643 16.1576004
118.7110825 89.2835388 15.9005661
116.2758789 89.3529434 15.3634872
113.8704376 89.4415054 14.6032534
111.4826050 89.5559692 13.5741215
109.1324615 89.6962585 12.2553272
-92.7253265 86.5457458 61.6031570
-94.8257751 86.3234329 64.1560059
-96.9512939 86.1338806 66.3485565
-99.1007233 85.9663696 68.2558517
-138.3316040 85.7053146 74.1181335
-140.8752441 85.8357086 72.9574661
-143.4555664 85.9851151 71.5438843
121.7109146 92.0597992 11.7492876
119.2358398 92.1101990 11.4547319
-95.1239243 88.9169006 61.4678421
-97.2319336 88.6993942 63.8805161
-99.3706360 88.5153656 65.9516449
-101.5245972 88.3607788 67.7261505
-103.7044373 88.2325974 69.2499695
-133.7058105 88.0299530 73.7160950
-136.1794739 88.1235428 72.9144440
-138.6960449 88.2481384 71.8705750
-141.2612610 88.3907928 70.5730133
-95.4947433 91.5893555 58.1013870
-97.5720749 91.3355942 60.8774757
-99.6893005 91.1245041 63.1761932
-101.8339844 90.9459686 65.1315613
-104.0077057 90.7986298 66.7923508
-134.0804443 90.5871429 71.3184967
-136.5819550 90.7024078 70.3825073
-139.1257935 90.8397827 69.1963806
-100.0806427 93.8145599 59.7536469
-102.2073517 93.6005936 61.9937668
-104.3664017 93.4297562 63.8458366
-106.5501785 93.2920227 65.4035187
-108.7516632 93.1722336 66.7209778
-110.9826508 93.0802460 67.8087463
-113.2287827 93.0056763 68.6947784
-124.7912903 92.9243469 70.4330139
-127.1742401 92.9670563 70.2344589
-129.5910034 93.0273132 69.8473053
-132.0370789 93.1069946 69.2584381
-134.5331116 93.2154388 68.4238129
-137.0585938 93.3467712 67.3322678
-104.8078308 96.1590271 60.1528664
-106.9731827 95.9890137 61.9555779
-109.1628265 95.8510513 63.4361267
-111.3899612 95.7447357 64.6437912
-113.6333466 95.6585693 65.6125793
-125.2292938 95.5761642 67.3734436
-127.6304092 95.6256256 67.1112823
-130.0684967 95.6962357 66.6274948
-132.5503082 95.7955017 65.8980408
-111.8952789 98.5145950 60.6623154
-114.1337128 98.4169769 61.7668190
-116.4041748 98.3494720 62.5993195
-118.6970673 98.3027039 63.2011070
-121.0262680 98.2824326 63.5673065
-123.3764648 98.2926331 63.6874695
-125.7714996 98.3282776 63.5683746
127.5849457 -0.2333783 1.9528894
126.2592468 -0.1994374 2.3694866
124.9716644 -0.1995696 2.6224160
123.6965714 -0.2217303 2.7102263
122.4364014 -0.2251059 2.7524140
121.1682281 -0.2307655 2.6933792
119.9249191 -0.2346227 2.5325546
118.6915283 -0.2455607 2.2282498
116.2703094 -0.2695824 1.3521395
115.0608444 -0.3201450 0.7875314
113.8812943 -0.3485216 0.0419470
133.8495483 1.0211555 2.4291401
128.4389343 1.0584037 5.2526112
127.1397095 1.0483720 5.6032476
125.8343048 1.0414139 5.8838878
124.5612640 1.0383371 6.0636816
123.2939987 1.0211008 6.1083789
122.0334930 1.0244085 6.1366882
120.7798157 1.0085511 6.0314074
119.5452728 0.9980921 5.8619289
118.3106766 0.9950907 5.6333718
117.0789795 0.9829788 5.2968254
115.8804474 0.9804599 4.8890023
114.6710739 0.9699917 4.3597679
113.4794922 0.9671330 3.7529342
112.2890472 0.9353590 3.0431147
111.1196518 0.8856613 2.2035460
109.9505920 0.8525718 1.2299792
137.5744171 2.2584341 2.9247279
136.1417236 2.2908628 4.1960158
134.7359161 2.3075020 5.2130313
133.3670654 2.3172765 6.0813174
132.0112000 2.3214059 6.8054996
130.6889801 2.3060985 7.3615928
129.3639069 2.2963266 7.8553762
128.0629272 2.2869070 8.2370815
126.7683563 2.2778525 8.5200596
110.7734375 2.1800792 5.3713307
109.6021271 2.1629291 4.5371876
108.4412079 2.1280539 3.6297436
107.2807617 2.0784619 2.5378866
138.5158081 3.5406141 5.3143864
137.1026001 3.5369873 6.4534655
135.7235718 3.5333188 7.4146972
134.3389435 3.5244613 8.2442312
132.9904175 3.5332303 8.9758406
131.6568298 3.5285203 9.5538225
130.3500671 3.5223601 10.0196905
129.0251007 3.5245574 10.4388885
127.7413788 3.5202119 10.7555656
126.4561691 3.5171566 11.0093117
110.4900589 3.4078860 8.0175953
109.3061142 3.3918247 7.2538610
108.1380539 3.3915448 6.4498038
106.9728546 3.3781064 5.5081897
105.8258209 3.3625524 4.4726219
103.5433426 3.3046241 1.9146132
139.5065155 4.7656460 7.2508669
138.1095428 4.7611361 8.3451557
136.7239990 4.7620630 9.2849569
105.5415039 4.5853939 7.0816011
104.3954773 4.5798287 6.0552454
103.2577820 4.5761132 4.8766875
139.1210327 5.9891233 9.9708319
137.7577972 5.9842491 10.8738689
136.3946075 5.9796972 11.6731625
105.3029175 5.8114223 9.3487930
104.1515427 5.8006196 8.4058332
103.0043640 5.7899904 7.3447495
101.8668213 5.7876959 6.1841674
100.7298737 5.7564440 4.8848763
144.5095825 7.2123961 7.4457426
143.0387878 7.2295632 8.9513254
141.6022491 7.2171974 10.2060699
140.2067566 7.1962128 11.2633886
138.8285828 7.1940546 12.2043447
100.4994431 7.0018826 7.2341399
99.3587952 6.9766440 5.9115019
98.2257004 6.9406757 4.4930859
144.1466522 8.4233456 10.0400496
142.7083740 8.4226580 11.3188782
141.2856750 8.4246054 12.4444141
139.9079742 8.4130774 13.3808022
138.5374756 8.4107695 14.2287483
100.2907028 8.2249842 9.3375425
99.1530304 8.2170897 8.1287794
98.0282822 8.2029400 6.8088360
96.8982620 8.1756010 5.3553591
-114.0014267 7.3504920 46.1635818
-115.1650543 7.3659525 46.9544868
-119.6750793 7.3929682 49.2849922
-123.2064438 7.3885651 49.8994904
-124.4007111 7.3788328 49.8924980
143.8359528 9.6189632 12.2343903
97.8314209 9.4294777 8.8797455
96.7008057 9.4224911 7.5190344
95.5639954 9.3935308 6.0138550
-110.2789459 8.5994806 47.3549690
-112.4125824 8.5531816 49.4487877
-113.5126343 8.5946999 50.2768745
-114.6182251 8.6127014 51.0113564
-115.7450104 8.6011286 51.5852432
-116.8917313 8.5960064 52.0994949
-118.0312500 8.5873890 52.5413132
-119.1724472 8.5780439 52.9043388
-120.3443756 8.5627317 53.1537361
-121.5159836 8.5720282 53.3715210
-122.7114105 8.5639343 53.4652176
-123.8988953 8.5511580 53.4880219
-125.1119232 8.5418892 53.4392509
-126.3315277 8.5395508 53.2995338
-127.5736465 8.5394707 53.0661697
-128.8089294 8.5553684 52.7578697
149.3805237 10.8537664 8.5231581
147.8627930 10.8573866 10.2614574
146.3972015 10.8467789 11.7618074
144.9588623 10.8384724 13.0619135
143.5485992 10.8268118 14.1910896
97.6393356 10.6262426 10.6557579
96.5132675 10.6327448 9.4290438
95.3773956 10.6302338 8.0328417
94.2678680 10.6237373 6.5203705
93.1440430 10.5863457 4.8507781
-107.7002335 9.8104000 48.7798271
-108.7501373 9.8194437 49.9720383
-109.8178329 9.8210640 51.0336685
-110.9071655 9.8038769 51.9240646
-112.0082245 9.8029718 52.7707901
-113.1081161 9.7868700 53.4438095
-114.2285080 9.7869129 54.0692368
-115.3583527 9.7799606 54.5967293
-116.4969177 9.7765541 55.0651703
-117.6392212 9.7646694 55.4488335
-118.7927399 9.7618103 55.7774582
-119.9597092 9.7583160 56.0265579
-121.1371460 9.7510529 56.2033195
-122.3192902 9.7453823 56.3179855
-123.4884033 9.7442713 56.3713799
-124.7045898 9.7378664 56.3451233
-125.9106064 9.7362719 56.2677689
-127.1299744 9.7330894 56.1077271
-128.3660736 9.7274551 55.8493958
-129.6154022 9.7262821 55.5215645
-132.1403503 9.7486076 54.5962257
-133.4494476 9.7061396 53.9667816
150.5756989 12.0498610 9.0348129
149.0358582 12.0567207 10.8350115
92.9756775 11.8280220 6.9012074
-104.1582794 11.0002356 48.1220436
-105.1832733 11.0197315 49.5839882
-106.2385101 11.0132046 50.8818474
-107.2897034 11.0001106 52.0014763
-108.3663940 10.9944420 53.0316238
-127.9938049 10.9174891 58.4472961
-129.2213440 10.9053793 58.1671143
-130.4720154 10.9071693 57.8352280
-131.7185974 10.9114151 57.4111366
-133.0132446 10.9041624 56.8723793
-134.2897186 10.9068661 56.3028412
-135.6008148 10.8749447 55.6029320
151.7695160 13.2611256 9.4413414
150.2237701 13.2652454 11.2718477
148.7476654 13.2504044 12.8430910
92.8199844 13.0535393 8.7270346
91.6769867 13.0331516 7.1020007
-102.7425461 12.2089291 49.8834229
-103.7805634 12.2089157 51.3069496
-104.8281555 12.2013779 52.5764008
-105.8930817 12.1927767 53.6912651
-106.9698563 12.1798334 54.6735306
-108.0553741 12.1801834 55.5853500
-127.6738510 12.0892754 60.6589813
-128.9035645 12.0856600 60.4412460
-130.1313477 12.0820570 60.1613922
-131.3651733 12.0800657 59.8091774
-132.6443481 12.0776930 59.3664360
-133.9020081 12.0861502 58.8750076
-135.1874237 12.0818214 58.2660751
-136.4826660 12.0803013 57.5758934
-137.8166656 12.0670509 56.7524376
-139.1785736 12.0219917 55.8118744
151.4314575 14.4613791 11.5356445
92.6568604 14.2573090 10.3387642
91.5254211 14.2598572 8.8282166
90.4183350 14.2505875 7.2083950
-99.3563690 13.4133854 47.9943123
-100.3567047 13.4157429 49.7959518
-101.3766327 13.4073782 51.3493614
-102.4160767 13.3964119 52.7242737
-103.4643555 13.3795843 53.9365234
-137.4241638 13.2553320 59.2610626
-138.7446899 13.2519054 58.4490623
-140.1070404 13.2267313 57.5109634
154.2433167 15.6750641 9.6327868
152.6648407 15.6777773 11.6682196
151.1700134 15.6501236 13.3624210
92.5185699 15.4566832 11.8112097
91.3883286 15.4610281 10.3918829
90.2790985 15.4679508 8.8586931
-98.0136642 14.6170187 49.2824402
-99.0203934 14.6061230 50.9989052
-100.0464020 14.5893917 52.5212021
-101.0809784 14.5780859 53.8728294
-102.1306458 14.5631886 55.0841599
-103.2069626 14.5562935 56.2068558
-137.0847321 14.4194098 61.4408951
-138.3858337 14.4242477 60.7302475
-139.7149200 14.4258633 59.9096184
-141.0649872 14.4048138 59.0012093
153.9386597 16.8699474 11.5783930
90.1407013 16.6712723 10.3692293
-95.7010193 15.8051090 48.2715149
-96.6984558 15.7998848 50.2377052
-97.7165604 15.7863150 51.9562683
-98.7372437 15.7687149 53.4565430
-139.3934479 15.5889091 61.9999008
-140.7149963 15.5935192 61.1740112
-142.0546265 15.5843325 60.2528191
-143.4373169 15.5532646 59.2286568
155.2064209 18.0796928 11.4299488
153.6510468 18.0606918 13.3534145
90.0199890 17.8726158 11.7205009
88.9017258 17.8827744 10.1834469
87.7929382 17.8933105 8.5151529
-94.4343872 17.0023937 49.0341835
-95.4273911 16.9907494 51.0051651
-96.4323349 16.9653893 52.6960983
-97.4646378 16.9521503 54.2328415
-98.5046997 16.9382515 55.5989723
-139.0972290 16.7502365 63.8704376
-140.4152222 16.7523441 63.1087837
-141.7314453 16.7624645 62.2748871
-143.0890350 16.7575417 61.3321075
-144.4544983 16.7310143 60.3072472
156.5153503 19.2818298 11.1052952
154.9334412 19.2668228 13.1499672
153.4244843 19.2385330 14.8866558
87.6802368 19.0984840 9.9044113
86.5637360 19.1044788 8.1815567
-93.1748276 18.1914196 49.6283684
-94.1629486 18.1770802 51.5842133
-144.1143646 17.9307671 62.2905426
156.2417908 20.4692707 12.7888184
154.6857147 20.4489174 14.6865664
153.2032776 20.4202080 16.2769985
87.5540771 20.2948112 11.1492043
86.4418640 20.3100700 9.4916553
85.3117523 20.3087769 7.6773243
-91.9328079 19.3757324 49.9936066
-92.9290924 19.3590012 51.9947815
-93.9312592 19.3310127 53.7226486
-143.8253937 19.0933819 64.0702591
157.5864868 21.6675797 12.2722263
156.0000000 21.6486607 14.2914906
85.2299881 21.5327930 8.9864721
-90.7161560 20.5701714 50.2254791
-91.6980209 20.5476875 52.2359085
-143.5591278 20.2472076 65.6963730
-144.9385986 20.2476044 64.7460480
-146.2591553 20.2698479 63.7608147
-147.6469421 20.2746620 62.6029282
-149.0705566 20.2560425 61.3339920
157.3404236 22.8569946 13.7423220
155.7844543 22.8268127 15.6234112
85.1254730 22.7280197 10.1738310
-89.5173111 21.7619705 50.2868500
-90.4946518 21.7279720 52.3414001
-91.4946442 21.6922112 54.1437454
-143.3319092 21.4009476 67.1589966
-144.6815186 21.4046993 66.2833176
-146.0171661 21.4160919 65.3419800
-147.3574829 21.4360657 64.3127213
-148.7409515 21.4459782 63.1500549
158.7095795 24.0650272 13.0066061
157.1339111 24.0303555 15.0400772
155.6022949 23.9993916 16.8013897
85.0201569 23.9231415 11.2523117
-88.3282700 22.9530716 50.1917496
-89.3066254 22.9142399 52.3268814
-148.4705963 22.6018372 64.7731323
160.1175537 25.2742405 12.0713778
158.4778900 25.2463741 14.3344202
156.9509888 25.2029476 16.2097931
155.4348602 25.1722450 17.8801708
84.9376602 25.1208649 12.2447596
83.8255081 25.1438999 10.5319433
-87.1563187 24.1452656 49.9459686
-88.1281204 24.1043224 52.1609497
-89.1178741 24.0667038 54.0975685
-148.2388916 23.7513695 66.2217636
-149.6253967 23.7695694 65.0823059
159.8945618 26.4540825 13.3832960
158.3186035 26.4121132 15.4623928
84.8618011 26.3127098 13.1374321
83.7465591 26.3419209 11.4870720
-86.9653931 25.2958336 51.8521423
-148.0048828 24.9036140 67.5692062
-149.3878479 24.9218483 66.4907150
-152.1853333 24.9472866 64.0280380
159.6900787 27.6289825 14.5796852
158.1180573 27.5870285 16.5571957
84.7833252 27.5076981 13.9697704
83.6716995 27.5361385 12.3869600
82.5751572 27.5704765 10.6647263
81.4552841 27.5951557 8.7518005
-85.8134689 26.4944038 51.4178238
-86.8007965 26.4500809 53.5541992
-147.8235168 26.0450325 68.7747269
-149.2002869 26.0647430 67.7522736
-150.5744934 26.0873108 66.6355896
-151.9369049 26.1109009 65.4370499
161.1214905 28.8434258 13.5010166
159.5207977 28.8007660 15.6233072
157.9838867 28.7570210 17.4719238
82.4979858 28.7691040 11.5044289
81.3892517 28.7996674 9.6736307
-84.6768188 27.6880646 50.8235970
-85.6490707 27.6387768 53.0431290
-86.6467590 27.5989609 55.0372810
-150.3811493 27.2314396 67.8654480
-151.7101746 27.2622128 66.7544556
-153.1404724 27.2708549 65.4604416
160.9608459 30.0162201 14.4974422
159.3675842 29.9749908 16.5519981
157.8495483 29.9313622 18.3120575
82.4291077 29.9614353 12.2696905
81.3299408 29.9984207 10.5052729
-83.5320053 28.8836479 50.0273819
-84.5235367 28.8401146 52.4296341
-85.5090790 28.7918568 54.5231705
-86.5157318 28.7486267 56.3852768
-150.1754456 28.3797703 69.0209808
-151.5169678 28.4051094 67.9437943
-152.8988647 28.4288845 66.7423859
160.7914886 31.1925316 15.4423542
82.3656769 31.1560707 12.9722195
81.2674713 31.1968002 11.2445545
80.1222763 31.2247162 9.3268642
-83.3981094 30.0416393 51.6520615
-84.3816071 29.9877453 53.8761940
-152.6948700 29.5799828 67.8916168
-154.1378784 29.6009922 66.5783997
162.2609100 32.4197083 14.1158495
160.6526337 32.3673058 16.2836075
82.3079147 32.3483276 13.6153145
81.2019653 32.3919792 11.9026890
-82.2909088 31.2483921 50.7406311
-83.2593689 31.1909676 53.0827141
-84.2589493 31.1335487 55.1785049
-152.5249634 30.7226124 68.9386368
-153.9442444 30.7518311 67.6856918
162.1318359 33.5906830 14.9268980
160.5301819 33.5363426 17.0328484
82.2598267 33.5430183 14.2097464
81.1553802 33.5892372 12.5278139
80.0318222 33.6345291 10.6646690
-82.1639481 32.3980904 52.1516266
-152.3639526 31.8684196 69.9181976
-153.7588806 31.9014606 68.7253265
163.6832886 34.8217316 13.3240776
161.9841309 34.7670364 15.6884861
160.4266968 34.7068634 17.6922588
82.2155304 34.7366714 14.7381020
81.0979309 34.7829132 13.0664825
79.9938278 34.8346977 11.2666397
78.8790817 34.8823433 9.3179550
-81.0650787 33.6111679 51.0084038
-82.0444717 33.5441818 53.4246216
-152.2241821 33.0077209 70.8064499
-153.6162262 33.0408173 69.6493912
161.8731842 35.9401207 16.3446655
160.3164368 35.8798370 18.3009911
79.9376526 36.0314560 11.7878561
-80.9495239 34.7586327 52.2677040
-81.9532700 34.6937866 54.5937576
-152.0708923 34.1534348 71.6504440
-153.4618225 34.1851578 70.5276871
-154.8853455 34.2212982 69.2833862
-156.2693481 34.2638855 67.9804688
-157.7204285 34.2919540 66.5266190
165.1291962 37.2515640 12.0814362
163.4056396 37.1807976 14.6825371
161.7790222 37.1113052 16.9212799
160.2203064 37.0519753 18.8368874
79.8958130 37.2275162 12.2661419
-79.8954620 35.9852524 50.9874725
-80.8442307 35.9061737 53.3946075
-81.8447723 35.8372803 55.5700264
-151.9586182 35.2955894 72.4043655
-153.3313141 35.3302078 71.3275909
-154.7415771 35.3646088 70.1300507
-156.1221619 35.4070244 68.8671799
-157.5527954 35.4446373 67.4679718
163.2930145 38.3583336 15.2728539
82.0936279 38.3198166 15.9937038
80.9774704 38.3709526 14.4041424
79.8523712 38.4249420 12.6791420
-78.8164825 37.2070160 49.3906174
-79.7861328 37.1301537 52.0782280
-157.3861694 36.5950508 68.3440399
163.2338257 39.5335236 15.7244301
82.0654526 39.5142097 16.3229446
80.9622650 39.5682983 14.7618504
79.8156128 39.6226845 13.0312233
-78.7284088 38.3640137 50.5085220
-79.6999817 38.2806511 53.1048737
-157.2595825 37.7402954 69.1156693
164.8194122 40.7903519 13.7686691
163.1473389 40.7105103 16.1641693
82.0358353 40.7101250 16.5910721
80.9223251 40.7658691 15.0297184
-78.6419296 39.5126190 51.5176468
-79.6147461 39.4256668 54.0023308
-157.1245728 38.8863297 69.8478088
-158.5741425 38.9336472 68.4211197
164.7651825 41.9718170 14.1310053
163.0857544 41.8884888 16.5094891
82.0161819 41.9067268 16.8219891
80.9027939 41.9645462 15.2779274
-77.5839920 40.7511139 49.7436943
-78.5683136 40.6651154 52.4548950
-79.5468979 40.5761642 54.8379593
-157.0185242 40.0320625 70.5048599
-158.4531403 40.0831032 69.1110992
164.6833954 43.1544876 14.4738884
163.0494995 43.0688400 16.7666187
114.5408325 42.3411064 36.5545998
113.3466797 42.3504601 36.3531647
112.1599350 42.3601112 36.1173096
110.9621124 42.3702927 35.8526115
81.9945831 43.1041756 17.0074787
80.8851242 43.1637230 15.4787912
-78.4942017 41.8140068 53.2604485
-79.4771271 41.7254486 55.5600624
-156.9130554 41.1782227 71.1098328
-158.3486633 41.2315636 69.7389984
164.6175537 44.3387604 14.7316475
163.0129700 44.2507401 16.9857445
114.5295868 43.5085335 36.6656342
113.3228226 43.5167923 36.4564819
112.1248169 43.5266914 36.2083359
110.9502487 43.5399704 35.9615326
81.9839172 44.3026428 17.1658134
80.8578568 44.3644753 15.6172447
-77.4628983 43.0637665 51.4478874
-78.4299622 42.9653625 53.9763794
-79.4249573 42.8775406 56.2217369
-156.8415680 42.3227768 71.6350250
-158.2594604 42.3752022 70.3068848
164.5923309 45.5253487 14.8908358
162.9620361 45.4328003 17.1874523
126.6711884 44.6465225 37.1807594
125.4491196 44.6415024 37.2686462
124.1947479 44.6415024 37.3746185
122.9772263 44.6399155 37.4055862
114.5099030 44.6744041 36.7536240
110.9300232 44.7077560 36.0296745
81.9718704 45.5023804 17.2734756
80.8541641 45.5663872 15.7407103
-76.4253082 44.3235168 49.3184509
-77.4078217 44.2181892 52.1610451
-156.7579956 43.4696922 72.1297531
-158.1547699 43.5261536 70.8374176
-159.6459198 43.5808601 69.3719788
164.5738068 46.7133141 14.9962873
162.9279175 46.6167183 17.3202019
126.6631927 45.8103218 37.2435303
122.9649048 45.8052216 37.4539642
114.5053406 45.8415222 36.8312111
110.9157333 45.8759003 36.0957832
81.9664459 46.7033463 17.3408070
80.8491058 46.7698288 15.8042049
-77.3545990 45.3724174 52.7965698
-156.6677856 44.6183319 72.5876923
-158.0896759 44.6754112 71.2847290
164.5677490 47.9044456 15.0316000
162.9251251 47.8045540 17.3520584
126.6402130 46.9754753 37.2972946
122.9760132 46.9734268 37.4590225
114.4924927 47.0092468 36.8623047
113.3027039 47.0192986 36.6594467
112.1000671 47.0331650 36.4075813
110.9143295 47.0450592 36.1508141
81.9587021 47.9066429 17.3493919
80.8397598 47.9758682 15.8103056
-76.3547211 46.6466866 50.6546783
-77.3058624 46.5282974 53.3388672
-156.6136780 45.7658997 72.9627075
-158.0184784 45.8244476 71.6907806
-159.4673920 45.8869095 70.2886581
164.5585022 49.0967751 15.0206766
162.9356232 48.9959641 17.3062172
126.6315002 48.1407013 37.3134003
125.4005585 48.1387787 37.4043655
124.1789551 48.1394882 37.4527168
122.9594650 48.1396713 37.4661560
114.4885178 48.1794739 36.8525772
113.2940216 48.1920967 36.6443863
112.1106415 48.2021103 36.4141159
110.9096069 48.2163544 36.1563835
81.9456024 49.1128998 17.3053818
-76.3088837 47.8047829 51.1754608
-77.2794952 47.6851501 53.8608475
-156.5653229 46.9161148 73.2973328
-157.9590912 46.9753342 72.0529785
-159.4052582 47.0401001 70.6580887
164.5872192 50.2950401 14.9136162
162.9534149 50.1903229 17.2085991
81.9671173 50.3174248 17.2652779
-76.2714767 48.9648323 51.6543884
-77.2286072 48.8445854 54.2343445
-159.3487701 48.1940575 70.9924774
164.6279755 51.4971542 14.7499723
162.9592590 51.3845520 17.0905247
81.9476471 51.5295563 17.1185799
-76.2414703 50.1277466 52.0446243
-77.2001419 50.0063019 54.5788269
-159.3052063 49.3491554 71.2587967
-160.7647095 49.4205017 69.7919159
81.9744110 52.7386360 16.9871006
-76.2076340 51.2935829 52.3419762
-77.1992111 51.1695366 54.9006691
-159.2516632 50.5055771 71.5097046
-160.7266083 50.5797729 70.0328217
81.9738922 53.9554520 16.7634125
-76.1774597 52.4615860 52.6019211
-77.1703262 52.3368988 55.0815353
-159.2212677 51.6628189 71.7004395
164.7757416 55.1246376 13.8728466
163.0702820 54.9918861 16.3150578
82.0026474 55.1717911 16.5216084
80.8718491 55.2614708 14.9284897
-76.1792755 53.6317749 52.7780266
-77.1659470 53.5047874 55.2501488
-159.2117462 52.8232536 71.8265839
163.1611938 56.2103195 15.8682690
82.0212936 56.3923988 16.2171326
80.8913269 56.4861069 14.6044807
-76.1962585 54.8053589 52.9106598
-77.1596069 54.6759758 55.3509331
-159.2141113 53.9860153 71.9082031
163.2197876 57.4247284 15.4429340
161.6053314 57.3068008 17.6557102
160.0413055 57.2035675 19.5574989
82.0405884 57.6175995 15.8742228
80.9265518 57.7108154 14.2663708
-76.1847992 55.9842072 52.9221802
-77.1655579 55.8486862 55.4163132
-159.1908417 55.1483688 71.9911575
161.7112579 58.5316391 17.1835155
160.1103363 58.4155846 19.1170349
82.0808868 58.8422775 15.5058184
80.9682083 58.9408112 13.8467941
-76.1852570 57.1660843 52.8909836
-77.1675491 57.0260124 55.3949509
-159.1891327 56.3144417 72.0016861
161.7567902 59.7437668 16.6115494
160.1766357 59.6290054 18.6115932
82.1041641 60.0783119 15.0288658
80.9998169 60.1794167 13.3260174
-76.1853790 58.3510323 52.8120575
-77.1743698 58.2065964 55.3203545
-159.1983032 57.4840012 71.9540329
161.8785553 60.9784470 15.9011841
160.2743683 60.8528633 18.0066795
82.1490707 61.3130302 14.5197773
81.0382843 61.4230728 12.7589083
79.9207840 61.5466270 10.8597546
-76.1913376 59.5405121 52.6686707
-77.1951599 59.3883972 55.2182045
-159.2157135 58.6557236 71.8724670
161.9824066 62.2118416 15.2006350
160.3818512 62.0811157 17.3239250
82.1844635 62.5584030 13.9366589
81.0854721 62.6701126 12.1538696
-159.2488403 59.8308105 71.7370605
162.1589508 63.4724236 14.2994013
160.4922791 63.3161011 16.5721340
82.2487488 63.8003387 13.3279438
81.1391220 63.9240532 11.4831295
-159.2897186 61.0095863 71.5525589
160.6455078 64.5618439 15.7008753
159.0607147 64.4346771 17.7671967
157.5250854 64.3307114 19.5622330
84.5070572 64.8408279 15.8985147
83.3879852 64.9488220 14.3003864
82.2870331 65.0606384 12.5803871
81.1757584 65.1933289 10.7021971
-76.2903748 63.1329422 51.8457642
-77.2721634 62.9646301 54.4737015
-159.3244934 62.1903610 71.3357391
-160.7954407 62.2971344 69.8289185
160.8314209 65.8334732 14.7302971
159.2134094 65.6854095 16.8621407
157.6632538 65.5722961 18.7442646
84.5703735 66.0872803 15.2220116
83.4460602 66.2050552 13.5603867
82.3522491 66.3219604 11.8076935
-76.3367844 64.3479691 51.3372841
-77.3061371 64.1712875 54.0421829
-159.3908997 63.3783531 71.0518875
159.3530884 66.9355545 15.9139252
157.7850037 66.8119125 17.8808022
84.6272430 67.3440094 14.4603891
83.5218658 67.4595032 12.7681379
-77.3522568 65.3811569 53.5630951
-156.6044006 64.3748856 73.4339981
-158.0081787 64.4662018 72.1458130
-159.4643555 64.5712662 70.7116623
159.5260773 68.2037888 14.8371029
157.9349365 68.0660553 16.9030437
84.6964340 68.6087570 13.6257448
83.5882111 68.7327728 11.8705788
-77.4211960 66.5906677 53.0627823
-156.6708374 65.5625687 73.0952072
-158.0803528 65.6567841 71.7835541
158.1126404 69.3346710 15.8184929
156.5612793 69.2088852 17.6963749
155.0600586 69.1070251 19.3527966
86.9906769 69.6541214 15.8337593
85.8711929 69.7653580 14.3257313
84.7698059 69.8833694 12.6983318
-77.4572830 67.8203049 52.4196472
-78.4322662 67.6428680 55.0005455
-79.4092102 67.4925690 57.2619476
-156.7435303 66.7544022 72.7101898
-158.1582031 66.8535767 71.3751144
158.3187866 70.6249847 14.6010675
156.7168884 70.4695740 16.6187706
155.2024078 70.3569260 18.3564167
87.0634613 70.9235229 14.9305649
85.9540558 71.0364227 13.3802128
84.8472900 71.1645355 11.6582928
-77.5139084 69.0571289 51.6748581
-78.4942627 68.8659821 54.3491364
-79.4706421 68.7041321 56.6944580
-156.8179016 67.9494400 72.2785645
-158.2459412 68.0558319 70.9149628
156.9290009 71.7549362 15.3940964
155.3765259 71.6246719 17.2196770
87.1443939 72.1977158 13.9488564
86.0402527 72.3206177 12.3211918
-78.5576324 70.0963974 53.6278076
-79.5370636 69.9252014 56.0485916
-156.9153595 69.1530685 71.7738037
155.5641937 72.9042587 15.9623470
87.2389603 73.4821014 12.8604040
86.1331787 73.6176147 11.1420078
-78.6133041 71.3442688 52.7951164
-79.6041260 71.1575623 55.2912903
-157.0172424 70.3613129 71.2250977
155.7946167 74.2062531 14.5345306
154.2796021 74.0795898 16.3712444
152.7635956 73.9585724 18.0580292
89.5594559 74.5424194 14.7507391
88.4409332 74.6609955 13.2632418
87.3380280 74.7843552 11.6435595
86.2348862 74.9359360 9.8586226
-78.6794205 72.6049805 51.8459511
-79.6933823 72.3921585 54.4919052
-154.3364563 71.3692474 73.1493225
-155.7188873 71.4649582 71.9455490
-157.1225128 71.5733337 70.6319809
156.0562439 75.5451736 12.9610291
154.4905396 75.3776779 14.9165297
152.9564056 75.2512054 16.7114277
89.6757813 75.8265839 13.6165085
88.5531769 75.9581833 12.0258102
87.4600830 76.0989685 10.3356304
-79.7634583 73.6481628 53.5494156
-154.4475403 72.5831375 72.5411758
-155.8359680 72.6823654 71.2996826
154.7789307 76.7166595 13.2454786
153.1787720 76.5471954 15.2201605
151.6819153 76.4381485 16.8623581
150.1983185 76.3314438 18.3519764
89.7857513 77.1402283 12.3206711
-79.8342896 74.9250565 52.5043221
-80.8392639 74.7158661 54.9823265
-81.8185425 74.5544891 57.1715240
-154.5564423 73.7970428 71.8799515
-155.9507141 73.9038086 70.5940018
-157.4243622 74.0386658 69.1412659
153.4823151 77.9074478 13.5109491
151.9013519 77.7412567 15.3498802
150.4202118 77.6323242 16.9219513
89.9000473 78.4662323 10.8694611
-80.9280548 75.9804153 53.9328728
-81.9246445 75.7958221 56.2546234
-154.7057190 75.0268707 71.1161652
-156.0940857 75.1360779 69.8010559
152.1729584 79.0803146 13.6371975
150.6432037 78.9394073 15.3497849
92.2532196 79.5211487 12.5344582
91.1336823 79.6581421 10.9671917
90.0451584 79.8021774 9.2716064
-81.0075684 77.2785034 52.7383270
-82.0257568 77.0586548 55.1906929
-152.0662231 76.0468445 72.7144547
-153.4368896 76.1468048 71.5773010
-154.8465881 76.2580032 70.2890701
150.9260254 80.2921829 13.5253401
92.3964081 80.8602448 10.9648895
91.2850647 81.0084839 9.2816448
-82.1335144 78.3356323 54.0082283
-152.2204590 77.2787476 71.9062958
-153.5832977 77.3811493 70.7344971
-154.9967346 77.4959335 69.3800964
151.2515869 81.6801300 11.4524670
149.7081757 81.5019150 13.2870712
148.2288361 81.3796234 14.8713388
94.7611237 81.9537354 12.2434101
93.6569061 82.0789948 10.8008366
92.5542145 82.2180176 9.1879520
-82.2278290 79.6551819 52.6344109
-83.2368317 79.4298553 55.0451965
-84.2345886 79.2551727 57.2162552
-152.3750000 78.5210419 71.0275345
-153.7327576 78.6254807 69.8201370
148.5340271 82.7551651 12.8448133
94.9240341 83.3091583 10.4980927
93.8336639 83.4426422 8.9428005
-83.3640137 80.7293472 53.6957359
-84.3485718 80.5430603 55.9485092
-152.5361481 79.7670135 70.0672455
148.9226837 84.1945267 10.4776783
147.3568420 84.0211487 12.2893486
145.8711700 83.8836975 13.8378248
144.4128418 83.7718506 15.1815443
143.0290527 83.7018280 16.2876301
99.5961838 84.1929550 13.8952494
98.4675064 84.2959137 12.7580595
97.3351746 84.4156036 11.4891338
96.2220001 84.5378113 10.1033649
95.1077499 84.6906738 8.5258808
-84.4954453 81.8266449 54.6037483
-149.9475555 80.8016129 71.3814774
-151.3337860 80.9138718 70.2383347
-152.7388458 81.0331726 68.9750595
146.1944275 85.2763977 11.6363907
144.7109375 85.1383057 13.1023846
143.2783966 85.0457916 14.3806744
99.7568970 85.5560837 12.1144028
98.6479034 85.6589966 10.9099703
97.5230942 85.7980881 9.5072880
96.4234161 85.9365616 8.0030622
-84.6478577 83.1497345 53.0301094
-150.1311188 82.0653839 70.3311615
-151.5132294 82.1782990 69.1423187
145.1004028 86.5905457 10.6339779
143.6221466 86.4431915 12.0935678
142.1554871 86.3239136 13.4180613
140.7550049 86.2550735 14.5196018
99.9608612 86.9398422 10.1058264
98.8505478 87.0618896 8.7606440
-84.7823257 84.5317154 51.1743927
-85.7682953 84.2794876 53.7415352
-86.7527008 84.0857544 55.9281616
-87.7470398 83.9191742 57.8573074
-88.7634201 83.7709961 59.6104698
-147.6127930 83.1242981 71.3207245
-148.9615479 83.2256165 70.3079147
-150.3303833 83.3351288 69.1817245
-151.7436523 83.4692307 67.9164963
144.0193634 87.9152679 9.3941555
142.5158691 87.7576141 10.9206066
141.0634003 87.6414490 12.2393475
100.1944122 88.3642960 7.7997093
-86.8917999 85.4307632 54.3120766
-87.9019318 85.2285995 56.3608246
-88.9028168 85.0692596 58.2298965
-147.7993774 84.3954163 70.1936417
-149.1545410 84.5015793 69.1169739
141.4612274 89.1160431 9.5445614
139.9950104 88.9788055 10.8693085
138.6175079 88.8919983 11.9501448
137.2343292 88.8251801 12.9017439
135.8431396 88.7543793 13.7586155
107.2600937 89.1109695 12.2056293
106.1049194 89.2011948 11.3207245
104.9543457 89.3045349 10.3293600
103.8196564 89.4114532 9.2400188
102.6806030 89.5367432 7.9779758
101.5725250 89.6849976 6.6406527
-88.0636902 86.5686798 54.6977844
-89.0603333 86.3795929 56.6859627
-90.0852890 86.2215805 58.5061302
-91.0906219 86.0960693 60.0887527
-145.3367615 85.4790573 70.8952637
-146.6682129 85.5707397 69.9699707
-148.0200806 85.6797180 68.9370041
-149.3891449 85.7950592 67.7827301
138.9998322 90.3509140 9.1238804
137.5820618 90.2322540 10.2724571
136.1834412 90.1768188 11.2350140
107.5029678 90.5339584 9.8964663
106.3604584 90.6281204 8.9356480
-89.2339325 87.7351303 54.9438477
-90.2542648 87.5465546 56.9005623
-91.2613525 87.3912659 58.6557770
-145.5344849 86.7627945 69.6555557
-146.8925018 86.8675842 68.6521378
-148.2454681 86.9756470 67.5664673
-149.6344910 87.1082458 66.3344574
138.0764465 91.8116760 6.9244647
136.6051025 91.6932526 8.2251139
135.1960297 91.5726318 9.2554369
133.8212128 91.4916229 10.1201658
132.4895020 91.4456482 10.8244238
131.1361084 91.3962708 11.4475937
129.8146667 91.3835983 11.8940983
128.5172729 91.3522034 12.2996235
127.2434464 91.3273163 12.6363583
125.9716110 91.3157806 12.8573399
124.6799316 91.3245392 12.9684143
123.4155884 91.3176270 13.0466805
117.2411194 91.4322510 12.3393650
116.0391541 91.4699707 12.0076027
114.8447723 91.5258179 11.5712757
113.6361237 91.5945282 11.0303774
112.4630356 91.6493073 10.4684772
111.2747574 91.7220154 9.8004971
110.1156006 91.8013840 9.0495110
108.9585724 91.9046860 8.1453161
107.8018875 92.0101929 7.1306486
-90.4444275 88.8900528 55.0875092
-91.4331131 88.7292023 56.9555893
-92.4474869 88.5771484 58.6572914
-93.4668732 88.4431763 60.1759720
-143.1033630 87.8685226 70.1034622
-144.4290314 87.9582520 69.2466507
-145.7658539 88.0641785 68.2838364
-147.1314697 88.1724396 67.2108994
134.2983704 93.0760040 6.7338524
132.9204712 92.9508667 7.6573601
131.5442810 92.8813858 8.4110622
130.2046661 92.8353806 9.0009022
128.8729858 92.7965698 9.5256624
127.5913696 92.7718430 9.9435949
126.3060608 92.7641449 10.2189960
124.9980316 92.7661514 10.3806410
123.7330856 92.7737885 10.4566040
117.5525818 92.8933411 9.7369919
116.3485718 92.9375153 9.3721142
115.1537170 92.9887390 8.9149942
113.9554672 93.0620422 8.3114243
112.7668152 93.1344147 7.6383562
-91.6107864 90.1080322 55.0252380
-92.6457520 89.9058914 56.9309235
-93.6463470 89.7664337 58.5574112
-143.3168182 89.1637115 68.7426758
-144.6635590 89.2673950 67.8127518
-146.0162354 89.3815384 66.7733307
130.7200470 94.4614716 5.2724991
129.3429565 94.3721313 5.9768119
128.0244446 94.2833176 6.5530481
124.1355896 94.2585678 7.2897840
122.8654480 94.2571564 7.3707061
121.6276093 94.2784958 7.3615561
120.3757095 94.3195801 7.1846838
119.1424026 94.3501205 6.9044614
117.9139557 94.3927155 6.5624528
116.7232285 94.4530182 6.1727934
-92.8530502 91.2858734 54.9258690
-93.8450699 91.1296387 56.6697464
-140.9491272 90.3058777 68.8847351
-142.2621460 90.3942337 68.0875092
-143.5784760 90.4920425 67.2046967
124.6843872 95.9443130 3.0158575
123.4055939 95.9203415 3.1641273
-93.0737991 92.7429810 52.5392036
-94.0866928 92.5021133 54.5586014
-141.1938171 91.6257324 67.3451767
-142.5201721 91.7209015 66.4734497
-143.8451843 91.8264084 65.4990082
-94.3251495 93.9787140 52.0325813
-95.3364410 93.7528534 54.0682716
-96.3477249 93.5665894 55.8659325
-97.3625031 93.4313126 57.4352036
-98.3870850 93.2966614 58.8627625
-138.8501587 92.7893066 67.2145691
-140.1537476 92.8764648 66.4588089
-141.4711761 92.9748459 65.6044312
-142.8166351 93.0860672 64.6175613
-96.5962372 95.0378265 53.3489914
-97.6182556 94.8305130 55.1731606
-98.6317291 94.6793213 56.7555656
-139.1257477 94.1425095 65.4306488
-97.8958206 96.3383255 52.4057846
-98.9160233 96.1095505 54.2407188
-99.9313507 95.9541321 55.8549767
-100.9677582 95.8242340 57.2915459
-102.0096359 95.7100525 58.5545807
-103.0760727 95.5988922 59.7083702
-134.2812653 95.1976852 66.1539078
-135.5467529 95.2686920 65.5932007
-136.8493652 95.3522339 64.9370193
-138.1328888 95.4294281 64.2223892
-139.4526825 95.5351181 63.3715706
-100.2355499 97.4461899 53.0703125
-101.2691040 97.2648163 54.7344055
-102.2964783 97.1365891 56.1465263
-103.3480225 97.0056534 57.4359322
-134.5899353 96.5817566 64.1804352
-135.8532715 96.6519852 63.5614967
-137.1658325 96.7427139 62.8100662
-138.4770203 96.8475342 61.9723969
-103.6563797 98.4555511 54.7558327
-104.6897278 98.3373260 56.0700188
-105.7505493 98.2292404 57.2643890
-106.8110580 98.1284714 58.3070717
-107.8992081 98.0403519 59.2348824
-108.9873962 97.9675751 60.0629692
-110.0883102 97.8938599 60.8288422
-127.4272766 97.6613388 64.4304123
-128.6444702 97.6986389 64.1964264
-129.8823547 97.7415924 63.8949585
-131.1290588 97.7954483 63.5183563
-132.3827515 97.8545990 63.0732803
-133.6403198 97.9226074 62.5383186
-134.9273987 97.9956360 61.9031029
-136.2232666 98.0833359 61.1784058
-105.0492096 99.8461990 53.0256996
-106.0966492 99.6999207 54.4099541
-107.1473541 99.5760040 55.5851288
-108.2191086 99.4735413 56.6624222
-109.2914658 99.3928909 57.6133575
-110.3810272 99.3196106 58.4630775
-127.7424088 99.0761795 62.2244797
-128.9799500 99.1219177 61.9324608
-130.2192078 99.1733551 61.5723076
-131.4729309 99.2317352 61.1414680
-132.7432709 99.2945328 60.6147461
-134.0172424 99.3675232 59.9718361
-135.3547668 99.4990692 59.1696510
-109.6607056 100.9033051 54.5925789
-110.7374725 100.7952805 55.6109047
-111.8278275 100.7158432 56.4431419
-112.9206543 100.6498489 57.1861115
-114.0449677 100.5992661 57.8385735
-115.1535797 100.5523529 58.4048347
-116.2977753 100.5044403 58.9078178
-117.4414139 100.4856110 59.2789917
-118.5859375 100.4542542 59.6123085
-119.7414322 100.4368668 59.8683357
-120.9040680 100.4359131 60.0342331
-122.0821533 100.4201736 60.1769104
-123.2612305 100.4292603 60.2171707
-124.4672699 100.4502106 60.1689568
-125.6705856 100.4640503 60.0709724
-126.8890533 100.4889603 59.8954163
-128.1163330 100.5353622 59.6127701
-129.3635864 100.5799332 59.2631264
-112.2532043 102.3284607 52.9630356
-113.3331146 102.1922913 53.8771935
-114.4540787 102.1121979 54.6495667
-115.5533752 102.0447540 55.3108902
-116.6850891 102.0045853 55.8623657
-117.8156433 101.9654999 56.3230171
-118.9703369 101.9546127 56.6532402
-120.1211395 101.9335175 56.9535751
-121.2976990 101.9254303 57.1279907
-122.4764709 101.9131012 57.2508850
-123.6630020 101.9165192 57.2764359
-124.8774796 101.9435425 57.1826935
-126.0818176 101.9703522 57.0347214
-127.3251419 102.0226364 56.7647629
-128.5678253 102.0958176 56.4066391
-129.8401031 102.1762619 55.8897247
-116.0729675 103.7534637 51.1053848
-117.1902161 103.6954498 51.8125229
-118.3196030 103.6392059 52.3916359
-121.7998657 103.5515213 53.3899155
-122.9924316 103.5715866 53.4695206
-124.1816940 103.5879669 53.4227715
126.3653641 -1.2654279 -1.0104132
125.7109375 -1.2644196 -0.8086827
125.0588226 -1.2683682 -0.6834584
124.3897095 -1.2660319 -0.5246303
123.7447968 -1.2712538 -0.4511450
123.1318893 -1.2753857 -0.4173112
122.4862976 -1.2645005 -0.3594489
121.8481903 -1.2789357 -0.4131742
121.2322845 -1.2878567 -0.4986535
120.6066971 -1.2892357 -0.5555516
119.9844589 -1.2983469 -0.6995007
119.3500366 -1.3045061 -0.8828226
118.7308121 -1.3043576 -1.0985821
118.1545868 -1.2686397 -1.2699952
116.3670120 -1.3108208 -2.3043718
128.7088623 -0.5847982 0.4968560
117.8873596 -0.5837591 0.9423867
113.1092682 -0.7207353 -1.7671168
128.4375000 0.1147423 2.6793604
117.6624298 0.0501690 2.9120009
117.0599823 0.0708610 2.7837207
112.8813324 -0.0176341 0.5126517
112.2761765 -0.0993684 0.0459596
135.0447235 0.6449668 0.5048144
135.4826508 1.3203263 2.1185977
134.7525330 1.3559748 2.7167130
132.6728973 1.3987592 4.1341681
131.9779816 1.4022599 4.5476384
131.2970886 1.3977281 4.8870964
130.6318970 1.3878188 5.1881666
129.9564056 1.3905576 5.5259652
129.3013916 1.3838776 5.7966361
108.9773941 1.1192585 1.3856395
139.2874298 2.5183301 2.1332033
138.5311432 2.5800412 2.9323041
106.3310623 2.3782408 2.5017443
105.7630157 2.3588698 1.8811470
105.1967773 2.3491306 1.1946479
139.7217865 3.1934161 3.4115584
105.0462799 3.0301106 2.8493598
102.7934799 2.9104540 -0.0344836
140.9421539 3.8114049 3.7285659
140.2137756 3.8332274 4.4798040
139.4750671 3.8532331 5.2185135
104.9001236 3.6642597 4.3677506
104.3224487 3.6529732 3.7360516
102.6387329 3.6110899 1.6783531
141.4426117 4.4362602 4.7081647
140.6959991 4.4533353 5.4661741
102.4825287 4.2552586 3.2062266
101.3504333 4.1979198 1.7287245
102.3305283 4.8574090 4.5685706
101.7755966 4.8601990 3.9571083
101.1880798 4.8173733 3.2136512
140.2175903 5.6453223 8.5544853
99.9393158 5.3778224 3.1534984
145.2598724 6.2199345 4.7060013
144.5027771 6.2543182 5.6208744
140.0926666 6.2802672 9.7956457
99.8209991 6.0434980 4.4886432
99.2487640 6.0003710 3.7665515
146.2966461 7.4955277 6.0410914
145.5495148 7.5046358 6.9012685
97.3103790 7.2085891 3.9569626
-118.0775757 6.5231118 46.3438110
-124.0152893 6.3986187 46.3884430
-124.6177826 6.3824801 46.3540688
-125.2408295 6.3794103 46.2442627
146.8214722 8.1242332 6.6613355
146.0744019 8.1283150 7.5247087
145.3231049 8.1296721 8.3530998
96.0882187 7.8090048 3.5322580
-117.7900085 7.0080619 47.5224686
-118.3421249 7.0088797 47.7863007
-120.6997375 7.0677447 48.4797058
145.1698914 8.7094097 9.5760775
95.9942703 8.4569721 4.7367644
95.4205246 8.4206209 3.9081857
-112.6912155 7.7619948 47.4053268
-115.8390045 7.7054186 48.6711884
-116.4023056 7.7106118 49.0353470
-116.9619904 7.6982160 49.3193321
-117.5318832 7.6781306 49.5559082
-118.0866470 7.6962061 49.8454514
-118.6609573 7.7082639 50.0671692
-120.4117203 7.6739445 50.5614624
-120.9890671 7.6646399 50.6646500
-121.5831833 7.6604557 50.7461090
-122.1763229 7.6766415 50.8501740
-125.1683731 7.6480546 50.8841629
-125.7962646 7.6347408 50.7836418
-126.3931198 7.6453357 50.7198105
-127.0148087 7.6495304 50.5911560
-127.6458740 7.6487212 50.4138947
-128.2843933 7.6381164 50.1994591
-129.5409851 7.6280522 49.7693062
-130.1915894 7.6048865 49.4858704
145.6526031 9.3043966 10.1351290
144.9713745 9.3266325 10.7943277
-109.6333160 8.2320375 45.2355499
-111.2107849 8.3059034 47.1870575
-129.8724213 8.2539911 51.5565338
-131.1872864 8.2275410 50.9785690
149.3224182 9.9045753 7.0360842
145.5249329 9.9408836 11.2474203
144.8207245 9.9310493 11.8678102
94.6702042 9.6734905 5.3594351
94.1166840 9.6577005 4.5147200
93.5513611 9.6357012 3.5967550
-108.2894287 8.8337135 46.1059227
-108.8179245 8.8865271 46.8236198
-109.3508911 8.9308186 47.5552292
-110.9504776 8.9240341 49.1785126
-111.4988403 8.9126253 49.7197685
-129.6284332 8.8448992 53.3284683
-130.2676392 8.8434067 53.0952492
-130.8950195 8.8429995 52.8394089
-133.5326843 8.8305855 51.5263901
-107.0193024 9.4626322 46.8578644
-130.6432495 9.4384298 54.5265503
-134.5552826 9.3307276 52.6044540
150.4834442 11.1235781 7.6574306
-105.2422867 10.0450087 46.4532623
-105.7515793 10.0686693 47.2676888
-106.2718964 10.1000853 48.0530739
-106.8021317 10.1167908 48.7527161
-130.4496460 10.0192051 55.9767952
-131.0694580 10.0212440 55.7585945
-134.3067780 9.9826994 54.2626724
-134.9665070 9.9541855 53.9007568
-135.6501007 9.9234467 53.4754257
92.1402893 11.4668760 5.1308937
-136.7187042 10.5165434 54.2622910
92.0726547 12.1084528 6.1346574
91.4968948 12.0737381 5.2545972
-102.7626877 11.2522802 46.9450912
-103.2801132 11.2957640 47.8343353
-136.4795990 11.1589384 55.7405815
-137.1604614 11.1317892 55.3006020
-137.8191071 11.1265774 54.8681831
-138.5230408 11.1041727 54.3341446
90.8654327 12.6870832 5.3771238
152.8798370 13.5645399 8.5257034
90.8015289 13.3267708 6.3217220
90.2164688 13.2910728 5.4012370
-99.8690643 12.4618073 45.8532562
-100.3693314 12.5003920 46.9624977
-100.8719177 12.5007887 47.9028625
-101.3652115 12.5013514 48.7489891
-101.8716888 12.5110712 49.5500412
-140.0879669 12.2863569 55.7742500
152.6584778 14.1878853 9.6831188
89.5933990 13.9007597 5.4088264
-98.7031784 13.0683603 45.5473976
-141.2687836 12.8763790 56.0427475
153.3496552 14.7527409 9.5943422
152.5047455 14.7747431 10.6806221
89.5429153 14.5391150 6.3188534
89.0255127 14.5452337 5.3930330
-98.0207138 13.6853008 46.3194733
-98.5314331 13.7210035 47.4282303
-141.0250854 13.5040092 57.4110947
-142.1865234 14.0559721 57.6703682
155.3931122 15.9621334 8.4531059
-97.1393890 14.9484396 48.6954384
-141.9703827 14.6902990 58.8755188
-142.7053833 14.6446486 58.3008347
156.0291443 16.5620098 8.3801174
155.1652527 16.5875111 9.5977221
89.3296890 16.3714523 8.8117390
-95.0512543 15.4723940 45.8194122
155.0458679 17.1759262 10.5311890
89.2610626 16.9686317 9.5265894
87.6068420 17.0095730 6.9481416
-94.4083252 16.0824451 46.2471123
-94.9043121 16.1084080 47.4361458
86.9674225 17.5673332 6.8104558
156.3708801 18.3683453 10.2408905
86.9251022 18.1896820 7.5699081
86.3559799 18.1737404 6.6255298
85.7838516 18.1660099 5.6305761
-93.6283951 17.2961044 48.1674194
-145.4293976 16.9965153 59.9879494
-145.2452393 17.6121254 61.0049896
157.6525116 19.5869579 9.9080582
85.6546097 19.3860493 7.1233325
-92.3561707 18.4859314 48.6620102
-145.0779114 18.2173080 61.9678268
158.3653412 20.1646500 9.5807467
157.5094299 20.1843758 10.7845850
-91.2491455 19.0662918 47.7104683
-144.9270630 18.8095741 62.8881950
157.3743744 20.7738590 11.6255150
84.4628601 20.6193600 6.5438085
83.9283752 20.6344433 5.5234747
-91.1310959 19.6805763 48.9966812
-144.7725677 19.3855515 63.7795639
-145.4629669 19.3839417 63.2622833
-146.1412659 19.3855171 62.7246895
-146.8136444 19.3983459 62.1691475
-147.5199890 19.3946705 61.5562553
-148.2454224 19.3786182 60.9117851
-148.9856720 19.3541203 60.2172394
84.4430618 21.2488499 7.2529840
-90.0314331 20.2720490 47.9070396
84.3885651 21.8513470 7.8943529
-89.4371109 20.8820610 47.9718094
-89.9180069 20.8772984 49.1262398
-150.0862732 20.5277557 60.7826424
158.5655670 22.5820904 11.8579855
84.3237457 22.4463139 8.5027609
-88.8284607 21.4719887 47.9178467
-149.9056549 21.1281643 61.7357979
159.2955322 23.1766262 11.3962564
158.4650421 23.1748695 12.5444727
84.3018188 23.0598679 9.1788521
-88.2511826 22.0726700 47.9260368
-88.7257309 22.0671768 49.1083336
-149.7478943 21.7230148 62.6313858
