136.1248474 -7.9122910 9.6006966
133.4483643 -7.9044461 10.8198948
130.8194427 -7.8980522 11.7685719
128.2162018 -7.9043779 12.4508362
105.9442368 -8.1137943 10.0002089
103.5656586 -8.1612396 8.7517052
101.1978226 -8.2132711 7.2555823
98.8583984 -8.2698669 5.4780021
-114.6364594 -8.8017159 45.7972641
-116.8943939 -8.7904673 47.0200157
-119.1855621 -8.7878609 47.9335709
-121.5169754 -8.7894230 48.5647354
-123.8893280 -8.7999773 48.8907013
-126.2914124 -8.8127346 48.9646301
143.9934692 -5.4960394 7.2876387
141.1618195 -5.4688292 9.4290695
138.4184265 -5.4521909 11.1176834
135.7327728 -5.4430118 12.4577255
133.0750275 -5.4368830 13.5440884
100.9179459 -5.7238255 9.9987640
98.5715485 -5.7706022 8.3848906
96.2360306 -5.8269639 6.4721770
93.9272156 -5.8867407 4.2483006
-109.5565491 -6.3339343 47.8138199
-111.7609253 -6.3136034 49.4341469
-114.0061340 -6.3012681 50.7307625
-116.2798233 -6.2988553 51.7466354
-123.2589035 -6.3082128 53.4280128
-125.6501236 -6.3214560 53.5475388
-128.0669708 -6.3383493 53.4399719
-130.5203247 -6.3638635 53.0788689
-133.0158234 -6.3916922 52.4715004
146.3913422 -3.0490687 8.0117979
143.5435486 -3.0255427 10.3195400
140.7739258 -3.0113771 12.1723919
138.0523987 -3.0007007 13.6714125
135.3856506 -2.9951215 14.8775873
132.7531738 -2.9973931 15.8577061
100.6725311 -3.2580514 12.3449402
98.3236694 -3.2996137 10.8340559
95.9775848 -3.3459058 9.0705748
93.6602631 -3.3967543 7.0315032
91.3581009 -3.4531431 4.6275597
-104.6773987 -3.9053972 48.2989273
-106.8412094 -3.8831210 50.3173790
-109.0420609 -3.8674865 51.9835663
-111.2706146 -3.8536649 53.3754311
-113.5195313 -3.8507004 54.5126724
-115.7995529 -3.8445971 55.4546165
-122.7703705 -3.8636947 57.0180092
-125.1382828 -3.8760259 57.1658173
-127.5406647 -3.8900542 57.1150169
-129.9705811 -3.9094052 56.8616905
-132.4371338 -3.9351261 56.3853149
-134.9366608 -3.9632506 55.6827278
-137.4872742 -3.9929140 54.7118073
-140.0898895 -4.0256243 53.4132156
148.8681793 -0.6157168 8.2515297
145.9840240 -0.5977538 10.7805119
143.1826935 -0.5831614 12.8120136
140.4335022 -0.5726583 14.4944801
137.7366638 -0.5668356 15.8644810
95.7587891 -0.8844894 11.2781200
93.4369125 -0.9268081 9.3815355
91.1256104 -0.9735110 7.1685367
88.8367615 -1.0215096 4.5973525
-99.9563980 -1.5008655 47.5069199
-102.0790482 -1.4760441 50.0004272
-104.2400360 -1.4590862 52.0834503
-106.4244156 -1.4453769 53.8501053
-136.9509583 -1.5604231 58.2031441
-139.5112915 -1.5917587 57.1358337
-142.1212921 -1.6225194 55.7693558
148.4862366 1.8237394 10.7969418
145.6299591 1.8390875 13.0832253
142.8659973 1.8425425 14.9308081
140.1427307 1.8453891 16.4712486
137.4738617 1.8445436 17.7384624
95.5732880 1.5598037 13.1887770
93.2454987 1.5287312 11.4059238
90.9247513 1.4860858 9.3055172
88.6233673 1.4458740 6.9158297
-97.4353027 0.9126688 48.5208626
-99.5529938 0.9313403 51.1055527
-101.7010117 0.9466448 53.2961884
-103.8825378 0.9559733 55.1682091
-106.0780334 0.9635772 56.7691574
-136.5058594 0.8463656 61.0929184
-139.0356293 0.8210974 60.1752625
-141.6080627 0.7932687 59.0219727
-144.2350464 0.7640000 57.5574188
151.0415497 4.2404284 10.3991013
148.1543274 4.2483988 12.9318962
145.3333588 4.2537079 15.0294170
142.5957184 4.2537451 16.7467003
90.7464828 3.9338744 11.1277323
88.4452133 3.9025807 8.8870049
86.1600342 3.8666797 6.2733407
-94.9824905 3.3122754 49.0172501
-97.0880737 3.3271904 51.7478676
-99.2265778 3.3358028 54.0564919
-101.3956375 3.3430080 56.0472221
-141.1898956 3.1876791 61.7224579
-143.7761841 3.1633029 60.4474678
-146.4410400 3.1351857 58.8517799
153.6817627 6.6552954 9.5249443
150.7317810 6.6570320 12.4019337
147.8760986 6.6599274 14.7438107
145.0891876 6.6540737 16.6792450
142.3639832 6.6523824 18.3072662
90.6010284 6.3689928 12.7090816
88.2873917 6.3442774 10.5627623
85.9938278 6.3172655 8.0747652
83.7148743 6.2888784 5.1987247
-92.5812225 5.7049389 49.0336456
-94.6768799 5.7139707 51.9434662
-96.8014145 5.7187448 54.4004669
-98.9569168 5.7194405 56.5300407
-101.1287994 5.7222147 58.3850327
-140.8296814 5.5633416 64.0233917
-143.3852997 5.5457473 62.8840103
-146.0170593 5.5225158 61.4551048
-148.6734619 5.5014257 59.7407188
153.3865204 9.0670309 11.3966084
150.4730988 9.0607376 14.0587721
147.6414795 9.0570211 16.2542953
85.8557129 8.7581072 9.6205387
83.5686569 8.7383842 6.8910856
-90.2246857 8.0929041 48.5973434
-92.3045807 8.0944166 51.7203941
-94.4216843 8.0949631 54.3776817
-96.5564804 8.0895910 56.6524773
-140.5190277 7.9244118 66.0155334
-143.0531006 7.9090052 64.9640350
-145.6636505 7.8941321 63.6676407
-148.2793579 7.8773932 62.1258125
156.1209106 11.4789867 9.8670597
153.1448364 11.4665756 12.9451628
150.2437286 11.4561205 15.4657698
147.4376221 11.4450502 17.5478592
85.7335205 11.1877508 10.9144049
83.4395065 11.1777287 8.2916107
81.1758804 11.1680622 5.2418036
-87.9185486 10.4827843 47.6965675
-89.9761353 10.4749537 51.0944748
-92.0778046 10.4688759 53.9698563
-94.2052994 10.4592752 56.4424973
-96.3510284 10.4544697 58.6074944
-140.2493286 10.2718592 67.7499084
-142.7571106 10.2647142 66.7868500
-145.3603821 10.2514744 65.5682373
-147.9417419 10.2420673 64.1599808
-150.6466370 10.2289324 62.4005814
155.8845520 13.8782272 11.3367872
152.9309998 13.8605709 14.2388754
81.0659485 13.6094017 6.5477400
-87.6907806 12.8592834 50.0538940
-89.7743759 12.8448706 53.1998863
-91.8861847 12.8300552 55.8846512
-145.0849609 12.6002216 67.2283173
-147.6535034 12.5932207 65.9085999
-150.3378906 12.5860958 64.2607880
-153.0172882 12.5821600 62.3710403
155.6813354 16.2740917 12.5266075
152.7647705 16.2466125 15.2853527
80.9679108 16.0432892 7.5888510
-85.4388580 15.2497368 48.5177917
-87.5052948 15.2249956 52.0195656
-89.6032867 15.2006111 54.9677544
-91.7199097 15.1799736 57.5114479
-144.8664856 14.9347429 68.6430130
-147.4095917 14.9357700 67.4089966
-150.0725098 14.9341288 65.8635101
-152.7281342 14.9356422 64.0895767
158.5678253 18.6988525 10.1322994
155.5381470 18.6607132 13.4529991
152.6201782 18.6299896 16.1314602
80.8977509 18.4749699 8.4370089
-85.2675018 17.6134968 50.3889008
-87.3482666 17.5805359 53.6642570
-89.4540863 17.5504951 56.4663162
-91.5795593 17.5235062 58.9053345
-149.8497009 17.2733192 67.2285614
-152.4860229 17.2802086 65.5578461
-155.2351990 17.2907066 63.5050697
158.4175110 21.0925827 10.9844913
155.4014282 21.0480118 14.1956444
152.4998474 21.0106373 16.7929497
80.8325348 20.9027195 9.0671549
-83.0765152 20.0158501 48.2303619
-85.1247864 19.9692612 51.9274178
-87.2152328 19.9283085 55.0372849
-89.3337402 19.8920479 57.7295532
-91.4626312 19.8595352 60.0919266
-149.6514893 19.6083832 68.4061203
-152.2805176 19.6193542 66.7983551
-155.0059814 19.6345100 64.8557281
158.3284912 23.4839439 11.5506325
123.5547638 23.1601620 28.6030540
121.0704269 23.1529922 28.7111588
118.6144714 23.1485424 28.6721649
116.1665955 23.1442699 28.5312653
85.3821793 23.2695694 14.5995693
83.0799484 23.2969303 12.2319221
80.7935486 23.3301105 9.5381413
-82.9476471 22.3743782 49.6802521
-154.8182678 21.9730911 65.9734497
-157.5707550 21.9988899 63.7799759
158.2514038 25.8765182 11.9331760
123.5194702 25.5184937 28.8031006
121.0322418 25.5119286 28.9083347
118.5800858 25.5074539 28.8774605
116.1296539 25.5046558 28.7350121
85.3460617 25.6801014 14.8468485
83.0475311 25.7158508 12.4986324
80.7630539 25.7567616 9.8263664
-82.8420410 24.7271500 50.8496361
-154.6585388 24.3089943 66.9107285
-157.3987885 24.3399754 64.7974319
161.3570557 28.3541679 8.1799965
158.2241516 28.2711029 12.0787916
123.5048904 27.8781433 28.8964500
118.5606766 27.8680096 28.9731445
116.1131210 27.8671341 28.8175468
85.3308716 28.0929146 14.9587221
83.0267715 28.1360550 12.6097116
-80.7270432 27.1607742 47.8721275
-82.7631836 27.0790157 51.7844505
-154.5331726 26.6435814 67.6557617
-157.2639771 26.6799774 65.6045074
158.2171478 30.6688843 12.0420589
123.4867249 30.2383900 28.8970261
121.0085373 30.2330589 28.9856834
118.5562439 30.2305412 28.9499798
116.1129150 30.2305145 28.8159485
85.3213425 30.5084457 14.9151449
83.0240479 30.5589218 12.5697327
-80.6555862 29.5200253 48.6721573
-82.7036514 29.4297581 52.4895325
-154.4407196 28.9765186 68.2416840
-157.1590576 29.0189667 66.2314377
158.2595520 33.0731812 11.7741423
85.3313599 32.9271660 14.7346516
83.0329056 32.9863968 12.3628178
80.7501297 33.0536041 9.6588631
-80.6102829 31.8804741 49.2536697
-82.6630859 31.7818298 52.9995346
-154.3734436 31.3098869 68.6679230
-157.0825195 31.3584862 66.6907806
-159.8784180 31.4166317 64.3323822
158.3180847 35.4835892 11.3184643
85.3462524 35.3528671 14.3810692
83.0524750 35.4189262 11.9952869
80.7707596 35.4962769 9.2530222
-80.5809479 34.2434006 49.6081543
-82.6377411 34.1352921 53.3376236
-154.3300171 33.6451569 68.9438858
-157.0389709 33.6997185 66.9865723
-159.8343353 33.7650681 64.6485825
158.4189453 37.9046974 10.6083107
155.3898315 37.7996674 13.9052992
152.4704742 37.7151070 16.5740986
80.8051071 37.9475594 8.6623993
-80.5738373 36.6105728 49.7704887
-82.6319733 36.4932022 53.4726334
-120.0644073 35.7286530 77.4035492
-122.3719940 35.7212257 77.6235657
-124.6989899 35.7175369 77.7262344
-127.0272598 35.7162857 77.7406006
-154.3100433 35.9831085 69.0807190
-157.0190735 36.0441208 67.1263275
-159.8098145 36.1169319 64.7972183
-162.7130432 36.2054977 61.9739418
158.5579681 40.3379021 9.6361027
155.5080414 40.2203712 13.0852013
152.5784912 40.1264877 15.8349400
80.8599091 40.4084244 7.8842926
-80.5868759 38.9844894 49.7019348
-82.6451721 38.8556900 53.4343796
-120.0625763 38.0328064 77.4289703
-127.0399628 38.0225410 77.7408905
-154.3160858 38.3250923 69.0670929
-157.0287781 38.3930969 67.1001129
-159.8212585 38.4738846 64.7675247
155.6669922 42.6550369 12.0226555
152.7132568 42.5491295 14.8918657
85.4881363 42.6739197 12.3830328
83.2017822 42.7697105 9.8415709
80.9305878 42.8806305 6.8835597
-80.6203766 41.3661423 49.4312897
-82.6738434 41.2266159 53.1983414
-120.0850601 40.3420715 77.3230515
-127.0685501 40.3341637 77.6338425
-154.3561554 40.6732903 68.8889313
-157.0714722 40.7480469 66.9186630
155.8614044 45.1039352 10.6875067
152.8787231 44.9838982 13.7412891
85.5679398 45.1360359 11.3602333
83.2830124 45.2436752 8.7144136
81.0206604 45.3702812 5.6265564
-80.6717682 43.7588577 48.9281349
-82.7155609 43.6058159 52.7704048
-120.1278763 42.6551971 77.1080475
-122.4444733 42.6494102 77.3170776
-124.7613525 42.6464462 77.4303818
-127.1066895 42.6492844 77.4309998
-154.4216461 43.0282974 68.5681381
-157.1438293 43.1113892 66.5604630
153.0864563 47.4376984 12.3167048
150.1842041 47.3300171 14.9370413
147.3582611 47.2384911 17.1082344
85.6633301 47.6137505 10.1136646
83.3863907 47.7351570 7.3551998
-80.7563705 46.1629486 48.2012558
-82.7842484 45.9956284 52.1481628
-154.5137482 45.3917542 68.0863190
-157.2451477 45.4839287 66.0250473
153.3589172 49.9160385 10.5592213
150.4125366 49.7917938 13.3911781
147.5635681 49.6882095 15.7008514
85.7810211 50.1078796 8.6424990
83.5128937 50.2458611 5.7241731
-80.8554153 48.5836868 47.1987686
-82.8701782 48.3998032 51.3110046
-154.6335907 47.7654457 67.4424896
-157.3829651 47.8679924 65.3118210
150.6835175 52.2765198 11.5415707
147.8020325 52.1596756 14.0375824
144.9886780 52.0633163 16.0811768
142.2595215 51.9890862 17.7534904
90.5067749 52.3759499 11.8088999
88.2058945 52.4930801 9.5194473
85.9256668 52.6263847 6.8706317
-82.9788742 50.8196106 50.2290649
-85.0399017 50.6493301 53.7802200
-87.1357880 50.5064964 56.7917404
-154.7837219 50.1520653 66.6189728
-157.5374756 50.2644272 64.4170303
148.0905457 54.6568413 12.0291233
145.2509766 54.5472641 14.2547636
142.4941101 54.4599457 16.0613155
90.6534729 54.8879585 10.0329762
88.3731689 55.0165024 7.6164474
-83.1147461 53.2620621 48.8309593
-85.1552124 53.0731468 52.5748558
-87.2448578 52.9149055 55.7296600
-154.9714355 52.5536919 65.5896301
148.4537048 57.1876945 9.5910950
145.5633850 57.0604095 12.0813208
142.7690582 56.9550629 14.0758934
140.0335083 56.8784027 15.6919613
137.3495941 56.8068085 17.0448532
95.4616013 57.1857071 12.1308794
93.1414948 57.2963562 10.2004442
90.8338394 57.4253502 7.9458361
88.5557251 57.5782814 5.3149314
-85.3072739 55.5174561 51.1232758
-87.3784332 55.3415565 54.4329414
-89.4826965 55.1906662 57.2659760
-91.6150055 55.0615005 59.7424545
-149.8002777 54.7546692 68.1092987
-152.4630890 54.8544121 66.3908386
-155.1877441 54.9733429 64.3503876
145.9317017 59.6067810 9.4806175
143.0999451 59.4872322 11.7087584
140.3306274 59.3914490 13.5100527
137.6405182 59.3179398 14.9668598
95.6609802 59.7265778 9.9778824
93.3460999 59.8542099 7.8880076
-85.4916534 57.9868660 49.3464661
-87.5399475 57.7924728 52.8666153
-89.6339417 57.6268806 55.8501854
-91.7569427 57.4808350 58.4350662
-150.0210419 57.1683807 66.8389664
-152.7155762 57.2837753 65.0104599
146.3931885 62.2009430 6.2368488
143.5135651 62.0622253 8.8305187
140.6971741 61.9490929 10.8809118
137.9696350 61.8591995 12.5130787
135.2833862 61.7865143 13.8318844
132.6307220 61.7300262 14.8868141
100.5565338 62.0707397 11.0191975
98.2176666 62.1786270 9.3734341
95.8888092 62.3047409 7.4280930
93.5946426 62.4470215 5.1479774
-87.7352448 60.2698097 50.9784851
-89.8119736 60.0840759 54.1625977
-91.9253616 59.9271278 56.8786850
-94.0621796 59.7910995 59.2444305
-96.2100525 59.6719170 61.3235283
-145.0430908 59.4086075 68.3150940
-147.6373901 59.4980011 66.9632111
-150.2805786 59.6061478 65.3393402
-153.0014191 59.7330933 63.3836555
141.1322632 64.5497208 7.6861806
138.3612671 64.4407196 9.5990229
135.6407318 64.3574677 11.1038618
132.9736176 64.2905273 12.2862415
100.8211212 64.6599426 8.3338642
98.4904175 64.7812500 6.5299740
-90.0282440 62.5749435 52.1361771
-92.1259308 62.3968964 55.0460205
-94.2446442 62.2463112 57.5516357
-96.3910751 62.1131973 59.7421112
-145.3069153 61.8478050 66.7641678
-147.9213257 61.9501572 65.3150177
-150.5903015 62.0702553 63.5628281
136.0936584 66.9852524 7.7545300
133.3880005 66.9005203 9.1574593
130.7254944 66.8409195 10.2193394
128.1160736 66.7968826 11.0039043
110.6461639 66.9163513 10.2856226
108.2312012 66.9855881 9.3689461
105.8465271 67.0738678 8.2166615
103.4814987 67.1720276 6.8230391
101.1359711 67.2966385 5.1078510
-90.2886810 65.1019821 49.6660690
-92.3602982 64.9017792 52.8698006
-94.4629440 64.7320404 55.5625267
-96.6023788 64.5857849 57.8806381
-98.7588501 64.4586105 59.9125061
-100.9414978 64.3495789 61.6806679
-140.4883881 64.1347504 67.3211212
-143.0262146 64.2148743 66.2532806
-145.6092224 64.3113403 64.9585724
-148.2589111 64.4274216 63.3726349
133.9038696 69.5763474 5.2545900
131.2060394 69.5022202 6.5601044
128.5549469 69.4488144 7.5139198
111.0075989 69.5614624 6.9599590
108.6010056 69.6458817 5.9306350
106.2173462 69.7441559 4.6326113
103.8660583 69.8679581 3.0212107
-92.6428680 67.4513931 50.2034721
-94.7270050 67.2572479 53.1750755
-96.8497009 67.0945358 55.6785583
-98.9982834 66.9495468 57.8574066
-101.1635895 66.8333588 59.7264938
-140.7933350 66.6076431 65.4113770
-143.3589020 66.6996384 64.2468338
-145.9749603 66.8134384 62.8089905
129.1332703 72.1813202 3.0367398
126.4979248 72.1353760 3.9069633
123.8909378 72.1064453 4.4490747
121.3500366 72.1079102 4.6719313
118.8223877 72.1243439 4.5999441
116.3448486 72.1572418 4.2778716
113.8825684 72.2146912 3.6635394
111.4611511 72.2856445 2.8014755
-95.0416336 69.8299561 50.2712250
-97.1440887 69.6399918 53.0740776
-99.2725677 69.4780045 55.4450302
-101.4349899 69.3434982 57.4662094
-103.6165619 69.2256622 59.2125092
-105.8203888 69.1257095 60.7351227
-136.1093140 68.9550323 65.0711670
-138.6084137 69.0275574 64.2401581
-141.1603241 69.1164856 63.1858521
-143.7457123 69.2233200 61.8819504
-146.3880615 69.3506546 60.2724724
-97.4994354 72.2459717 49.8556900
-99.6039810 72.0599747 52.5352325
-101.7470322 71.8991928 54.7773018
-103.9183197 71.7688141 56.6785736
-106.1169891 71.6579132 58.3087502
-136.4874115 71.4839325 62.6680794
-139.0142517 71.5675201 61.7347641
-141.5841370 71.6698990 60.5422440
-100.0169373 74.7049713 48.8917122
-102.1285858 74.5243607 51.4685936
-104.2827454 74.3677216 53.6186752
-106.4697113 74.2368240 55.4324493
-108.6730347 74.1314621 56.9502983
-110.9059296 74.0446930 58.2368660
-131.9474030 73.9213943 61.2562752
-134.4131317 73.9801788 60.6625290
-136.9265594 74.0598450 59.8313293
-139.4804230 74.1557312 58.7468758
-104.7325745 77.0411682 49.8055115
-106.8921967 76.8897552 51.8973236
-109.0873108 76.7627411 53.6249619
-111.3017273 76.6587830 55.0483932
-132.4257202 76.5350037 58.0952759
-134.9142456 76.6071625 57.3691368
-137.4634399 76.7042389 56.3536224
-111.8072968 79.3597488 51.0521469
-114.0352249 79.2636337 52.3915634
-116.3043976 79.1907806 53.4482346
-118.5983734 79.1315308 54.2653122
-120.9171448 79.1002655 54.8353539
-123.2666550 79.0856094 55.1825752
-125.6498337 79.0916443 55.2911682
-128.0643616 79.1171036 55.1625404
-130.5143738 79.1642075 54.7910385
-133.0063324 79.2326202 54.1486206
-116.9311371 81.9729156 48.6021805
-119.2218552 81.9184875 49.5343742
-121.5443039 81.8701706 50.2076797
-123.9089203 81.8627014 50.5344849
-126.3027039 81.8668976 50.5932121
121.2979813 -20.2020836 -8.3658705
120.0276489 -20.2091179 -8.3871374
127.3507233 -18.8112907 -5.4484963
126.0111694 -18.7763519 -4.8950958
124.6837311 -18.7613659 -4.5300627
123.3636703 -18.7551537 -4.2434058
122.0932159 -18.7742119 -4.1351457
120.8046112 -18.7633781 -4.0112877
119.5313034 -18.7765236 -4.0392027
118.2744141 -18.8180389 -4.2072406
117.0293198 -18.8352871 -4.4372358
115.7915726 -18.8428192 -4.7950177
114.5791779 -18.8558655 -5.2265625
130.9350128 -17.4815693 -3.6740155
129.5659027 -17.4400558 -2.9124544
128.2217712 -17.4263783 -2.2825508
126.8791351 -17.4074402 -1.7179613
125.5682526 -17.4203491 -1.3620075
124.2517700 -17.4311066 -1.0946884
122.9677887 -17.4291172 -0.8849152
121.6970978 -17.4455662 -0.7944028
120.4303894 -17.4598064 -0.7698942
119.1573257 -17.4665947 -0.8161692
117.9065552 -17.4908314 -0.9729674
116.6675568 -17.5009079 -1.1659917
115.4226990 -17.5138836 -1.4585271
114.1956787 -17.5396080 -1.8557293
112.9867020 -17.5604153 -2.3384342
111.7772598 -17.5839729 -2.9580235
110.5822144 -17.6133118 -3.6433344
109.3949051 -17.6550541 -4.4280787
108.1972656 -17.7266541 -5.3531179
134.6833191 -16.2027740 -3.0452526
133.2735443 -16.1648140 -2.0077698
131.8800964 -16.1394596 -1.1195314
130.5129395 -16.1237450 -0.3600153
129.1658020 -16.1241894 0.2442575
107.8781738 -16.3576279 -2.1814582
106.7109680 -16.3928928 -3.0619965
105.5479431 -16.4372082 -4.0575352
104.3801346 -16.5242729 -5.2339272
137.0926056 -14.9060383 -2.0879478
135.6476593 -14.8695602 -0.8556539
134.2532654 -14.8507853 0.1607359
132.8807220 -14.8457718 0.9998312
131.5095673 -14.8360538 1.7378628
130.1649170 -14.8284788 2.3507795
128.8410645 -14.8165712 2.8722601
107.6007309 -15.0561209 0.4771875
106.4134827 -15.0980330 -0.3466508
105.2383881 -15.1262608 -1.2316966
104.0834503 -15.1593790 -2.2327709
102.9169693 -15.2101068 -3.3854575
139.5637054 -13.6444817 -1.5663974
138.1003723 -13.6191301 -0.2216924
136.6784821 -13.5997486 0.9284621
102.6548462 -13.9163475 -0.7072424
142.0871277 -12.4203472 -1.5153408
140.6063232 -12.3658533 0.0296002
139.1614380 -12.3452225 1.3408982
137.7335205 -12.3263550 2.4729083
136.3542023 -12.3191814 3.4219511
102.4120331 -12.6276283 1.5412722
101.2452240 -12.6613102 0.5098762
100.1015930 -12.6916285 -0.6182433
98.9588013 -12.7408810 -1.8705878
97.8064957 -12.8206463 -3.2460413
143.1683960 -11.1405764 -0.2245782
141.6913452 -11.1117601 1.2952751
97.5862045 -11.4839993 -0.8476353
96.4349670 -11.5535612 -2.2489686
-120.9571381 -12.0399971 39.4099731
-125.6909485 -12.0496359 40.3688126
-126.9251099 -12.0552244 40.2896500
144.2921906 -9.8785143 0.8233600
142.8254395 -9.8626366 2.3333986
141.3561401 -9.8414812 3.6637421
97.3764038 -10.2083454 1.2391984
96.2254562 -10.2562962 -0.0598134
-113.6710968 -10.7828293 39.2227020
-114.7449341 -10.7415771 40.2932243
-115.8520050 -10.7054167 41.2003632
-116.9558182 -10.6872702 41.9667587
-118.0821381 -10.6770744 42.6316338
-119.2228012 -10.6822071 43.1660919
-120.3787079 -10.6827240 43.6186371
-121.5392380 -10.6808319 44.0083389
-122.7137375 -10.6855173 44.2454376
-123.9023972 -10.6796265 44.4299011
-125.1029205 -10.6956530 44.4814796
-126.3172150 -10.7013140 44.5107536
-127.5410233 -10.7177162 44.4099731
-128.7810364 -10.7106895 44.2186127
-130.0434418 -10.7319546 43.9068069
146.9419556 -8.6788788 -0.1047311
145.4389038 -8.6453304 1.6478561
143.9553223 -8.6162462 3.2185369
97.1954651 -8.9440565 3.1043904
96.0416107 -8.9865713 1.9099864
94.8910828 -9.0301361 0.6113607
93.7704773 -9.0627890 -0.8111001
-109.9503021 -9.5408792 39.6943207
-111.0152283 -9.4845600 41.0023994
-112.0897903 -9.4595814 42.1175156
-113.1785583 -9.4437256 43.1208115
-128.3216095 -9.4541883 47.4702759
-129.5556641 -9.4614744 47.2693176
-130.8027344 -9.4835129 46.9922791
-132.0785370 -9.4960833 46.5881653
-133.3637848 -9.5039835 46.0801392
-134.6632080 -9.5510130 45.5021667
146.5997772 -7.4061360 2.3626361
145.1067352 -7.3686161 3.9358478
143.6541443 -7.3560295 5.2788491
97.0218964 -7.6907024 4.7564464
95.8717575 -7.7240047 3.6488574
94.7246552 -7.7575989 2.4472485
93.5988464 -7.7787318 1.1515378
92.4579926 -7.8329601 -0.3171228
-108.4490356 -8.2347946 42.0780563
-109.5144196 -8.2160368 43.2998123
-110.5961990 -8.2006617 44.3835602
-111.6864853 -8.1942120 45.3238068
-112.7773819 -8.1829052 46.1696167
-127.9348602 -8.1966562 50.1815376
-129.1551208 -8.2140484 50.0152626
-130.3936462 -8.2246752 49.7815475
-131.6545410 -8.2339983 49.4630394
-132.9161530 -8.2440071 49.0703545
-134.1901245 -8.2528687 48.6067009
-135.4770660 -8.2810192 48.0244217
-136.8149567 -8.3313646 47.3276138
147.8261871 -6.1850843 2.9260163
146.2977600 -6.1555676 4.4408598
92.2960281 -6.5593572 1.5020382
91.1614761 -6.5988264 -0.0159400
90.0261078 -6.6547217 -1.7033802
-104.9229126 -7.0572906 41.1069794
-105.9646606 -7.0033922 42.6371307
-107.0144272 -6.9884558 43.9496193
-108.0670471 -6.9706097 45.1275215
-135.0796204 -7.0240092 50.7061272
-136.3774109 -7.0415282 50.1179771
-137.6755371 -7.0608454 49.4463959
-139.0405884 -7.1301432 48.6361427
150.5937653 -4.9824772 1.1589527
149.0054321 -4.9431334 3.1837635
147.5012817 -4.9236484 4.8310771
146.0060730 -4.8914452 6.2971621
92.1395111 -5.3023205 3.1423621
90.9968262 -5.3386507 1.7062683
89.8728867 -5.3715110 0.1690470
88.7406616 -5.4397206 -1.5152311
-102.4149323 -5.8303499 41.2168732
-103.5007095 -5.7929826 42.7127991
-104.5692978 -5.7631702 44.1724930
-105.6145859 -5.7497110 45.4488983
-106.6893692 -5.7376709 46.6097031
-107.7655716 -5.7273898 47.6383514
-134.7389679 -5.7911143 52.9880829
-136.0344391 -5.8139415 52.4634705
-137.3096161 -5.8233790 51.8896255
-138.6241913 -5.8421106 51.2149048
-139.9544983 -5.8747463 50.4416618
-141.3265686 -5.9255738 49.5105438
-142.6911774 -5.9698796 48.4804382
150.2597961 -3.7091966 3.3028955
148.7138062 -3.6851549 5.0940161
89.7211075 -4.1140022 1.8302455
88.6029205 -4.1522474 0.2333607
-101.1353149 -4.5871496 42.3482780
-102.1661072 -4.5667562 43.9803162
-103.2080917 -4.5460954 45.3930359
-142.2629852 -4.6707964 51.0813522
-143.6467896 -4.7363958 50.0662003
151.4958801 -2.4855864 3.3511641
149.9744568 -2.4702134 5.1651263
148.4788666 -2.4572811 6.7481980
89.5804672 -2.8737669 3.3065200
88.4656448 -2.8983617 1.8228284
87.3166046 -2.9560332 0.1747450
-98.8010178 -3.3943319 41.5735474
-99.8175430 -3.3487659 43.3927994
-100.8421326 -3.3305364 44.9962387
-101.8828735 -3.3234112 46.3971367
-102.9443207 -3.2987485 47.6953125
-141.9108887 -3.4415627 53.3085327
-143.2490845 -3.4600787 52.4092827
-144.6285706 -3.5042496 51.3954697
151.2331238 -1.2513007 5.1299973
87.2151108 -1.6816595 1.7125612
86.0664673 -1.7332916 -0.0329495
-97.5027313 -2.1581814 42.4375000
-98.5233078 -2.1339984 44.2129478
-144.2851257 -2.2632706 53.5440559
-145.6524963 -2.3027878 52.5324478
152.5048676 -0.0360343 4.9858403
151.0016479 -0.0259103 6.7038836
87.0796967 -0.4375869 3.0604112
85.9561768 -0.4674621 1.4212893
-95.2356186 -0.9832348 40.9492607
-96.2342911 -0.9421610 43.0104370
-97.2418365 -0.9219631 44.8196068
-98.2662354 -0.9125777 46.3969727
-143.9673615 -1.0383186 55.4687042
-145.3123779 -1.0576777 54.5397034
-146.7158508 -1.1046020 53.4938202
152.2553253 1.1968076 6.5496750
150.7679749 1.2025385 8.1517706
86.9663086 0.7974342 4.3048496
85.8423843 0.7788898 2.7507777
84.7102661 0.7426668 1.0527451
-94.9773712 0.2740338 43.4593201
-95.9891510 0.2871617 45.2876930
-146.3928680 0.1382253 55.3760567
-147.7685699 0.1168770 54.3029556
-149.1706543 0.0865628 53.1056290
155.1627045 2.3949845 4.1566916
153.5979004 2.4022024 6.1537571
152.0396118 2.4172146 7.9310231
150.5680542 2.4226794 9.4238462
86.8655701 2.0306768 5.4466009
85.7249298 2.0082726 3.9321413
84.6041946 1.9886502 2.3130491
-93.7431335 1.4820933 43.7469330
-94.7483521 1.4901921 45.5875702
-95.7735138 1.5061623 47.2540359
-146.1303101 1.3399560 57.0558090
-147.4756775 1.3281009 56.0863838
-148.8675690 1.3084691 54.9766769
-150.2935028 1.2587568 53.7551270
154.9059448 3.6174846 5.6712804
153.3826294 3.6229711 7.5046120
84.4991150 3.2210002 3.4847112
83.3831635 3.2034659 1.7960231
82.2599182 3.1704407 -0.0786657
-92.5105362 2.6815388 43.8231812
-93.5294037 2.6962140 45.7558746
-148.5686035 2.5216126 56.6936378
-149.9608765 2.4994688 55.5535545
156.2939148 4.8225956 4.9541473
154.7119446 4.8345022 6.9804320
153.2048187 4.8319044 8.6894865
84.4113083 4.4568577 4.5706654
83.2785339 4.4391732 2.9168837
82.1679840 4.4204025 1.1192061
-91.3222351 3.8929338 43.8501053
-92.3164673 3.8957696 45.7718964
-93.3440247 3.9045794 47.5262718
-148.3236847 3.7179623 58.2057266
-149.7138367 3.7025499 57.1288681
-151.1157379 3.6865745 55.9439049
157.6672516 6.0337162 4.1333637
156.0704651 6.0438619 6.2939425
82.0732574 5.6548638 2.2152948
80.9460449 5.6280227 0.3071366
-90.1302414 5.0860314 43.6582870
-91.1271820 5.0989537 45.6946335
-150.8485107 4.8916321 57.4931641
157.4549561 7.2509789 5.4531760
155.8826599 7.2563848 7.4784641
81.9902802 6.8859906 3.2317739
80.8804398 6.8740621 1.4084989
-88.9567337 6.2932997 43.3727798
-89.9464417 6.2980485 45.4643250
-90.9607849 6.3009005 47.3367386
-150.6301422 6.0805416 58.8813171
-152.0203247 6.0714035 57.7399521
157.2731934 8.4630451 6.6069646
155.7266541 8.4659510 8.5130320
81.9099884 8.1117201 4.1506777
80.7937164 8.1034908 2.3794432
-87.7761230 7.4804688 42.8560028
-88.7777100 7.4950352 45.0906219
-150.4197998 7.2721462 60.1493111
-151.8020630 7.2642269 59.0686264
-153.1719360 7.2551088 57.9096832
-154.5986023 7.2347779 56.5925446
158.7250214 9.6744452 5.5584922
157.1080475 9.6743717 7.6379604
155.5774841 9.6686573 9.4499292
81.8334198 9.3374538 4.9794750
80.7269669 9.3327122 3.2764838
79.5930634 9.3129005 1.4013691
-86.6427612 8.6904097 42.2317467
-87.6323166 8.6966009 44.5940895
-88.6178970 8.6916828 46.6248398
-150.2326202 8.4586067 61.3037643
-151.6060181 8.4487095 60.2818871
-152.9574127 8.4455633 59.1906052
-154.3551331 8.4370441 57.9512939
158.5368652 10.8874474 6.5899973
79.5370026 10.5484257 2.2723365
-85.5123825 9.8876915 41.4454460
-86.4822845 9.8922405 43.8956413
-152.7507324 9.6306810 60.3842163
-154.1319275 9.6280804 59.2171669
-155.5783691 9.6134892 57.8877068
160.0051880 12.0986452 5.2492456
158.3722992 12.0921755 7.5093298
79.4758987 11.7755966 3.0403366
-85.3644485 11.0961046 43.1026917
-86.3422470 11.0873728 45.3984451
-152.5826874 10.8120461 61.4481926
-153.9375610 10.8138180 60.3607178
-155.3640137 10.8102303 59.0941391
-156.8728638 10.7849407 57.6731606
161.5521240 13.3042698 3.6608891
159.8716431 13.3028011 6.1358047
158.2357635 13.2956791 8.3457489
79.4124680 13.0013399 3.7378621
-84.2388611 12.2918453 42.1005020
-85.2178650 12.2888393 44.5563354
-86.2133102 12.2788076 46.7193985
-155.1845856 11.9939957 60.1775169
-156.6542511 11.9826164 58.8280029
159.7135925 14.5122738 7.0038838
158.1282196 14.4949360 9.0675993
79.3535309 14.2230721 4.3759394
-84.1125412 13.4878540 43.5702209
-85.0983582 13.4772587 45.8765144
-86.1044922 13.4692993 47.9244766
-155.0222931 13.1731339 61.1663094
-156.4605408 13.1709719 59.8835030
161.2673187 15.7189398 5.3954329
159.5895081 15.7123508 7.7386312
158.0228577 15.6922884 9.7188969
79.3110123 15.4436665 4.9539385
78.1756439 15.4468031 3.0998540
-83.9957428 14.6842108 44.8779030
-154.8694153 14.3491745 62.0800362
-156.3019409 14.3531532 60.8439941
161.1038055 16.9296761 6.1608586
159.4727631 16.9123421 8.3979368
157.9081726 16.8938370 10.3298359
79.2613144 16.6624031 5.4485025
78.1415787 16.6715279 3.6712260
-82.8976517 15.8840637 43.6962051
-83.8806229 15.8649559 46.0187950
-154.7190704 15.5276489 62.9370384
-156.1506653 15.5307274 61.7319946
-157.5477600 15.5322599 60.4874191
161.0021820 18.1329041 6.7547431
79.2186127 17.8802891 5.8963389
78.0908890 17.8913345 4.1305203
-82.7972488 17.0749474 44.8572731
-83.7797012 17.0490131 47.0655975
-157.3996887 16.7117195 61.3320732
162.5697174 19.3562965 4.8790588
160.8977356 19.3338699 7.3138261
79.1826782 19.0988464 6.2864685
78.0413437 19.1100025 4.5221758
-81.7065735 18.2813854 43.4515228
-82.6990356 18.2562885 45.8877945
-83.6947021 18.2335968 48.0152512
-157.2593689 17.8874512 62.1249237
-158.6560669 17.8960571 60.8400192
-160.1609039 17.8886490 59.3704414
162.4773712 20.5605698 5.3983707
160.8314362 20.5331459 7.7784462
79.1492691 20.3164215 6.6264119
78.0214081 20.3313808 4.9199710
-81.6151276 19.4681206 44.4783516
-157.1300659 19.0630684 62.8583221
-158.5293579 19.0745659 61.5877266
162.3635254 21.7652569 5.8971381
160.7748108 21.7314472 8.1720448
79.1195068 21.5330639 6.9243426
-80.5718536 20.6840286 42.9324722
-81.5453873 20.6516933 45.4391022
-157.0331726 20.2337875 63.4982300
-158.4256592 20.2477722 62.2587395
-159.8764038 20.2574730 60.8792801
162.3245392 22.9669590 6.2391872
160.7088013 22.9315910 8.5221786
79.0990067 22.7492523 7.1669297
77.9495697 22.7664528 5.5092640
-80.4855652 21.8679314 43.8060799
-81.4537811 21.8315353 46.1943741
-159.7469940 21.4351158 61.5463524
162.2514648 24.1677666 6.5720806
160.6454010 24.1307220 8.8217125
79.0802994 23.9671783 7.3653922
77.9374084 23.9877548 5.7176809
-80.4156342 23.0511494 44.6013527
-81.3924103 23.0114746 46.9289246
-159.6277466 22.6099892 62.1701965
-161.1181183 22.6244793 60.6901054
162.2162170 25.3698540 6.7927599
160.5892792 25.3294525 9.0637512
79.0724487 25.1835423 7.5411315
-79.3786926 24.2759247 42.7346954
-80.3567276 24.2327690 45.3476677
-81.3414612 24.1910591 47.6156158
-159.5381165 23.7822037 62.7212715
163.8887329 26.6198959 4.3778653
162.1836090 26.5721817 6.9549274
160.5824127 26.5289478 9.1844254
79.0529938 26.4003410 7.6439490
-78.3237000 25.5033226 40.4545746
-79.3179855 25.4607506 43.4297752
-80.2939606 25.4143085 45.9831772
-81.2864380 25.3697701 48.1977768
-159.4635010 24.9544621 63.2021866
163.8784332 27.8279762 4.4524269
121.6154327 27.2834587 29.0052452
120.4002304 27.2800961 29.0039406
81.3134689 27.5654049 10.6410618
80.1759567 27.5910645 9.2110395
79.0315018 27.6184368 7.6834955
-79.2652512 26.6441498 44.0612717
-159.3900909 26.1263390 63.6348152
-160.8526154 26.1509857 62.2304916
163.8503571 29.0355911 4.5175266
121.6262054 28.4630871 29.0600433
120.3922272 28.4600792 29.0352802
81.3161392 28.7789822 10.6680164
80.1680908 28.8071518 9.2248249
-79.2250290 27.8266830 44.6149254
-159.3361511 27.2973480 64.0077591
163.8583679 30.2454967 4.4794302
162.1684570 30.1858253 7.0313168
160.5495148 30.1337452 9.2774372
81.3045959 29.9940453 10.6311436
80.1643906 30.0242081 9.1951084
79.0204620 30.0568047 7.6923094
-78.2021332 29.0693245 42.3517838
-79.1722717 29.0087872 45.0416031
-159.2510986 28.4699173 64.3729782
163.8940125 31.4583855 4.3474164
162.1593781 31.3916836 6.9625616
160.5556793 31.3378887 9.1921959
81.3099976 31.2094707 10.5657339
80.1705933 31.2419529 9.1297197
79.0368729 31.2769279 7.6309795
-78.1802902 30.2561970 42.8005562
-79.1502533 30.1919098 45.4789963
-159.2234192 29.6415138 64.6393967
-160.6568146 29.6712017 63.3207664
-162.1240845 29.7044106 61.8541527
162.2149963 32.6036987 6.7453909
160.5702209 32.5432396 9.0472040
79.0360031 32.4992943 7.4968371
-78.1517181 31.4430122 43.1879654
-79.1085358 31.3750343 45.7869911
-162.0600281 30.8801956 62.1493530
162.2220001 33.8120117 6.5576830
160.6151428 33.7522697 8.8117800
79.0444336 33.7231560 7.3220682
-78.1182404 32.6291542 43.4880829
-79.0911026 32.5595818 46.0652885
-162.0395050 32.0560913 62.3613739
162.2508850 35.0248604 6.2699218
160.6478119 34.9616241 8.5451565
79.0508652 34.9491959 7.0853291
-78.1127167 33.8169937 43.7334251
-79.0763931 33.7451134 46.2604065
-162.0034485 33.2337914 62.5332031
-163.4686584 33.2761459 60.9832001
162.3267365 36.2447739 5.8642387
160.7102966 36.1754913 8.1872721
79.0700989 36.1773720 6.8071551
-78.0997772 35.0074081 43.8434753
-79.0784912 34.9315491 46.4081650
-161.9792633 34.4117775 62.6608887
-163.4561157 34.4561272 61.1210251
162.4085083 37.4678650 5.4124947
160.7629395 37.3903084 7.7877102
79.1046066 37.4044647 6.5038004
-78.0969086 36.1992264 43.9106941
-79.0780563 36.1193848 46.4865952
162.5227966 38.6977310 4.8258314
160.8307343 38.6085587 7.3023171
79.1232300 38.6374283 6.1202073
-78.0930328 37.3924675 43.9241333
-79.0823212 37.3086014 46.5170441
160.9218292 39.8313103 6.7133551
79.1571808 39.8711357 5.6945314
78.0073700 39.9394531 3.8886662
-78.1124878 38.5854874 43.9255219
-79.0755920 38.5014763 46.4445496
-121.7959213 37.4504547 77.6115799
-122.9501648 37.4487610 77.6827087
-124.1170197 37.4467964 77.7198181
-125.2835007 37.4463310 77.7462997
-161.9817810 37.9533539 62.7335625
-163.4577484 38.0059776 61.2001076
160.9947662 41.0543365 6.0741119
79.1887817 41.1102600 5.2070804
78.0553513 41.1781311 3.3885579
-78.1266327 39.7836533 43.8058128
-79.0945282 39.6943741 46.3589096
-121.8061981 38.6053352 77.5848389
-125.2990494 38.6001129 77.7233429
-161.9905243 39.1367378 62.6785889
-163.4769745 39.1930275 61.1282730
161.1559143 42.3003998 5.3035798
159.4863586 42.2079086 7.7061753
157.8858032 42.1320877 9.7856960
79.2286530 42.3505516 4.6693311
-78.1527405 40.9829903 43.6142578
-79.1043243 40.8913727 46.1812668
-121.8066254 39.7581596 77.5346680
-125.3090057 39.7557373 77.6701050
-159.1352692 40.2209549 65.2898407
-160.5623474 40.2693024 63.9946938
-162.0099640 40.3217087 62.5707245
159.6040802 43.4394836 6.9823995
158.0124512 43.3594437 9.0726137
79.2721863 43.5973892 4.0521302
-78.1763611 42.1876297 43.3456497
-79.1435242 42.0870476 45.9933052
-121.8384705 40.9158287 77.4526825
-122.9890366 40.9120293 77.5211105
-124.1647491 40.9126396 77.5702591
-125.3166885 40.9105568 77.6077042
-159.1808472 41.4050522 65.1265945
-160.5841522 41.4524002 63.8335495
159.7743988 44.6921425 6.0997057
158.1053162 44.5906982 8.3242493
79.3180542 44.8488312 3.3534515
-78.1766663 43.4008064 42.9817810
-79.1713028 43.2904243 45.6911201
-159.1932373 42.5883026 64.9512634
-160.6251068 42.6406174 63.6258278
158.2444611 45.8310890 7.4745359
79.3699875 46.1047897 2.5957105
-78.2061081 44.6130905 42.5914078
-79.2087097 44.4959373 45.3303795
-159.2542419 43.7768097 64.6999207
-160.6846619 43.8324471 63.3664093
-162.1601257 43.8949509 61.8767242
158.4253540 47.0856552 6.4767179
156.7922974 46.9873466 8.5896015
155.3020935 46.9268837 10.3461714
81.6599579 47.2129211 5.3953681
80.5478439 47.2828369 3.6781731
79.4282455 47.3693962 1.7605588
-79.2473450 45.7060699 44.8879623
-159.3087616 44.9655800 64.4086304
-160.7462769 45.0248070 63.0320435
158.5638123 48.3320770 5.4395738
156.9285431 48.2262650 7.6430063
155.4257202 48.1607895 9.4775314
81.7342072 48.4646225 4.6209612
80.6112366 48.5439758 2.8122296
-79.2955627 46.9220390 44.3738861
-159.3767090 46.1600418 64.0618591
157.1028900 49.4835014 6.5494475
155.5509949 49.4001999 8.5267620
81.8018036 49.7273750 3.7199612
80.6808624 49.8163948 1.8389835
-79.3446884 48.1419983 43.7797356
-159.4439087 47.3553200 63.6910324
157.2984314 50.7490921 5.3321695
155.7257385 50.6555252 7.4068184
81.8737335 50.9964333 2.7143040
-79.3908539 49.3731155 43.0960693
-159.5332336 48.5569229 63.2513962
157.5584412 52.0433540 3.9173961
155.9070892 51.9138985 6.1837325
154.3498840 51.8269348 8.1453981
152.8232117 51.7498207 9.8708477
84.1786880 52.1054535 5.1097121
83.0665283 52.1840286 3.4584837
81.9478226 52.2789268 1.6075189
-79.4472275 50.6136475 42.2846222
-80.4697418 50.4641991 45.0837173
-81.4269485 50.3606873 47.4204788
-159.6169891 49.7609177 62.7655716
156.1594086 53.2076111 4.7733622
154.5268707 53.0873489 6.8978319
153.0095673 53.0126152 8.6976795
84.2807999 53.3714752 4.0946989
83.1554947 53.4622955 2.3427827
-80.5328140 51.6996422 44.2712097
-81.5123596 51.5774689 46.7485504
-159.7235107 50.9687424 62.1973495
154.7404480 54.3632011 5.4843206
153.1718445 54.2687874 7.4549851
151.6537018 54.1918411 9.1660681
150.1795654 54.1188202 10.6607285
86.6153793 54.4928017 6.0872278
85.4895935 54.5688171 4.5822721
84.3497314 54.6650391 2.8854308
-80.5896606 52.9514809 43.3419189
-81.5906906 52.8058052 45.9487877
-156.9916992 52.0410042 64.2083130
-158.3981934 52.1072350 62.9569778
-159.8276062 52.1805191 61.5825806
153.4012451 55.5567360 6.0534372
151.8308105 55.4518890 7.8853526
150.3630066 55.3849945 9.4330845
86.7007370 55.7773819 4.9441233
85.5878983 55.8514214 3.3885999
84.4748077 55.9446411 1.6529952
-81.6634979 54.0532455 45.0334282
-157.0895996 53.2487297 63.6101151
-158.5369415 53.3249207 62.2808762
-159.9728088 53.4021263 60.8660851
152.0509338 56.7368698 6.4142718
150.5646667 56.6604195 8.0803194
86.8269043 57.0507317 3.7503581
85.6999130 57.1474075 2.0592165
-81.7526245 55.2994194 44.0513916
-82.7594070 55.1594543 46.5198364
-83.7403412 55.0524521 48.6776352
-157.2122803 54.4635391 62.9349403
-158.6511078 54.5410385 61.5780029
152.3164673 58.0420074 4.7829056
150.7608490 57.9347687 6.6242008
86.9226532 58.3558464 2.3372524
85.8066711 58.4605141 0.5545266
-81.8366852 56.5734940 42.8580818
-82.8551178 56.4059448 45.5018539
-83.8369064 56.2859535 47.7784500
-157.3673859 55.6882858 62.1705399
-158.8101654 55.7697563 60.7757034
151.0206451 59.2409058 4.9143825
149.5234680 59.1505737 6.6303921
148.0146484 59.0689850 8.2148333
91.5582886 59.3199921 6.7659836
90.4406815 59.3772697 5.5339727
89.2864380 59.4740143 4.0798874
88.1746140 59.5633774 2.5457892
87.0622864 59.6590500 0.8403125
-82.9517365 57.6658783 44.3655930
-83.9348221 57.5314064 46.7435799
-154.6875000 56.7655106 63.8438721
-156.0839996 56.8364754 62.6681519
-157.5021057 56.9139786 61.3629112
-158.9623871 57.0060120 59.9102287
151.3569031 60.5777016 2.9009867
149.7682190 60.4485168 4.8813992
148.2275543 60.3534393 6.6470366
91.6765900 60.6141129 5.4336729
90.5427933 60.6928940 4.0786238
89.4080429 60.7871361 2.5727134
88.3114166 60.8774033 0.9798462
-83.0441132 58.9547653 43.0604134
-84.0507431 58.7872009 45.5936470
-154.8416595 57.9937668 63.0311584
-156.2377472 58.0659142 61.8183861
-157.6526794 58.1450729 60.4693298
150.1021118 61.8068695 2.8433585
148.4998169 61.6700363 4.8147211
91.8125305 61.9169388 3.9706573
90.6772690 62.0110817 2.5105526
-84.1701660 60.0598259 44.2717361
-85.1608429 59.9174995 46.6923485
-86.1460037 59.8050079 48.7731285
-154.9869385 59.2217102 62.1641159
-156.4028320 59.3035278 60.8824768
148.8395538 63.0424500 2.7383428
91.9544830 63.2351913 2.3366027
90.8400116 63.3243179 0.8037809
-84.2935333 61.3572426 42.7667046
-85.2925415 61.1821365 45.3643112
-86.2691956 61.0586929 47.5915756
-155.1497040 60.4613113 61.2010612
-156.5835724 60.5528259 59.8620071
147.5986023 64.2778854 2.3755679
146.0713654 64.1448212 4.0568891
144.6159668 64.0625916 5.5446339
143.1430054 63.9851456 6.9027724
96.6781082 64.2203827 5.7969499
95.5170898 64.3108063 4.6182566
94.3865128 64.3828430 3.4000723
93.2502060 64.4723434 2.0230765
92.1302490 64.5671616 0.5112647
91.0061111 64.6903992 -1.2083442
-85.4349136 62.4755249 43.8736038
-86.4127197 62.3250732 46.2750816
-87.4026871 62.2069969 48.3499680
-88.4145889 62.0959816 50.2144241
-152.5435486 61.5467682 62.5539703
-153.9319916 61.6277771 61.4048157
-155.3446350 61.7136078 60.1360779
146.4173279 65.5113220 1.7169549
144.9150848 65.3995361 3.4153628
143.4270020 65.3116379 4.9143505
96.8305359 65.5482330 4.1283321
95.6784592 65.6313705 2.8970387
94.5467377 65.7226868 1.5499152
93.4268188 65.8236771 0.0694737
-86.5464325 63.6215668 44.7870255
-87.5489960 63.4727020 47.0129089
-88.5468292 63.3609810 48.9777985
-152.7300873 62.7960968 61.5093918
-154.1181183 62.8756714 60.3163528
143.7440643 66.6691055 2.6592827
142.2467651 66.5655136 4.1478205
140.8123016 66.4959259 5.3978372
139.4145203 66.4303589 6.5180583
138.0209045 66.3904877 7.4726543
99.3134766 66.7312775 4.5645289
98.1493301 66.8107605 3.4602771
97.0073242 66.8897247 2.2722056
95.8671188 66.9794922 0.9432527
-87.6933594 64.7678528 45.4595604
-88.6925125 64.6325531 47.5965042
-150.1680603 63.8993073 62.5494614
-151.5383606 63.9726677 61.5129318
-152.9266815 64.0544739 60.3635750
139.7081757 67.7789536 4.4045873
138.2877655 67.7181091 5.4931917
99.4890060 68.0786057 2.6509526
98.3403015 68.1654358 1.4539539
97.2042160 68.2495117 0.1446755
96.0811615 68.3519135 -1.2991400
-87.8385315 66.0984192 43.7423592
-88.8463440 65.9293976 46.0354767
-150.3702240 65.1562042 61.4155464
-151.7450867 65.2371521 60.3238602
-153.1370850 65.3234787 59.1151810
140.0439301 69.1588516 1.9452077
138.6071320 69.0741959 3.1793990
137.1848907 69.0159760 4.2539520
135.8026123 68.9756699 5.1673193
102.0109787 69.2858505 2.7132173
100.8524780 69.3625870 1.6524186
99.7202454 69.4384308 0.5076323
98.5780411 69.5323868 -0.8191497
-88.9975662 67.2638550 44.2797852
-90.0218887 67.0887909 46.4832344
-91.0199280 66.9746552 48.3976936
-147.8590088 66.2707748 62.1632462
-149.2066040 66.3435669 61.2234421
-150.5726776 66.4208603 60.1855011
-151.9567261 66.5006714 59.0405426
139.0104065 70.4988174 0.4076088
137.5255127 70.3863220 1.6968224
136.1164398 70.3317947 2.7735200
102.2341766 70.6621857 0.4352403
101.0903473 70.7468491 -0.7540137
-90.1950378 68.4152222 44.6415520
-91.2128754 68.2576752 46.7881737
-148.0770569 67.5435944 60.9140778
-149.4315033 67.6167908 59.9198723
-150.8073425 67.7019958 58.8027954
137.9631348 71.8661804 -1.4046180
136.4964447 71.7582703 -0.0465335
135.0792084 71.6593170 1.0913301
133.7100220 71.6011505 2.0257287
132.3196106 71.5672226 2.8205848
130.9554901 71.5298386 3.5096378
109.5217514 71.6552353 3.1816211
108.3336029 71.7073898 2.5251436
107.1476898 71.7661133 1.7826264
105.9689560 71.8277435 0.9616784
104.8041763 71.9111176 0.0136690
103.6419296 71.9923401 -1.0476679
102.5059204 72.0727158 -2.2310185
-91.3918152 69.5984039 44.8746796
-92.3994446 69.4491043 46.9142609
-93.4118958 69.3340912 48.7228470
-148.2967682 68.8199768 59.5642548
-149.6761169 68.9035873 58.4801788
134.1162720 73.0563660 -1.0449064
132.6945801 72.9615936 -0.0538906
131.3102570 72.9170456 0.7680190
109.7815933 73.0621719 0.6971325
108.5981674 73.1169281 -0.0406486
107.4194717 73.1803207 -0.8812228
-92.5886993 70.8044891 44.9206467
-93.6075211 70.6484985 46.9169884
-148.5491028 70.1096649 58.0608482
131.7489777 74.4167786 -2.5871222
130.3662720 74.3221207 -1.6893373
129.0140991 74.2699661 -0.9766375
127.6735077 74.2332993 -0.4143028
126.3376465 74.2374725 0.0049435
125.0156631 74.2090073 0.3894125
123.7240753 74.2011871 0.6602583
122.4606018 74.1994171 0.8495363
121.1599350 74.2028351 0.9277147
119.8876038 74.2105331 0.8955113
118.6411591 74.2223129 0.7922648
117.4018936 74.2445450 0.6343160
116.1712646 74.2686081 0.4035441
114.9198608 74.3088303 0.0300330
113.7116241 74.3490372 -0.4152756
112.5055695 74.3871765 -0.9098492
111.3171997 74.4412384 -1.5117979
110.1177826 74.4957275 -2.2562420
108.9409943 74.5550842 -3.1202440
-92.8133774 72.1923981 42.6057854
-93.8347015 71.9883881 44.8415527
-94.8219223 71.8564682 46.7669029
-95.8391571 71.7452316 48.4931412
-143.4208984 71.1101608 60.2299767
-144.7288361 71.1724625 59.4444351
-146.0794525 71.2499847 58.5323105
-147.4486694 71.3362732 57.5016098
-148.8213196 71.4252625 56.3865662
128.1777344 75.7703323 -4.0961690
126.8299789 75.7020264 -3.3125544
125.4519501 75.6873779 -3.0838714
124.1301880 75.6442261 -2.6772294
122.8511353 75.6514664 -2.4082661
121.5498047 75.6538010 -2.3146138
120.2662354 75.6329041 -2.3284392
119.0120621 75.6604462 -2.4257493
117.7794342 75.7047043 -2.5775716
116.5414734 75.7367935 -2.8183529
115.3014374 75.7761688 -3.2476513
-94.0630875 73.3993225 42.4076767
-95.0631104 73.2069168 44.5556259
-96.0657959 73.0679321 46.4956169
-143.6757813 72.4138336 58.6896439
-144.9944611 72.4806213 57.8339348
-146.3657532 72.5663147 56.8278999
-95.3125916 74.6405487 41.8997841
-96.3163147 74.4404831 44.1536102
-97.3206100 74.3040619 46.0500908
-98.3440781 74.1831512 47.7416458
-141.3030396 73.5926971 58.5910721
-142.6145325 73.6505280 57.8444901
-143.9482727 73.7237778 56.9872780
-145.2765503 73.7992630 56.0397911
-98.6004181 75.5493622 45.4265747
-141.5715942 74.9055939 56.8586121
-142.8981323 74.9754562 56.0210266
-144.2637939 75.0633545 55.0473404
-145.6242981 75.1654205 53.9852829
-98.8855438 76.9980392 42.6415024
-99.9063263 76.8091888 44.5776672
-100.9227219 76.6826782 46.2923660
-101.9595337 76.5768280 47.8113441
-102.9980011 76.4952087 49.0997162
-139.2477112 76.1219864 56.4143677
-140.5492096 76.1778183 55.7120399
-141.8952026 76.2546844 54.8652992
-143.2316742 76.3364334 53.9383621
-101.2209702 78.1248703 43.4916573
-102.2535629 77.9696350 45.2402878
-103.2833099 77.8602066 46.7516327
-139.5683899 77.4629364 54.3810310
-140.9001465 77.5424805 53.5374794
-102.5605774 79.4693756 42.1373291
-103.6006927 79.3010559 43.9051666
-104.6506042 79.1641617 45.4722290
-105.6782455 79.0687332 46.8305817
-106.7523651 78.9760590 48.0869064
-107.8233490 78.9064026 49.1504364
-108.9079819 78.8224945 50.1526451
-110.0045547 78.7546768 51.0434761
-134.7184753 78.6011658 54.6590881
-136.0132599 78.6597977 54.1187057
-137.2987366 78.7171478 53.5187836
-138.6152649 78.7876587 52.7985306
-139.9440308 78.8552704 51.9609680
-141.2915039 78.9596710 50.9944191
-104.9991837 80.6785583 42.1671448
-107.0846100 80.4008026 45.2731552
-108.1487656 80.2991104 46.5294571
-109.2230225 80.2168732 47.6366119
-110.2997131 80.1420898 48.6351585
-135.0724182 79.9875717 52.3028793
-109.5923386 81.6526642 44.5849953
-110.6575317 81.5671616 45.7578583
-111.7355957 81.4876938 46.7638130
-112.8336716 81.4219055 47.6710320
-113.9304581 81.3627548 48.4703865
-115.0599365 81.3283386 49.1497154
-127.9413147 81.1775513 51.8464355
-129.1560516 81.1911926 51.6854591
-130.3978882 81.2229080 51.4190178
-131.6543884 81.2564697 51.0853157
-132.9098511 81.3014832 50.6766853
-134.2037354 81.3623810 50.1300011
-135.4869385 81.4386749 49.5117340
-112.1517792 82.9959259 43.3374100
-113.2423096 82.8868637 44.4037514
-114.3294983 82.8084106 45.3538895
-115.4293213 82.7480850 46.1734123
-128.3312836 82.6003265 49.0361595
-129.5657196 82.6317749 48.7865219
-130.8234863 82.6785507 48.4493332
-114.8229446 84.4380341 41.1661415
-115.9151764 84.3320999 42.2396622
-117.0241852 84.1985550 43.1153069
-118.1486282 84.1533966 43.8249321
-119.2765961 84.1193848 44.4450607
-120.4288406 84.0908203 44.9349213
-121.5866394 84.0656281 45.3254852
-122.7599411 84.0459290 45.6063461
-123.9479980 84.0377350 45.7896004
-125.1409454 84.0388107 45.8768349
-126.3643799 84.0587158 45.8365211
-127.5842209 84.0944443 45.7321281
-128.8309174 84.1546173 45.5012474
119.2344818 -20.6099815 -9.7882500
115.5488434 -20.7168484 -11.1334667
125.4056320 -19.8829117 -7.8908434
124.7378998 -19.8800869 -7.6455135
124.0958786 -19.8820496 -7.4749866
123.4306183 -19.8691006 -7.3129106
122.7692261 -19.8440113 -7.1838942
122.1197739 -19.8038197 -7.0994897
118.9346466 -19.8169842 -7.1960869
115.8281555 -19.8710823 -8.0042934
115.2156143 -19.8966522 -8.2440825
114.6071854 -19.9527378 -8.5617161
114.0375977 -19.9914761 -8.9412088
128.5055084 -19.2113609 -7.0832415
113.7756348 -19.2203865 -6.5934019
111.3854675 -19.3860455 -8.2194500
130.2936859 -18.5457401 -5.9888902
129.5985260 -18.4974804 -5.5502939
128.9048157 -18.4478760 -5.1567321
128.2220001 -18.4323177 -4.8315239
113.5649414 -18.5703907 -4.7052321
112.9636536 -18.5746460 -4.9579682
112.3656540 -18.5510883 -5.2341847
111.7550125 -18.5738621 -5.6146188
111.1494980 -18.6199932 -6.0068455
