-122.4240952 24.3472290 68.5724258
-124.7596893 24.3382473 68.7655182
-127.1080093 24.3313847 68.8529663
-129.4724121 24.3271790 68.8332443
-131.8598785 24.3250465 68.7010498
-159.9098053 24.4626083 57.3505249
153.5652618 28.4752769 1.3760688
150.5742188 28.4134865 4.4638758
147.6614075 28.3538971 6.9873476
144.8393555 28.3099060 9.0626068
82.7306290 28.3728123 0.7348121
-82.6925507 27.3225803 39.5964012
-84.7336731 27.2400284 43.5730820
-86.8283081 27.1710796 46.8900490
-120.1639709 26.6954994 67.9129639
-122.4775772 26.6846123 68.2108154
-124.8178940 26.6778297 68.4080658
-127.1611404 26.6722374 68.5064316
-129.5283356 26.6676006 68.4934158
-131.9087067 26.6665573 68.3562927
-160.0158081 26.8519936 56.7876930
150.8113556 30.8707371 2.7806849
147.8746338 30.8058338 5.4823666
145.0319214 30.7518845 7.6828575
142.2488403 30.7066746 9.5092812
139.5163269 30.6694031 11.0459595
87.4858627 30.7572060 4.1527877
85.1505661 30.8068466 1.8561934
82.8388748 30.8640709 -0.7797621
-84.8263702 29.6518612 42.6984634
-86.9113388 29.5702839 46.1333694
-154.6374512 29.1612129 60.1633415
-157.3638306 29.2013855 58.2741470
-160.1560516 29.2486725 56.0254707
151.1135559 33.3482361 0.7260907
148.1359253 33.2738495 3.6752830
145.2582550 33.2105026 6.0371513
142.4597168 33.1548233 7.9954743
139.7044678 33.1116257 9.6096554
87.6080170 33.2423019 2.6034267
85.2814789 33.3019562 0.1959247
82.9790268 33.3724136 -2.5959897
-84.9360504 32.0741653 41.5821762
-87.0107727 31.9810028 45.1520004
-154.7841492 31.5501060 59.3552780
-157.5240631 31.5973492 57.3957443
148.4378510 35.7577362 1.5204729
145.5310516 35.6826096 4.1029110
142.7052765 35.6212997 6.2038445
139.9312744 35.5700226 7.9348288
92.4298553 35.6288910 4.9194899
90.0841599 35.6797867 3.0121274
87.7547760 35.7440758 0.7968824
85.4321136 35.8172073 -1.7645364
-85.0737457 34.5120583 40.1565590
-87.1356812 34.4029694 43.9258385
-89.2380981 34.3108063 47.0805206
-91.3722382 34.2328835 49.7912941
-154.9664764 33.9489975 58.3533287
-157.7140198 34.0047684 56.3227005
145.8606720 38.1835785 1.7575318
142.9901886 38.1072121 4.0882130
140.1958618 38.0476646 5.9731121
92.5897903 38.1287842 3.0562487
90.2476807 38.1909637 1.0288494
87.9185791 38.2664948 -1.3371909
-87.2901611 36.8421249 42.4301453
-89.3821869 36.7364883 45.7462387
-91.5025406 36.6473923 48.5804138
-155.1827698 36.3605347 57.1458740
143.3418274 40.6197510 1.5630388
140.5111389 40.5483704 3.6577187
137.7531128 40.4889069 5.3570056
135.0337524 40.4420319 6.7473316
97.5013275 40.5297394 4.3488550
95.1360016 40.5841255 2.7435639
92.7838058 40.6484070 0.8834230
90.4412079 40.7267647 -1.3095617
88.1335754 40.8119926 -3.8627234
-87.4768677 39.2981300 40.6120033
-89.5426865 39.1772804 44.1415176
-91.6560211 39.0732155 47.1338272
-93.7968597 38.9857140 49.7096786
-95.9580994 38.9094353 51.9496155
-150.0428925 38.6645050 59.2106705
-152.7134399 38.7211075 57.6117516
-155.4298859 38.7853165 55.7114906
143.7705688 43.1602592 -1.5195230
140.8934631 43.0795517 0.8895395
138.0925598 43.0072746 2.8107495
135.3497925 42.9514771 4.3521538
97.7110977 43.0545807 2.0466676
95.3517838 43.1194992 0.3286055
93.0034790 43.1992683 -1.7028066
90.6829758 43.2849464 -4.0777845
-89.7432861 41.6400757 42.2054939
-91.8417282 41.5242538 45.3893013
-93.9718170 41.4226303 48.1119156
-96.1251068 41.3346939 50.4723358
-150.2961426 41.0881157 57.7400284
-152.9798126 41.1521759 56.0374947
138.5110626 45.5615921 -0.2617978
135.7239838 45.4908218 1.5178452
133.0085754 45.4364510 2.9130330
130.3331604 45.3986549 3.9881728
127.7033615 45.3657722 4.8422766
125.1001892 45.3419189 5.4399948
102.7314987 45.4856949 2.2865312
100.3422852 45.5464516 0.9379603
97.9683304 45.6071701 -0.6481935
95.6099319 45.6894226 -2.5498722
93.2781906 45.7794647 -4.7995052
-89.9902496 44.1298065 39.8462906
-92.0614243 43.9946289 43.3231430
-94.1801910 43.8780823 46.2541809
-96.3230133 43.7775917 48.7509804
-98.4876862 43.6936340 50.9242477
-100.6687851 43.6174660 52.8382645
-145.3403931 43.4152298 58.8050995
-147.9409637 43.4672356 57.5445557
-150.5962219 43.5324631 56.0077744
-153.3139038 43.6091537 54.1583099
136.1831360 48.0743675 -1.9723808
133.4388885 48.0092850 -0.3296703
130.7134094 47.9556847 0.9544449
128.0723419 47.9160309 1.9220719
125.4468460 47.8945999 2.6071920
103.0239487 48.0568390 -0.6460350
100.6393051 48.1247482 -2.1207280
98.2738647 48.2045364 -3.9030290
95.9334106 48.2976456 -6.0304737
-92.3286285 46.4954300 40.8181458
-94.4184341 46.3601494 44.0195122
-96.5450134 46.2486877 46.7046318
-98.7036133 46.1515427 49.0261688
-100.8821030 46.0622330 51.0509262
-145.6411438 45.8618202 57.0123787
-148.2613983 45.9209366 55.6466446
-150.9355621 45.9962463 53.9801674
133.9642792 50.6235924 -4.3673725
131.2014771 50.5711441 -2.8236408
128.5180969 50.5156822 -1.6155672
125.8576736 50.4804535 -0.7732959
123.2592468 50.4579926 -0.2090585
120.6766968 50.4511871 0.0999169
118.1299438 50.4459801 0.1987815
115.6210785 50.4636993 0.0277063
113.1206512 50.4798927 -0.3407914
110.6582870 50.5132027 -0.9368120
108.2069397 50.5556641 -1.7698938
105.7821350 50.6054382 -2.8370247
103.3784637 50.6765976 -4.2197137
101.0059204 50.7541542 -5.8954411
-94.7062225 48.8780136 41.3109741
-96.8147964 48.7444229 44.2841263
-98.9551926 48.6318741 46.7949219
-101.1244354 48.5379944 48.9429703
-103.3199615 48.4534988 50.8160858
-105.5277939 48.3858681 52.4462662
-140.8369446 48.2207718 57.1487427
-143.3827820 48.2665977 56.1646538
-145.9779053 48.3277893 54.9307175
-148.6308289 48.4017944 53.4177895
129.0840149 53.1695824 -6.1398463
126.3847961 53.1343727 -5.0553398
123.7538528 53.1045227 -4.2928162
121.1413956 53.0842094 -3.8526568
118.5858536 53.0866394 -3.7304626
116.0555267 53.0962524 -3.8562069
113.5514221 53.1196442 -4.2477846
111.0892639 53.1570206 -4.9080129
108.6324692 53.2074432 -5.8546352
-97.1367722 51.2849693 41.3278999
-99.2524185 51.1505127 44.1308670
-101.4097595 51.0403976 46.4765015
-103.5910492 50.9431038 48.4922028
-105.7956314 50.8611984 50.2417374
-141.1784363 50.6969452 54.9565010
-143.7572784 50.7567711 53.8493271
-146.3883667 50.8313942 52.4630051
-99.6233368 53.7077789 40.8729019
-101.7472076 53.5788345 43.5112381
-103.9175720 53.4708481 45.7350845
-106.1062851 53.3742981 47.6480789
-108.3229065 53.2999229 49.2539902
-110.5591278 53.2308159 50.6487732
-136.5217896 53.1087036 54.0885773
-139.0399170 53.1549797 53.3351212
-141.5934601 53.2104797 52.3584366
-144.2027588 53.2808952 51.1015320
-102.1748581 56.1707306 39.8256607
-104.3051224 56.0436859 42.3959389
-106.4772339 55.9349480 44.5291481
-108.6836319 55.8426895 46.3158340
-110.9108582 55.7633324 47.8355026
-136.9551697 55.6412811 51.2724609
-139.5064240 55.7000885 50.3856201
-142.0892639 55.7664642 49.2451172
-106.9393387 58.5493698 40.6468658
-109.1239166 58.4393349 42.7261887
-111.3335266 58.3495941 44.4305611
-113.5780792 58.2736053 45.8502808
-115.8486633 58.2137375 47.0044060
-118.1451187 58.1646042 47.9313507
-120.4628220 58.1342392 48.6306839
-122.8078003 58.1099625 49.1478653
-125.1726303 58.0970001 49.4594498
-127.5740356 58.1002426 49.5660057
-129.9865723 58.1088829 49.4959755
-132.4520111 58.1366959 49.1864204
-134.9411011 58.1748161 48.6539536
-137.4695435 58.2258530 47.8787079
-140.0544128 58.2963181 46.7909660
-114.0975418 60.9143982 41.7627029
-116.3516617 60.8403397 43.1027679
-118.6419449 60.7854004 44.1490440
-120.9643250 60.7499237 44.9173393
-123.3104553 60.7228546 45.4712448
-125.6883087 60.7104340 45.7820778
-128.0994873 60.7153397 45.8535767
-130.5421600 60.7320099 45.6973267
-133.0264130 60.7651939 45.2798653
-135.5530090 60.8158226 44.5669785
-123.9569321 63.4230652 40.6957932
-126.3519135 63.4122620 41.0053062
125.9196167 -37.7733574 -13.8655329
124.5662994 -37.7303162 -13.2484512
121.8997955 -37.6912155 -12.4359722
120.5803375 -37.6868591 -12.2212219
119.2815857 -37.7110863 -12.1682301
118.0171280 -37.7214890 -12.2042904
116.7463837 -37.7219467 -12.3292255
115.4840851 -37.7560310 -12.5201540
114.2344055 -37.8180504 -12.8921528
110.5687027 -37.9953156 -14.6559134
129.5638123 -36.4028625 -12.0538559
128.1634216 -36.3310699 -11.1548796
126.7938919 -36.2975082 -10.4798908
125.4403000 -36.2701492 -9.8893280
124.1154709 -36.2698326 -9.4655256
122.7889099 -36.2776566 -9.1602316
121.4845734 -36.2805786 -8.9243793
115.1086273 -36.3497620 -9.0516090
113.8535461 -36.3908119 -9.3999643
112.6238251 -36.4287338 -9.8372126
111.3920288 -36.4483414 -10.3098278
110.1797485 -36.4870377 -10.8732433
108.9667740 -36.5372543 -11.5603218
107.7691040 -36.6023483 -12.3926535
106.5744858 -36.7036095 -13.3491831
131.8890228 -35.0206642 -10.2975235
130.4805145 -34.9570618 -9.3351393
129.1062927 -34.9268341 -8.5234966
127.7449493 -34.9172478 -7.8526440
126.3997421 -34.8974571 -7.2743077
125.0603561 -34.8911438 -6.8329287
123.7456512 -34.8886948 -6.5095320
122.4403152 -34.8971939 -6.2754521
121.1440125 -34.8896790 -6.0677323
114.7934265 -34.9827843 -6.3664474
113.5500717 -35.0116234 -6.6583529
112.3159637 -35.0359612 -6.9981956
111.0779419 -35.0818405 -7.4480820
109.8632736 -35.1099358 -7.9424429
108.6379852 -35.1590462 -8.5802994
107.4412842 -35.2031593 -9.2862844
106.2524567 -35.2507324 -10.0819359
105.0610275 -35.3170547 -10.9512453
103.8777618 -35.4128456 -11.9864826
134.2951965 -33.6736870 -9.1670208
132.8741913 -33.6301689 -8.0781193
131.4853210 -33.6025200 -7.1724825
104.7726822 -33.9287491 -8.1479397
103.5884781 -33.9885254 -9.0661983
102.4127884 -34.0435638 -10.0761738
138.2850037 -32.4820061 -10.0919275
136.7803802 -32.3961525 -8.5991230
135.3274841 -32.3378677 -7.3174276
133.9104919 -32.2895317 -6.2241611
132.5346222 -32.2721977 -5.3692551
131.1489563 -32.2478142 -4.5862551
104.5328217 -32.5796890 -5.7525024
103.3308868 -32.6273766 -6.5672927
102.1338501 -32.6998596 -7.5254736
100.9546890 -32.7489166 -8.5241566
99.8002548 -32.8283424 -9.6848593
98.6373138 -32.9376717 -10.9697466
139.3174896 -31.1315250 -8.4566097
99.5648346 -31.4581032 -7.2360392
98.4005051 -31.5263081 -8.3940897
97.2326202 -31.6144638 -9.6703196
140.4197083 -29.8169174 -7.1673570
138.9458160 -29.7621212 -5.7456427
99.3590240 -30.1277809 -5.1266336
98.1841049 -30.1872768 -6.1833391
97.0210114 -30.2540665 -7.3550892
95.8558044 -30.3306885 -8.6469898
94.6923752 -30.4472084 -10.0826454
-121.8543777 -30.5442123 32.3175087
-125.3937302 -30.5147934 33.4213295
143.0187531 -28.5715866 -7.7266936
141.5372772 -28.5196724 -6.0892229
140.0609436 -28.4620838 -4.6350794
138.6289368 -28.4250755 -3.4252558
94.5056000 -29.0566616 -7.8102760
93.3496704 -29.1526985 -9.2429485
-115.6764679 -29.2521667 32.6663017
-116.7739410 -29.1812553 33.6863060
-117.8980179 -29.1416435 34.5218239
-119.0234528 -29.1117287 35.2700119
-120.1608734 -29.0984001 35.8611031
-121.3087921 -29.0876961 36.3671722
-122.4792099 -29.0857811 36.7897301
-123.6513367 -29.0739250 37.1318092
-124.8509750 -29.0813293 37.3468285
-126.0460663 -29.1024837 37.4724960
-127.2604675 -29.1038151 37.5572205
-128.4753723 -29.1131363 37.5380402
-129.7267456 -29.1284924 37.3973160
-130.9680481 -29.1304016 37.1931458
-132.2482452 -29.1601257 36.8570557
141.2153168 -27.1958714 -3.7866170
139.7734222 -27.1434326 -2.5274391
138.3555603 -27.1130142 -1.4539983
94.3136444 -27.7355728 -5.8333941
93.1658020 -27.7985649 -7.1388464
92.0156479 -27.8828869 -8.6190290
90.8517609 -28.0069275 -10.2515640
-111.9449768 -27.9596596 33.1213455
-113.0146027 -27.8971882 34.3494568
-114.1072311 -27.8443508 35.4290390
-115.2104645 -27.8204956 36.3400879
-116.3199005 -27.7989178 37.1474686
-117.4465408 -27.7769566 37.8826752
-118.5871887 -27.7596397 38.5211296
-119.7357559 -27.7518787 39.0401802
-120.8915939 -27.7472191 39.4735641
-122.0598907 -27.7384090 39.8583260
-123.2343140 -27.7321625 40.1616516
-124.4268723 -27.7416611 40.3634644
-125.6150513 -27.7396755 40.5303917
-126.8316193 -27.7514095 40.6002274
-128.0478210 -27.7654705 40.5931015
-129.2765503 -27.7722492 40.5372849
-130.5018921 -27.7811108 40.4047241
-131.7616882 -27.8113403 40.1576729
-133.0348358 -27.8397846 39.8470955
-134.3111572 -27.8556252 39.4319572
-135.6072845 -27.8862762 38.9083099
-136.9222717 -27.9346275 38.2778931
142.3913422 -25.9310436 -3.1039369
140.9476318 -25.8892174 -1.8328221
91.8286057 -26.5571938 -6.6576710
90.6811981 -26.6384392 -8.1253729
-110.4354477 -26.6111908 35.3897858
-111.5198975 -26.5664330 36.5294800
-112.6157074 -26.5361519 37.5532036
-135.1763916 -26.5546494 41.8352509
-136.4639893 -26.5860710 41.3097763
146.5814209 -24.7677956 -5.7978458
145.0838013 -24.7193546 -4.0938225
143.5713501 -24.6590710 -2.5394313
142.1207886 -24.6195660 -1.2247823
140.7019348 -24.5891895 -0.0768766
91.6806641 -25.2448654 -4.8738661
90.5284882 -25.3078041 -6.2610340
89.3739395 -25.4005146 -7.8105092
-105.8591919 -25.4738274 32.7954941
-106.8925400 -25.3912926 34.4287529
-107.9417191 -25.3411446 35.8810959
-108.9925690 -25.3119125 37.1495209
-110.0762024 -25.2738247 38.2646179
-111.1742249 -25.2405624 39.2756348
-112.2874298 -25.2111874 40.1903954
-134.8097229 -25.2441978 44.3005295
-136.0760345 -25.2678032 43.8788071
-137.3871460 -25.3115540 43.3401756
-138.6895294 -25.3397636 42.7359772
-140.0060425 -25.3705120 42.0405045
-141.3654480 -25.4587898 41.2147102
147.8249054 -23.5258083 -5.5330205
146.2837524 -23.4579792 -3.6952195
89.2264557 -24.0823460 -6.0898986
88.0728607 -24.1673393 -7.6478872
-104.4509201 -24.1742668 34.3223152
-105.4904404 -24.1139679 35.9120522
-139.6318817 -24.0660954 44.4782333
-140.9505463 -24.1062622 43.7655792
-142.2942810 -24.1612968 42.9484100
-143.6803894 -24.2460251 42.0213356
149.0733337 -22.2816029 -5.3786674
147.5252380 -22.2195568 -3.4961534
146.0297241 -22.1679859 -1.8773299
89.0869293 -22.7842903 -4.4985161
87.9460602 -22.8438549 -5.9483566
86.7839050 -22.9346256 -7.5831842
-101.0738831 -23.0593128 31.7315521
-102.0768280 -22.9572392 33.7899666
-103.0915527 -22.8922577 35.5608597
-104.1238480 -22.8450813 37.1030693
-105.1894684 -22.8023701 38.4916916
-139.3021545 -22.7767372 46.6124802
-140.6063385 -22.8105679 45.9887161
-141.9326172 -22.8484344 45.2614670
-143.2851105 -22.8960266 44.4269943
-144.6428528 -22.9492607 43.5078697
-146.0597992 -23.0435162 42.4228439
148.7902222 -20.9809227 -3.4538028
86.6605835 -21.6228600 -5.9958253
85.5165253 -21.7094021 -7.6604967
-99.7260284 -21.7799873 32.7574768
-100.7368851 -21.6872292 34.7778625
-147.0599823 -21.7878342 43.7161903
151.6869812 -19.8260250 -5.6922984
150.0910950 -19.7539005 -3.5988598
148.5402374 -19.6951942 -1.7633833
86.5382690 -20.3314381 -4.5445728
85.4035797 -20.3963070 -6.1179657
-99.4272766 -20.4456902 35.5138779
-100.4529495 -20.3887043 37.2778015
-146.6860046 -20.4544334 45.8901863
151.3920135 -18.5253525 -3.8496494
86.4103622 -19.0580940 -3.2585464
85.2783737 -19.1125946 -4.7532635
84.1394272 -19.1876812 -6.3840866
-97.1465759 -19.2645493 34.1337090
-98.1422958 -19.2041683 36.0757027
-99.1757660 -19.1511326 37.8430176
-100.2180328 -19.1036816 39.4052582
-146.3915100 -19.1932335 47.7860146
-150.5986938 -19.3735466 44.4570274
152.7285156 -17.3010082 -4.2592778
151.1389465 -17.2410660 -2.2045813
86.3134384 -17.7792778 -2.0538416
85.1722717 -17.8349953 -3.4944112
84.0354614 -17.8966026 -5.0619526
82.8968353 -17.9701157 -6.7670789
81.7236252 -18.0709801 -8.6879511
-95.8915558 -18.0301304 34.4669189
-96.8996964 -17.9623928 36.5102539
-97.9146957 -17.9198189 38.2511482
-98.9577789 -17.8682556 39.8410225
-100.0061646 -17.8408813 41.2355423
-146.1119537 -17.9311810 49.4834671
-147.4812012 -17.9706917 48.5814438
-148.8493042 -18.0069599 47.5829315
-150.2450562 -18.0637836 46.4741821
154.0821075 -16.0907784 -4.8280640
152.4756012 -16.0268574 -2.6523006
150.9467773 -15.9875097 -0.8139982
81.6443024 -16.7547398 -7.2978058
-94.6620941 -16.7935448 34.6901855
-95.6508484 -16.7449226 36.7048683
-148.5692902 -16.7534428 49.2714996
-149.9423523 -16.7969551 48.2475471
-151.3565063 -16.8598080 47.1184235
153.8285828 -14.8169918 -3.2577920
152.2549896 -14.7611933 -1.2504605
150.7387695 -14.7199917 0.4816265
81.5489197 -15.4714622 -6.0413122
80.4151001 -15.5466490 -7.9334373
-93.4297714 -15.5733337 34.7153816
-94.4317474 -15.5157986 36.8049927
-95.4466782 -15.4703827 38.6365433
-148.3186340 -15.5052557 50.7932167
-149.6808167 -15.5403118 49.8494339
-151.0655975 -15.5837240 48.7887115
-152.5109711 -15.6629992 47.5930710
153.6281738 -13.5613470 -1.9105260
81.4490128 -14.2001390 -4.9181404
80.3301086 -14.2639847 -6.7256889
-92.2210388 -14.3651400 34.5635490
-93.2102432 -14.3115215 36.6871872
-150.8225098 -14.3429832 50.2814178
-152.2261963 -14.3823891 49.1807480
-153.6653595 -14.4562244 47.9591446
155.0403137 -12.3444481 -2.6633801
153.4496155 -12.3028355 -0.6999367
81.3551331 -12.9371824 -3.9105427
80.2371521 -12.9876308 -5.6425714
-91.0289764 -13.1540489 34.2651634
-92.0272675 -13.0855141 36.5370941
-93.0193329 -13.0490971 38.4488907
-150.5789337 -13.1004562 51.6759529
-151.9752502 -13.1375360 50.6279335
-153.3920441 -13.1850615 49.4635582
-154.8198395 -13.2535830 48.2262115
156.4501495 -11.1445332 -3.7405519
154.8431549 -11.0958614 -1.5298451
153.2497559 -11.0517035 0.4202850
81.2786713 -11.6784983 -2.9716759
80.1504211 -11.7293720 -4.6280479
-90.8392792 -11.8839893 36.1619949
-153.1599426 -11.9430513 50.8444519
-154.5402222 -11.9842415 49.6922150
156.2617340 -9.8878841 -2.5714867
154.6614990 -9.8463774 -0.4476620
153.1057129 -9.8124104 1.3813623
81.2122650 -10.4194908 -2.1074457
80.0710678 -10.4703436 -3.7311587
-89.6793747 -10.6808224 35.6604118
-90.6727982 -10.6354523 37.8111839
-152.9557343 -10.7153540 52.0962906
-154.3238220 -10.7499771 51.0004311
-155.7303314 -10.7977810 49.7876320
157.7264404 -8.6952324 -3.7865343
156.1066742 -8.6475344 -1.5148635
81.1468048 -9.1695213 -1.3366568
79.9934616 -9.2177801 -2.9320734
-88.5177307 -9.4830132 34.9909286
-89.5128326 -9.4308205 37.2572823
-90.5266037 -9.3916397 39.2812386
-155.5051117 -9.5575933 51.0531921
-156.9801178 -9.6181355 49.7262726
157.5352020 -7.4400892 -2.6861076
155.9261475 -7.4007249 -0.4958047
81.0864639 -7.9196739 -0.6316403
79.9407501 -7.9630833 -2.1741362
78.8125458 -8.0032520 -3.8417172
77.6772614 -8.0559530 -5.6652961
-88.3664169 -8.2323828 36.5661926
-89.3703384 -8.1969233 38.6850204
-90.3972626 -8.1571465 40.6019783
-155.3025513 -8.3310480 52.2221451
-156.7462463 -8.3701305 50.9570961
157.3720093 -6.1958833 -1.7125117
155.7901459 -6.1664758 0.3586703
78.7411957 -6.7592101 -3.1503451
77.6197891 -6.8010726 -4.9182072
76.4732819 -6.8574662 -6.8618336
-87.2418747 -7.0319147 35.7571907
-88.2309875 -6.9922171 37.9857864
-155.1384583 -7.1180620 53.2666016
-156.5706177 -7.1526651 52.0585747
158.8679504 -5.0072088 -3.1377530
157.2266846 -4.9631915 -0.8631161
155.6778870 -4.9384499 1.0986452
78.6828156 -5.5102811 -2.5051141
77.5612946 -5.5484991 -4.2297406
76.4217453 -5.5967364 -6.1431227
-86.1187286 -5.8397422 34.7444496
-87.0973206 -5.8008986 37.1101341
-88.1076889 -5.7673016 39.2348289
-154.9678802 -5.8997784 54.2430725
-156.3874054 -5.9334641 53.0855331
157.1234436 -3.7345426 -0.1432119
155.5427856 -3.7053261 1.8184628
76.3675690 -4.3429918 -5.4869204
75.2065659 -4.4018149 -7.5130024
-85.9917908 -4.6020632 36.1120529
-154.8166199 -4.6889873 55.1327362
-156.2268677 -4.7180243 54.0232849
-157.6647644 -4.7493362 52.7936630
-159.1101074 -4.7897215 51.4718704
158.5994720 -2.5294850 -1.5967647
157.0161285 -2.5050974 0.5240901
155.4664307 -2.4863443 2.3999631
76.3241196 -3.0935349 -4.8769422
-84.8753815 -3.4131198 34.8723259
-85.8782806 -3.3707294 37.3499451
-154.6897583 -3.4858682 55.9400864
-156.0758667 -3.5079970 54.8870087
-157.5158691 -3.5394669 53.6919250
-158.9129486 -3.5650432 52.4535675
160.2035217 -1.3437725 -3.4070086
158.5123444 -1.3049705 -0.9887016
76.2674103 -1.8481214 -4.3482671
-84.7715759 -2.1803699 36.1035690
-85.7590714 -2.1548378 38.4051971
-157.3876038 -2.3332667 54.5079956
-158.7614288 -2.3527207 53.3300552
-160.1911011 -2.3907695 52.0205650
158.4294128 -0.0813418 -0.4314673
76.2242432 -0.6064953 -3.8769903
-83.6858826 -0.9906046 34.7165146
-84.6698303 -0.9591063 37.1922379
-85.6716690 -0.9350194 39.3899384
-157.2434082 -1.1257536 55.2848663
-158.6165161 -1.1463253 54.1377220
-160.0357666 -1.1743267 52.8492661
-161.5219269 -1.2120955 51.4101524
158.3339844 1.1439455 0.0813043
78.4794235 0.6896558 -0.1713215
77.3433228 0.6653534 -1.7679183
76.1877136 0.6344680 -3.4879346
-83.5872498 0.2351826 35.7715263
-159.8996735 0.0341710 53.6212921
-161.3676453 0.0073828 52.2139130
161.6334534 2.3215170 -4.4502354
159.8786926 2.3497190 -1.7505908
158.2358551 2.3672791 0.5349752
78.4580994 1.9262629 0.1440127
77.3118134 1.9019167 -1.4487824
-82.5039978 1.4235301 34.1184158
-83.5008545 1.4557123 36.7400093
-159.7871399 1.2353826 54.3184204
-161.2283020 1.2138753 52.9581375
161.5599670 3.5493369 -4.0404878
159.7994690 3.5727134 -1.3575778
158.2073059 3.5832710 0.8295572
78.4379272 3.1602392 0.4132702
77.2875137 3.1384218 -1.1678973
-82.4324036 2.6490695 35.0790482
-83.4265747 2.6724460 37.6103134
-159.6751099 2.4374332 54.9558105
-161.1167450 2.4179251 53.6204529
159.7738953 4.7917662 -1.0809494
158.1553650 4.8011198 1.1058993
78.3987732 4.3901372 0.5905147
77.2694016 4.3731241 -0.9440329
-82.3652573 3.8668323 35.9303932
-83.3497620 3.8796546 38.3428154
-159.5777283 3.6345050 55.5234337
-161.0169983 3.6172075 54.2150612
-162.5165100 3.5925913 52.7617073
159.7113342 6.0121751 -0.8096406
158.1043091 6.0185227 1.3357323
78.3931732 5.6216707 0.7630743
77.2478790 5.6056790 -0.7754110
-81.3072662 5.0585437 34.0289154
-82.2964249 5.0781860 36.6732521
-83.2919464 5.0884466 39.0258369
-162.3948059 4.7981997 53.3476181
159.7142334 7.2288079 -0.6985468
158.0997009 7.2322507 1.4601932
78.3911743 6.8526230 0.9041967
77.2293701 6.8382592 -0.6360898
-81.2620850 6.2791319 34.7915726
-82.2349396 6.2881241 37.3427200
-83.2373352 6.2939835 39.6395836
-162.3077087 5.9978848 53.8599358
161.3178406 8.4456263 -3.0184114
159.6551208 8.4477911 -0.5280655
158.0416718 8.4484882 1.6230342
124.0342865 8.3659763 20.3046989
122.7676392 8.3619099 20.4284019
121.5096970 8.3558149 20.5262470
120.2612610 8.3509321 20.6192284
119.0136414 8.3450212 20.6366100
117.7835007 8.3393621 20.6031876
111.6188049 8.3086710 20.1571274
110.4122620 8.3038864 19.9881401
109.1996460 8.2967243 19.7711620
107.9594269 8.2901793 19.5106258
106.7636719 8.2837343 19.2415810
105.5447159 8.2766409 18.9450016
-81.1968842 7.4889731 35.3940048
-162.2191772 7.1949682 54.3408890
161.3047028 9.6654530 -2.9466791
159.6548004 9.6644821 -0.4870342
158.0419922 9.6627226 1.6578393
124.0054474 9.5607700 20.3515511
122.7596512 9.5552168 20.4643993
117.7719727 9.5333042 20.6270962
111.6205521 9.5051527 20.1829395
110.3993683 9.4989491 19.9927845
106.7402267 9.4812527 19.2615738
105.5378494 9.4755068 18.9658794
-81.1556931 8.6998596 35.9771843
-162.1525726 8.3893652 54.7412186
161.3154755 10.8853874 -2.9927940
159.6428223 10.8812265 -0.4949797
158.0444946 10.8770256 1.6334269
123.9997406 10.7517376 20.3392677
122.7602539 10.7483521 20.4362488
117.7631149 10.7269173 20.6269569
111.6097183 10.7012968 20.1605873
110.3955460 10.6949711 19.9673157
105.5278625 10.6737003 18.9394054
78.3619461 10.5403385 1.0077173
77.2024384 10.5342560 -0.5260636
-80.1385803 9.9070473 33.7109756
-81.1139679 9.9066963 36.4637489
-162.0838318 9.5848379 55.0980034
-163.5691833 9.5741234 53.6592751
161.3305817 12.1059389 -3.0979009
159.6430969 12.0981665 -0.5644786
158.0343781 12.0908718 1.5815825
124.0227356 11.9472160 20.2805195
122.7552338 11.9406290 20.3895760
121.5036011 11.9360466 20.4617081
120.2715530 11.9317064 20.5355415
119.0076752 11.9254866 20.5969105
117.7694473 11.9214573 20.5925941
111.6067886 11.8965921 20.1170464
110.3765411 11.8915863 19.9451485
105.5354004 11.8714485 18.8974075
78.3455963 11.7696486 0.9300404
77.2017822 11.7658062 -0.5907904
-80.0820007 11.1152267 34.1420898
-81.0738297 11.1123238 36.8714142
-162.0293427 10.7785254 55.4002724
-163.5028992 10.7721329 53.9746628
-164.9814606 10.7619705 52.4765167
159.6661682 13.3153658 -0.7190667
158.0378571 13.3048544 1.4629406
111.6309357 13.0907450 20.0680752
110.4008789 13.0850954 19.8947582
109.1833878 13.0830259 19.6686478
107.9669342 13.0779305 19.4222240
106.7443390 13.0749235 19.1462593
105.5206375 13.0717497 18.8457718
78.3477478 12.9989071 0.8249951
-80.0782471 12.3256493 34.5836029
-81.0418015 12.3161383 37.2223053
-161.9944153 11.9701939 55.6391983
-163.4564819 11.9671659 54.2336159
159.6963196 14.5337086 -0.9210953
158.0646667 14.5194244 1.2622161
111.6157684 14.2899046 19.9751053
110.3860016 14.2838421 19.7909851
109.1859436 14.2789383 19.5831394
107.9606094 14.2779074 19.3386269
106.7561493 14.2727985 19.0694199
105.5426941 14.2691326 18.7665100
78.3676453 14.2283964 0.6934950
-80.0508499 13.5327282 34.8744736
-81.0311813 13.5210361 37.5254631
-161.9616394 13.1613092 55.8368378
-163.3990479 13.1615086 54.4685211
159.7463074 15.7528830 -1.2223264
158.1119385 15.7364645 0.9867191
78.3835068 15.4582005 0.5096403
-80.0290756 14.7399130 35.0781593
-81.0051270 14.7236195 37.6971626
-161.9394073 14.3530931 55.9852867
-163.3970642 14.3542862 54.6084518
161.5228577 16.9994965 -4.2294121
159.7810822 16.9706116 -1.5858536
158.1651917 16.9541626 0.6586798
78.3815231 16.6909847 0.2474988
-80.0183258 15.9462299 35.2320290
-81.0059128 15.9269867 37.8674774
-161.9141235 15.5441151 56.1039429
-163.3791504 15.5474510 54.7274246
161.6115417 18.2276497 -4.7347093
159.8569946 18.1946144 -2.0126967
158.1908264 18.1685028 0.3142502
78.4049683 17.9225368 -0.0292471
-80.0086060 17.1528549 35.3269882
-81.0059967 17.1296101 37.9505424
-121.7667847 16.7644844 68.8842621
-122.9283295 16.7601681 69.0213699
-124.0936432 16.7553234 69.1180191
-125.2816391 16.7508965 69.1721420
-126.4495087 16.7470341 69.2122040
-127.6235657 16.7430954 69.2405548
-161.9001770 16.7349892 56.1801529
-163.3757477 16.7409248 54.7882347
-164.8200836 16.7476311 53.3202286
158.2819977 19.3911209 -0.1730567
78.4307098 19.1550484 -0.3622858
77.2756042 19.1687717 -1.9570856
-80.0117340 18.3595047 35.3622360
-81.0089111 18.3329105 37.9598351
-121.7708282 17.9299126 68.9153442
-122.9241486 17.9251251 69.0449753
-124.0947037 17.9210567 69.1387634
-125.2760391 17.9167805 69.1931763
-126.4492798 17.9131355 69.2252960
-127.6287308 17.9095421 69.2462463
-161.8984985 17.9259605 56.2049026
-163.3657227 17.9342537 54.8207626
-164.8291168 17.9434929 53.3310432
158.3516846 20.6125031 -0.6801625
78.4444885 20.3924084 -0.7664532
77.3047867 20.4058113 -2.3804791
76.1553955 20.4246445 -4.1431947
-80.0340271 19.5660305 35.3456192
-81.0103302 19.5368290 37.8964043
-121.7731094 19.0964336 68.9033813
-122.9368896 19.0910053 69.0405502
-126.4534836 19.0794010 69.2175598
-127.6373672 19.0759163 69.2372055
-164.8418579 19.1400127 53.2952614
160.1460266 21.8801537 -3.7735922
158.4169617 21.8322639 -1.2519095
78.4882660 21.6264744 -1.1763636
77.3377304 21.6450691 -2.8518569
76.1982727 21.6654701 -4.6454206
-80.0348892 20.7754974 35.1758575
-81.0176773 20.7421417 37.7770538
-121.7652435 20.2619076 68.8647461
-122.9486847 20.2568321 69.0047913
-127.6368942 20.2421207 69.2040558
-164.8601685 20.3367729 53.2089653
158.5502777 23.0642357 -1.9924052
156.9424896 23.0294762 0.1901330
155.3954773 23.0054436 2.0780168
78.5041809 22.8682842 -1.6954396
77.3857651 22.8851700 -3.3576748
-80.0574188 21.9848042 34.9887009
-81.0405426 21.9468212 37.6304207
-121.7816849 21.4279213 68.7981415
-122.9499359 21.4240780 68.9318848
-124.1130524 21.4201965 69.0320206
-125.2938995 21.4162464 69.0898056
-126.4736786 21.4134426 69.1210861
-127.6537628 21.4103909 69.1427002
-161.9546814 21.5028362 55.9804535
-163.4080963 21.5179310 54.6010857
-164.8780670 21.5345879 53.0776939
157.0516357 24.2583084 -0.5296052
155.4819489 24.2275219 1.4464569
78.5465012 24.1074753 -2.2465129
77.4221649 24.1293964 -3.9549696
76.2797928 24.1586876 -5.8247871
-80.0811157 23.1961994 34.7277641
-81.0737000 23.1525421 37.4189606
-121.8015594 22.5968742 68.7025604
-122.9610519 22.5874310 68.8375320
-124.1311340 22.5877094 68.9318085
-125.3109283 22.5843811 68.9924545
-126.4860229 22.5804005 69.0363159
-127.6716461 22.5778446 69.0573120
-161.9795380 22.6959724 55.8275452
-163.4356384 22.7132645 54.4318466
-164.9034424 22.7324753 52.8961754
158.8241577 25.5419846 -3.6267934
157.1699524 25.4858856 -1.3191557
155.5881958 25.4520473 0.7260756
78.5802231 25.3548203 -2.8756945
77.4558029 25.3782997 -4.6330438
-81.0998001 24.3620853 37.1073227
-162.0155640 23.8916626 55.6230392
-163.4796143 23.9120350 54.2082138
157.3120575 26.7215462 -2.2186124
155.6869202 26.6796741 -0.0615345
78.6473541 26.5954132 -3.5219822
77.5112381 26.6257973 -5.3529811
76.3785095 26.6651802 -7.3437200
-80.1276245 25.6291046 33.9831657
-81.1323318 25.5730515 36.7228622
-162.0638733 25.0878181 55.3685646
157.4656525 27.9669209 -3.1973822
155.8309784 27.9133167 -0.9820142
80.9635162 27.7919006 -1.0519912
79.8270264 27.8175278 -2.5992396
78.6925735 27.8475876 -4.2887073
77.5609131 27.8824596 -6.1744280
-80.1669464 26.8497753 33.4689560
-81.1811523 26.7848282 36.2857246
-162.1145172 26.2850494 55.0668259
-163.5961456 26.3135033 53.6266403
155.9785004 29.1497498 -1.9866507
81.0229492 29.0380058 -1.7852590
79.8789368 29.0694962 -3.3944802
-81.2283173 28.0028400 35.7655106
-162.1883392 27.4857922 54.6969719
156.1708069 30.4007759 -3.1424980
154.5520325 30.3474178 -0.9922149
152.9823151 30.3028297 0.9088905
81.0839310 30.2864475 -2.5925770
79.9574356 30.3184700 -4.2263522
78.8279877 30.3552341 -6.0503740
-81.2749176 29.2245140 35.1816826
-82.2723999 29.1627884 37.7425728
-83.2699432 29.1124229 40.0098572
-162.2654266 28.6880608 54.2870255
154.7439728 31.6061287 -2.1212678
153.1339874 31.5438957 -0.1335285
81.1450729 31.5418701 -3.4913719
80.0430984 31.5708618 -5.1558456
-82.3298645 30.3810749 37.1106758
-83.3256912 30.3284340 39.4405060
-162.3629456 29.8934555 53.8067551
153.3070221 32.7895126 -1.2854033
81.2222824 32.8003769 -4.4716063
80.1010284 32.8386612 -6.2391872
-82.3938446 31.6040020 36.4228516
-83.3965149 31.5423489 38.8224640
-159.5820465 31.0386086 55.9476662
-160.9906006 31.0665283 54.6914635
-162.4501953 31.1027851 53.2933235
153.4890137 34.0417747 -2.5462344
81.2972260 34.0657005 -5.5664277
-82.4530182 32.8376617 35.6280975
-83.4724197 32.7608643 38.1255188
-159.6751099 32.2427406 55.4273529
-161.0996552 32.2744293 54.1278572
153.7188110 35.3091431 -3.9933982
152.1446228 35.2432556 -2.0077844
150.5952148 35.1934166 -0.1838863
83.6706696 35.2425766 -3.3662810
82.5278320 35.2870674 -4.9805403
81.3935623 35.3322754 -6.7413111
-83.5370331 33.9879532 37.2982559
-159.7663727 33.4484024 54.8597107
-161.2102356 33.4849243 53.5147629
152.3623047 36.5128250 -3.4771545
150.7968903 36.4474869 -1.5423332
83.7522125 36.5149155 -4.5383148
82.6224976 36.5572205 -6.2078562
-82.6183548 35.3161621 33.6967773
-83.6383514 35.2135658 36.4136925
-159.8859406 34.6618500 54.2104416
-161.3452606 34.7047234 52.8333931
151.0203705 37.7116165 -3.0515084
149.4687195 37.6607780 -1.2052737
147.9602966 37.6172180 0.3851531
86.1476212 37.6873245 -2.7069011
85.0004578 37.7346802 -4.1801987
83.8596268 37.7836761 -5.7923684
82.7385406 37.8365021 -7.5429940
-83.7083054 36.4626312 35.3245697
-84.6953659 36.3813210 37.7758789
-85.7129440 36.3139648 40.0133705
-157.1883850 35.8022919 55.9402046
-158.5771484 35.8347740 54.7934151
-160.0052795 35.8720894 53.5097847
151.2707214 38.9897919 -4.7257900
149.6762085 38.9233551 -2.7416580
148.1536255 38.8750801 -1.0241555
86.2532578 38.9596901 -3.9387605
85.1013107 39.0191841 -5.5088968
-83.8339386 37.6981697 34.2447548
-84.8102264 37.6115036 36.7764969
-85.7969666 37.5466537 39.0637398
-157.3270416 37.0195580 55.2171211
-158.7258911 37.0562592 54.0280647
-160.1571198 37.0959969 52.7147141
149.9465332 40.2053223 -4.5179253
148.3624115 40.1350708 -2.5831637
146.8657684 40.0898170 -0.9893938
145.4123077 40.0481720 0.4107403
86.3576736 40.2457848 -5.3251982
85.2274094 40.2955246 -6.9358616
-84.9200592 38.8612366 35.5945129
-85.9085541 38.7798576 38.0347748
-157.4624634 38.2330246 54.4482574
-158.8659821 38.2720032 53.2210159
148.6342468 41.4286423 -4.3534107
147.1033630 41.3595505 -2.6346676
145.6387024 41.3190002 -1.1243557
86.4745178 41.5356560 -6.8499374
85.3467789 41.5962563 -8.5869923
-85.0153656 40.1236916 34.2895432
-86.0249481 40.0207634 36.8751450
-157.6150208 39.4562302 53.5995140
-159.0201416 39.4972610 52.3345909
147.3786774 42.6590462 -4.4789805
145.8765411 42.5904655 -2.8193145
88.8905716 42.7149811 -5.3212981
87.7466583 42.7695236 -6.8436108
86.6116180 42.8289490 -8.5298405
-86.1460876 41.2769127 35.5946274
-87.1434021 41.1886902 37.9485168
-88.1505356 41.1172791 40.0422287
-154.9686890 40.5983543 54.9965286
-156.3507233 40.6401100 53.9003563
-157.7676849 40.6829262 52.6815643
-159.2042542 40.7325706 51.3423271
146.1651764 43.8891525 -4.7850094
89.0375061 44.0116501 -6.9775472
87.9065170 44.0741081 -8.6129818
86.7711792 44.1525688 -10.4398251
-86.2606354 42.5577126 34.1040993
-87.2819824 42.4397621 36.6266212
-88.2719345 42.3615494 38.8285561
-155.1237335 41.8237801 54.0895309
-156.5107117 41.8648643 52.9528618
-157.9502869 41.9159012 51.6537781
146.5040894 45.2264824 -7.0335903
144.9159698 45.1232910 -5.1515441
143.4046631 45.0600853 -3.5372744
141.9305420 45.0142212 -2.1546676
140.5111847 44.9720612 -0.9604741
91.4712067 45.2058144 -5.8408952
90.3280411 45.2612762 -7.2741041
89.1952057 45.3208008 -8.8545780
88.0684738 45.3999481 -10.6363106
-87.4219284 43.7128181 35.1443024
-88.4142380 43.6140633 37.4916344
-155.2868805 43.0523491 53.1045303
-156.6860809 43.0974808 51.9017334
143.7179260 46.3915062 -5.6642432
142.1991272 46.3083878 -4.1252832
140.7679138 46.2679520 -2.8268018
91.6358032 46.5139923 -7.6825161
-88.5631180 44.8792458 36.0038834
-155.4883728 44.2961998 51.9891701
-156.9070740 44.3422546 50.7078781
142.5397034 47.6542702 -6.4037867
141.0472107 47.5677490 -4.9238319
139.5956421 47.5156250 -3.5961225
138.1645050 47.4790878 -2.4514685
94.0983582 47.7260399 -6.8885942
92.9527130 47.7767410 -8.2543058
91.8161011 47.8451729 -9.7858753
-88.6988449 46.1815758 34.3083153
-89.7125549 46.0592117 36.6863289
-90.7189560 45.9706726 38.7968597
-152.8960876 45.4421921 53.0909081
-154.2759094 45.4851265 52.0084152
-155.7008057 45.5409431 50.7764359
141.4022522 48.9111328 -7.4083586
139.9031219 48.8304214 -5.8719730
138.4380798 48.7841949 -4.5725327
94.3018188 49.0382652 -8.9568024
93.1586761 49.1095428 -10.4876108
-89.8732147 47.3524971 34.9538040
-90.8834305 47.2389297 37.2115784
-153.0852356 46.6825294 51.9266777
-154.4965820 46.7371330 50.7507286
-155.9274139 46.7993889 49.4587021
138.7801971 50.1202469 -7.0202818
137.3198547 50.0663795 -5.7491684
135.8703308 50.0112076 -4.5853863
99.1270905 50.1587944 -6.2795982
97.9688797 50.2050400 -7.3513083
96.8027420 50.2591171 -8.5605106
95.6654587 50.3189354 -9.8979168
94.5210648 50.4037628 -11.4349766
-91.0608292 48.5323448 35.4331245
-92.0737152 48.4232025 37.6479149
-93.0719604 48.3504372 39.5441742
-150.5536804 47.8403664 52.7173119
-151.9216309 47.8882370 51.7285728
-153.3090820 47.9400406 50.6256332
-154.7332916 48.0035095 49.3797455
137.6834412 51.4503174 -8.4014397
136.2174072 51.3521881 -7.1197681
99.3520355 51.4943047 -8.5292130
98.1883087 51.5559959 -9.7564955
97.0407867 51.6180992 -11.0926247
-92.2580643 49.7184029 35.8026199
-93.2568283 49.6251984 37.8695908
-150.7691803 49.0942459 51.4296341
-152.1499329 49.1473007 50.3731880
136.6379700 52.7616196 -10.1858835
135.1895752 52.6561546 -8.8428574
133.7532196 52.6108360 -7.6915545
132.3321381 52.5661888 -6.6969967
130.9460602 52.5495148 -5.8739176
106.6945038 52.5810776 -5.5487614
105.5008774 52.6153603 -6.2266631
104.2976532 52.6552048 -7.0151329
103.1118774 52.7006493 -7.8887186
101.9297028 52.7498589 -8.8598156
100.7705994 52.7903214 -9.9187012
99.5970001 52.8601074 -11.1511641
-92.4488831 51.0565186 33.6623344
-93.4576416 50.9131393 35.9936028
-94.4652252 50.8202057 38.0327759
-95.4744568 50.7524681 39.7891159
-148.2770996 50.2635994 51.9401016
-149.6396179 50.3124237 51.0171928
-151.0052490 50.3612518 50.0078125
134.1932831 54.0469017 -10.8683891
132.7353210 53.9702988 -9.6855373
131.2948456 53.8894196 -8.6579275
106.9386597 53.9237366 -7.9347754
105.7568512 53.9712639 -8.6989584
104.5557175 54.0185394 -9.5749435
103.3722076 54.0594864 -10.5393610
102.2044601 54.1131897 -11.6415567
-93.6744995 52.2518654 33.7737122
-94.6766663 52.1239510 36.0051689
-95.6728058 52.0408821 37.9650879
-148.5079498 51.5233727 50.5256386
-149.8796997 51.5745888 49.5417595
-151.2604065 51.6327362 48.4437027
131.7700043 55.3472214 -12.1825180
130.3517761 55.2614288 -11.0750351
128.9620056 55.1986160 -10.1911221
127.5639496 55.1754341 -9.4522877
126.2030563 55.1494980 -8.8486557
124.8745728 55.1293068 -8.3278008
123.5635757 55.1198502 -7.9320445
122.2417908 55.1229248 -7.6779447
120.9322052 55.1189003 -7.5095859
119.6429672 55.1102104 -7.3994136
118.3683777 55.1100693 -7.3513680
117.1027069 55.1161118 -7.3878155
115.8280334 55.1219292 -7.5191798
114.5798645 55.1475906 -7.7700243
113.3341522 55.1589165 -8.0375681
112.1144409 55.1795464 -8.3867188
110.8706970 55.2020149 -8.8550186
109.6525269 55.2309532 -9.4155970
108.4376221 55.2670784 -10.0741682
107.2486801 55.2906647 -10.7778463
-94.9215775 53.4465332 33.6795959
-95.9123077 53.3302612 35.8978462
-96.9146652 53.2467346 37.8235626
-97.9373169 53.1691513 39.5279846
-146.0609741 52.7043304 50.7522888
-147.4104004 52.7541008 49.8935165
-148.7697449 52.8020401 48.9510231
-150.1508636 52.8561668 47.8843155
126.6475220 56.5918007 -12.3975716
125.2840881 56.5051651 -11.7004032
123.9638672 56.5021667 -11.2051582
122.6255646 56.5086899 -10.8421192
121.2963104 56.5021286 -10.6157179
120.0038605 56.4915085 -10.4772892
118.7203674 56.4882851 -10.3750076
117.4486923 56.4991379 -10.4193344
116.1758423 56.5051956 -10.5722475
114.9208832 56.5186806 -10.8026276
113.6731873 56.5515251 -11.0886917
112.4496765 56.5667496 -11.4735651
111.2235718 56.5871964 -12.0398779
110.0032654 56.6255951 -12.7074623
108.7951965 56.6869049 -13.4747581
-96.1460419 54.7052841 33.4209824
-97.1492157 54.5755692 35.6215401
-98.1706696 54.4727325 37.5059509
-146.3190765 53.9852066 49.1608009
-147.6969910 54.0385933 48.2203369
-149.0590057 54.0881195 47.1948395
119.1753006 57.8932724 -14.2420635
117.8926086 57.9108429 -14.2475891
-98.4108124 55.8372002 35.1575928
-99.4496765 55.7015648 37.0263901
-100.4723053 55.6241531 38.6792450
-143.9311523 55.1824341 49.0771484
-145.2763367 55.2296715 48.2692566
-146.5988770 55.2744446 47.3955765
-147.9921417 55.3364868 46.3573227
-99.7089462 57.0826302 34.5022659
-100.7397003 56.9465103 36.3997803
-144.2120667 56.4776421 47.2636757
-145.5818176 56.5385895 46.3465271
-146.9324951 56.5882797 45.3608932
-101.0087433 58.3618088 33.6167107
-102.0380783 58.2188263 35.5432320
-103.0951385 58.1071396 37.2327995
-104.1350098 58.0444870 38.6713371
-105.1951218 57.9782753 40.0007629
-141.8648224 57.7002487 46.8273697
-143.2033234 57.7415848 46.0603981
-144.5454559 57.7914276 45.1813278
-145.9072113 57.8545609 44.1782455
-104.4078140 59.4126091 36.1081123
-105.4732666 59.3059044 37.6109581
-142.1963959 59.0239601 44.6716232
-143.5485382 59.0792389 43.7872391
-144.9367218 59.1615334 42.7663078
-104.7162399 60.8507996 33.0151291
-105.8014450 60.7086258 34.7385483
-106.8476410 60.5853310 36.3000488
-107.9098206 60.5211449 37.6466179
-108.9756470 60.4623871 38.8605118
-110.0727158 60.4004936 39.9687805
-111.1661301 60.3588562 40.9139938
-112.2651672 60.3097000 41.7757645
-137.3027191 60.1933899 45.0513382
-138.5895081 60.2289200 44.4974709
-139.9028625 60.2732391 43.8372765
-141.2369690 60.3201370 43.0589905
-142.5834351 60.3792648 42.1623840
-109.3213501 61.8241081 36.0317154
-110.3957748 61.7555847 37.2823792
-111.4734955 61.7054291 38.3863525
-112.5739365 61.6585922 39.3509979
-137.6680908 61.5348740 42.6151924
-111.8468246 63.1068382 35.2869949
-112.9370956 63.0225983 36.4593811
-114.0356522 62.9540787 37.4418488
-115.1395416 62.9177094 38.3145905
-116.2635956 62.8877296 39.0959091
-117.3843994 62.8560410 39.7807961
-118.5357590 62.8277817 40.3726425
-119.6740646 62.7986755 40.8838577
-120.8349686 62.7754745 41.3215942
-121.9948883 62.7504883 41.6984329
-127.9684143 62.7283211 42.4609566
-129.1975861 62.7322693 42.4142151
-130.4214478 62.7439995 42.2916183
-131.6658783 62.7639847 42.0806389
-132.9226837 62.7831612 41.7968407
-134.1956482 62.8096542 41.4200897
-135.4872589 62.8353424 40.9487953
-136.7772827 62.8802261 40.3901291
-138.1042786 62.9508324 39.6881752
-116.6576538 64.2895966 35.9493484
-117.7717285 64.2480087 36.7437286
-118.9075012 64.2140884 37.4162025
-120.0461807 64.1830521 38.0050774
-121.2125854 64.1500168 38.4969864
-122.3718719 64.1236267 38.8975410
-128.3658752 64.1038895 39.6451950
-129.6007385 64.1170425 39.5602036
-130.8354950 64.1416397 39.3893318
-132.0837708 64.1526413 39.1216049
-121.6834717 65.5787125 34.8485222
-122.8375397 65.5426712 35.3530159
-124.0103683 65.5285187 35.7171173
-125.2131653 65.5196457 35.9732056
-126.4065704 65.5150604 36.1232872
-127.6245422 65.5180969 36.1664810
-128.8367004 65.5364075 36.0562592
122.7762299 -38.7401047 -15.3429089
121.9718170 -38.9221649 -15.8422537
121.3096771 -38.9213409 -15.7077141
120.6548309 -38.9161034 -15.5825052
119.9929504 -38.8982658 -15.5050678
119.3375473 -38.8617630 -15.4575472
123.0201797 -38.0952415 -13.6920004
111.5936584 -38.3085976 -15.1783981
127.5239792 -37.4860077 -13.6632452
126.8094330 -37.4099922 -13.2313128
123.4481430 -37.3532333 -11.8676748
122.7660446 -37.3328476 -11.6525755
113.1921310 -37.4979820 -12.2434397
112.5785217 -37.4823380 -12.4327364
111.9681625 -37.4989700 -12.7346601
111.3600769 -37.5366592 -13.0862522
109.5468597 -37.6855431 -14.1192007
108.9471664 -37.7174950 -14.4965591
108.3352814 -37.7782288 -15.0488234
107.7427139 -37.8119659 -15.5754881
105.7797394 -37.1849976 -15.1446943
131.1859131 -36.1136436 -12.2575302
130.4707184 -36.0564957 -11.7487497
105.6019516 -36.3966026 -13.1958208
105.0043564 -36.4883957 -13.7357731
103.0709839 -35.8869057 -13.7773123
135.0444183 -34.8379250 -12.2333364
134.3078156 -34.7966957 -11.5218248
133.5388947 -34.7208405 -10.7601013
132.8627167 -34.7054214 -10.2505503
102.9225616 -35.1002274 -12.0337143
102.3462982 -35.1524773 -12.6340065
135.4928436 -34.0900879 -10.9555464
136.7310181 -33.4580383 -10.6183310
135.9926147 -33.4077454 -9.9243298
135.2656250 -33.3526268 -9.2431803
101.4409561 -33.7654953 -10.2358694
97.6887741 -32.6673584 -11.2976255
97.1115494 -32.7358437 -12.0316486
96.3981247 -32.0870171 -11.3737612
141.1172180 -30.9187450 -9.7530279
140.3399353 -30.8465958 -8.8874359
96.2974014 -31.3442478 -10.0484495
95.7066269 -31.4135113 -10.7803516
95.1313782 -31.4829178 -11.5325890
-121.1452866 -30.9747238 30.6615906
-122.8963699 -30.9215755 31.5020180
143.7535706 -29.6854630 -10.4405861
142.9824066 -29.6195889 -9.4614286
142.2263489 -29.5791683 -8.5568523
141.4600372 -29.5331039 -7.6787071
93.7810516 -30.1830349 -10.6142473
93.1950073 -30.2527180 -11.4443474
-118.0283203 -30.3092880 31.1081486
-118.5782852 -30.2870674 31.5901451
-119.1322250 -30.2629147 32.0231972
-119.6971741 -30.2220421 32.4455643
-120.2639923 -30.1826992 32.7792854
-120.8247681 -30.1501579 33.0956535
-122.5674820 -30.1118050 33.8916512
-123.1587601 -30.1119347 34.0963745
-123.7334595 -30.1077271 34.2777824
-124.3265839 -30.1090946 34.4113579
-126.1215134 -30.1192245 34.7054939
-126.7329483 -30.1497307 34.7099876
-127.3644485 -30.1618099 34.7102013
-127.9786606 -30.1552734 34.7316170
-131.7393494 -30.2643147 34.1136513
-132.3976135 -30.3166809 33.8641624
-133.0408630 -30.3381958 33.6177673
-135.3677979 -29.6937752 34.4793205
92.4325562 -28.8987045 -9.8214617
91.8415909 -28.9679680 -10.6957369
91.2771912 -29.0268612 -11.5628309
-113.6350479 -29.0131721 31.7588825
-114.1785660 -28.9596138 32.3764915
-114.7219772 -28.9124050 32.9267998
-135.0442047 -28.9335461 36.7224388
-135.7152710 -28.9915829 36.3835526
-136.3637390 -29.0251408 36.0547676
-137.0401917 -29.0598049 35.6552696
-137.7259216 -29.0877380 35.2096596
142.4013824 -27.5678463 -5.4106312
-111.2950287 -28.3704414 31.0507565
-138.0922699 -28.3962097 36.8277130
142.9367523 -26.9422436 -4.9659495
142.2434998 -26.9002037 -4.2763004
-110.5048370 -27.6694660 32.3991394
-111.0382690 -27.6281738 33.1407776
-137.7936707 -27.6337852 38.6120949
145.8832550 -26.4188786 -7.3269582
145.0891876 -26.3338757 -6.3064308
144.3523407 -26.2831821 -5.4434428
143.5623016 -26.2564659 -4.6050191
89.8382721 -27.0838509 -9.8277893
-109.7522812 -27.0571384 33.5826645
-137.5477753 -26.9492836 40.1460915
148.1023254 -25.8939304 -9.3082857
147.2934570 -25.8318501 -8.1867638
146.4660492 -25.7652340 -7.0781889
145.6898956 -25.7211914 -6.1203375
144.9284973 -25.6886654 -5.2414322
144.1560364 -25.6559792 -4.3948264
143.4072571 -25.6303368 -3.6288400
89.7683411 -26.3946915 -8.8225555
89.1750717 -26.4682484 -9.6763391
-108.9983597 -26.3786030 34.6183662
-109.5246277 -26.3168087 35.2970467
-137.3571167 -26.2831764 41.5717278
-138.0251007 -26.3133831 41.2470551
-138.6546173 -26.3254623 40.9442520
-139.3176575 -26.3503151 40.5603027
-139.9963226 -26.3824844 40.1519165
-140.6833344 -26.4361935 39.7156219
-141.3976135 -26.4976139 39.2122459
147.8543091 -25.1724834 -7.9081779
88.5290833 -25.8416348 -9.5258493
148.4701996 -24.5464573 -7.7514324
147.6703644 -24.4884109 -6.6863818
88.4645615 -25.1501694 -8.5845938
87.8852386 -25.2100658 -9.4033203
-104.4694824 -25.2796307 31.3677425
-104.9910202 -25.2040863 32.3305511
-142.2847900 -25.1800480 41.2288895
-143.0019379 -25.2389755 40.6996918
149.1277313 -23.9371281 -7.7024059
87.2251511 -24.5952988 -9.3406839
149.7493896 -23.3155155 -7.6158214
148.9124756 -23.2412586 -6.4648342
87.1641769 -23.9155388 -8.4436827
86.5800629 -23.9818554 -9.3048220
-102.0825882 -24.0622082 30.7825890
-102.5937805 -23.9821434 31.9346294
-103.0777588 -23.9465218 32.8631477
-103.5842896 -23.8932114 33.8005028
-144.6078186 -23.9643040 41.9172287
-145.3326263 -24.0205498 41.3418045
150.3883667 -22.7070007 -7.5818043
85.9416962 -23.3666191 -9.3094282
85.8895035 -22.6779823 -8.4417858
85.3180618 -22.7350159 -9.3056850
150.0379944 -21.3517761 -5.3654437
84.6734543 -22.1357803 -9.4033489
150.6986694 -20.7455730 -5.4695916
149.8914490 -20.6996918 -4.4222560
84.6225128 -21.4576569 -8.5789919
84.0305786 -21.5251904 -9.5409012
-98.8900375 -21.5340366 31.8726139
-148.0041351 -21.5109901 43.4611702
84.5596542 -20.7929363 -7.7904587
-98.7427444 -20.8266735 33.4103622
152.8535461 -19.5798779 -6.9504023
84.4928360 -20.1456032 -7.0410790
83.9061508 -20.2077446 -7.9112620
-97.5869141 -20.2581100 32.6775436
-98.1065674 -20.1885147 33.8042030
-98.6038666 -20.1612511 34.7586174
152.6610870 -18.9031677 -5.9219923
83.2841873 -19.6000690 -8.0576057
-96.4430084 -19.7040710 31.7023373
-147.4857788 -19.5410805 46.6293106
153.3617249 -18.3015862 -6.1922913
152.5374756 -18.2571716 -5.0333452
83.2491684 -18.9317875 -7.3395486
82.6523819 -18.9943123 -8.2830410
-95.8431931 -19.0522652 31.9980850
-96.3439484 -18.9835529 33.1990166
-147.3429565 -18.9119740 47.5334167
-148.0455933 -18.9379673 47.0076523
-148.7041779 -18.9429359 46.5036964
-149.4402161 -18.9807701 45.8849411
154.0508881 -17.6964207 -6.4834719
-95.2145920 -18.4356823 32.1254616
-151.4283600 -18.4798183 45.0684776
154.7221375 -17.0875626 -6.7768483
153.8745575 -17.0349712 -5.5284333
80.8318634 -17.8247738 -9.8686380
-94.5959320 -17.8098183 32.2607498
-95.0790024 -17.7688236 33.3890724
-151.2428131 -17.8101101 46.0500832
-151.9844971 -17.8704472 45.4113808
155.4765930 -16.5067768 -7.2481012
-93.9425812 -17.2140484 32.2151413
80.7389755 -16.5132275 -8.4345446
80.1639557 -16.5626030 -9.4381256
-93.3441925 -16.5925941 32.3123703
-93.8427353 -16.5317421 33.5399895
-152.3842010 -16.6178436 46.6363373
79.5611572 -15.9643831 -9.8923512
-92.7131577 -15.9951286 32.2612724
155.0227203 -14.5608597 -4.5661316
-153.5152130 -15.3993702 47.0947342
154.9053650 -13.9203711 -3.8327856
79.4691696 -14.6618700 -8.5331020
78.8819580 -14.7125416 -9.5897417
-91.5219650 -14.7598457 32.1709633
154.8286743 -13.3065958 -3.1867309
79.4555283 -13.9992876 -7.9103293
-90.9331055 -14.1501122 32.0345116
