129.7210999 -50.6635666 -12.4503508
128.3211365 -50.6210632 -11.7032032
101.5923996 -51.1344528 -13.8956861
100.3940277 -51.2245331 -14.8081036
99.2038422 -51.2882500 -15.7787724
98.0181732 -51.3833847 -16.9484138
96.8532410 -51.4990463 -18.1971741
136.4823456 -49.5230179 -15.2198315
135.0194092 -49.4489517 -13.8829613
133.5967255 -49.3904572 -12.7529259
96.6205444 -50.0570374 -15.6718388
95.4451218 -50.1727448 -16.9319878
94.2624512 -50.3287048 -18.3336830
139.1026611 -48.2711716 -15.5057898
137.5912628 -48.1812744 -13.9528952
136.1552124 -48.1208878 -12.6650391
134.7166443 -48.0540085 -11.5077953
133.2951050 -47.9996452 -10.5117836
96.4045410 -48.6676941 -13.5004463
95.2220230 -48.7588196 -14.6444340
94.0566559 -48.8575745 -15.8905621
92.8953552 -48.9906845 -17.2862816
-122.7169495 -48.7046661 25.7738304
-123.8779831 -48.6422806 26.3427086
-125.0485840 -48.6165390 26.8008251
-126.2343292 -48.6120110 27.1289711
-127.4326248 -48.6101875 27.3561001
-128.6541138 -48.6096115 27.4973221
-129.8725739 -48.6130219 27.5225945
-132.3894196 -48.7221489 27.2465820
140.2547607 -46.9521294 -14.4778442
138.7386932 -46.8550949 -12.9240904
93.8513870 -47.4699173 -13.7895861
92.6978073 -47.5608444 -15.0559425
-116.5333099 -47.3641586 25.5858116
-117.6612167 -47.3166618 26.5953140
-118.7826309 -47.2874680 27.4594498
-119.9123993 -47.2334671 28.2829590
-121.0464020 -47.1977005 28.9779701
-122.1985092 -47.1757202 29.5668621
-128.1530304 -47.1574821 31.0760651
-129.3767090 -47.1655617 31.1298389
-130.5987854 -47.1717987 31.1278610
-131.8408813 -47.1949310 31.0153313
-133.1170044 -47.2437210 30.7865639
-136.9919128 -47.3863754 29.5568428
142.9488525 -45.7520599 -15.4621582
141.3957062 -45.6196747 -13.6254015
139.9292297 -45.5576706 -12.1358929
138.4491272 -45.4774628 -10.7579689
93.6768799 -46.1094818 -11.9382505
92.5102615 -46.1950531 -13.1052685
91.3350449 -46.3087006 -14.4572210
90.1788406 -46.4109421 -15.8737049
-112.8435211 -46.1301003 25.6207771
-113.9152985 -46.0282593 26.9350567
-114.9991989 -45.9738235 28.0561523
-116.0944214 -45.9232445 29.0571823
-117.2179108 -45.8697929 29.9692783
-118.3518372 -45.8422966 30.7112961
-119.4957733 -45.8177872 31.3761921
-120.6422348 -45.7891045 31.9870129
-121.8019714 -45.7689857 32.5094070
-127.7426453 -45.7388268 33.9428558
-128.9630432 -45.7561760 34.0043640
-130.1850739 -45.7668343 34.0159912
-131.4172821 -45.7902184 33.9347992
-132.6788788 -45.8199005 33.7657547
-133.9428101 -45.8378181 33.5526619
-135.2085876 -45.8672447 33.2303085
-136.4958496 -45.9013023 32.8268623
-137.7956543 -45.9492912 32.3297043
-139.1317902 -46.0200958 31.6955910
-140.4818573 -46.1179771 30.9439545
144.1422882 -44.4464989 -14.8641310
142.5977631 -44.3389549 -13.0333595
141.1017609 -44.2508926 -11.4489460
91.1710587 -44.9216309 -12.5820389
90.0122528 -45.0208626 -13.9189777
88.8363724 -45.1456909 -15.4103756
87.6844940 -45.2746124 -17.0114365
-110.2924194 -44.8013077 26.2709732
-111.3498611 -44.7189178 27.7090988
-112.4265900 -44.6543465 28.9578323
-139.9927368 -44.6400528 34.0042419
-141.3478394 -44.7285194 33.2774963
143.8214569 -43.0545921 -12.5795364
142.3002014 -42.9662285 -10.9376211
140.8395538 -42.8975182 -9.5401754
91.0195770 -43.5806503 -10.9571695
89.8490219 -43.6711349 -12.2115746
88.6974258 -43.7677307 -13.5755930
87.5293121 -43.8760147 -15.0943451
86.3660431 -44.0176125 -16.7292480
-107.8113251 -43.5394402 26.4275932
-108.8532333 -43.4541092 27.9840317
-109.9128723 -43.3859329 29.3405704
-110.9950638 -43.3222961 30.5581398
-112.0871506 -43.2652893 31.6506386
-139.6151581 -43.2713089 36.5104713
-140.9373627 -43.3261108 35.8900681
-142.2703400 -43.3800354 35.2068977
-143.6417847 -43.4741364 34.3850365
146.6703491 -41.9108353 -14.3464193
145.0635071 -41.7768402 -12.2967615
143.5450134 -41.6989250 -10.6166382
86.2219086 -42.6302490 -14.9401855
-105.3217010 -42.3159752 26.1694927
-106.4145355 -42.2041588 27.8319416
-107.4544907 -42.1362534 29.3104630
-141.8967896 -42.0100555 37.5492058
-143.2512207 -42.0755424 36.8083344
-144.6036072 -42.1472511 36.0122299
-145.9926758 -42.2619400 35.0813446
146.3476257 -40.5273743 -12.2264214
144.7954254 -40.4354286 -10.4335470
143.3092194 -40.3709030 -8.9264164
86.0770264 -41.2801590 -13.2689781
84.9326630 -41.3861923 -14.8593864
-102.9781418 -41.1425858 25.3095951
-103.9897995 -41.0272522 27.2541504
-105.0390320 -40.9202919 28.8921013
-106.1075668 -40.8274689 30.4148254
-107.1672745 -40.7691727 31.7211895
-141.5736694 -40.6785927 39.5764389
-142.9034729 -40.7281609 38.9482117
-144.2489624 -40.7796478 38.2343559
-145.5868073 -40.8424263 37.4293518
-146.9593811 -40.9221764 36.5048141
-148.3789063 -41.0317421 35.4176407
147.6288300 -39.2789726 -12.2561016
146.0711060 -39.1807938 -10.3920670
85.9455948 -39.9492302 -11.7970314
84.7937927 -40.0485382 -13.3123360
83.6296997 -40.1831398 -14.9568081
-102.6776047 -39.7058067 28.1027946
-146.6106720 -39.5676689 38.6371346
-147.9939880 -39.6318665 37.6854858
148.8988953 -38.0254059 -12.4046478
147.3602905 -37.9364548 -10.4818850
145.8452606 -37.8517380 -8.7985706
85.8366318 -38.6255379 -10.4744062
84.6731491 -38.7196846 -11.9055033
83.5296860 -38.8218651 -13.4466820
82.3613586 -38.9516945 -15.1747675
-100.3496552 -38.5447464 26.8589687
-101.3849487 -38.4210320 28.7907619
-102.4161911 -38.3392067 30.4551773
-146.3183136 -38.2489777 40.5094452
-147.6761169 -38.3050957 39.6624641
150.2708130 -36.8013077 -12.8237257
148.6798553 -36.7063522 -10.7581034
83.4224396 -37.4872742 -12.0723133
82.2532043 -37.5999985 -13.7439833
81.1018677 -37.7227936 -15.5204897
-100.1005325 -37.1634865 29.2395439
-146.0449829 -36.9418182 42.1797943
-147.4041138 -37.0007935 41.3909187
-148.7769165 -37.0608597 40.5127831
-150.1458130 -37.1236191 39.5506134
-151.5590820 -37.2232628 38.4586906
149.9982758 -35.4777756 -11.1540165
148.4262390 -35.3807144 -9.2119789
83.2974243 -36.1884460 -10.8948793
82.1538849 -36.2778358 -12.4268398
80.9975586 -36.3840714 -14.1325026
-97.8202362 -36.0079193 27.5969124
-98.8247986 -35.9191742 29.5019073
-99.8639526 -35.8324165 31.2544308
-145.8063049 -35.6446838 43.6875725
-147.1506348 -35.6979294 42.9650650
-148.5196533 -35.7607727 42.1471901
-149.8667908 -35.8160820 41.2694511
-151.2313843 -35.8768845 40.2877922
-152.6611938 -35.9648705 39.1398125
151.4004211 -34.2671509 -11.7575865
149.7996216 -34.1680222 -9.7153778
148.2368317 -34.0865707 -7.8985605
80.8804474 -35.0757446 -12.9180698
-96.5740814 -34.7736855 27.6797791
-97.5867004 -34.6769104 29.6641083
-150.9805603 -34.5828819 41.8969994
-152.3704834 -34.6498833 40.8593597
151.1642761 -32.9485397 -10.3088694
149.5809326 -32.8610764 -8.3712044
148.0529785 -32.7921371 -6.7041836
80.8064194 -33.7597351 -11.7514067
-95.3590698 -33.5310249 27.6878300
-96.3625336 -33.4414902 29.6957130
-97.3901825 -33.3575974 31.5027008
-150.7223206 -33.2931976 43.3738098
-152.1051331 -33.3588409 42.4027328
-153.5305786 -33.4311409 41.2840042
152.5407867 -31.7348690 -11.0555830
150.9700775 -31.6557617 -9.0267010
80.7270813 -32.4583588 -10.7004595
79.5635300 -32.5557709 -12.3490458
78.4222412 -32.6544456 -14.1492424
-94.1386032 -32.3137016 27.4685059
-95.1522522 -32.2156715 29.5800209
-153.2783661 -32.1388931 42.7615280
-154.7003021 -32.2132111 41.6361389
-156.1148071 -32.3002663 40.4474449
153.9509888 -30.5341110 -12.0195799
152.3645935 -30.4447136 -9.8176670
150.7816162 -30.3637619 -7.8578663
80.6338806 -31.1723919 -9.7881880
79.4699860 -31.2635956 -11.3795481
78.3333817 -31.3543816 -13.0924377
77.1896667 -31.4632492 -14.9833956
-92.9530945 -31.0956268 27.1122608
-93.9497375 -30.9967613 29.2969627
-94.9809113 -30.9079037 31.2618523
-153.0667877 -30.8651638 44.0825386
-154.4665070 -30.9228134 43.0380363
-155.8479462 -30.9931049 41.9160614
-157.2974854 -31.0944576 40.6438179
153.7821960 -29.2460213 -10.7936106
78.2665710 -30.0532951 -12.0940361
77.1143188 -30.1555500 -13.9375658
-91.7660141 -29.8907032 26.5623150
-92.7686539 -29.7843742 28.8810978
-155.6079712 -29.7128544 43.2559738
-157.0464935 -29.7916965 42.0241470
-158.5345154 -29.8909378 40.6663666
155.2500305 -28.0616264 -11.9570656
153.5959015 -27.9590378 -9.6538391
78.1734314 -28.7711678 -11.2551680
77.0431595 -28.8591137 -12.9910364
75.8734818 -28.9755116 -14.8962526
-90.6048660 -28.6839714 25.9188995
-91.5954285 -28.5819588 28.3144913
-92.6087799 -28.4896164 30.4440136
-155.4117126 -28.4493179 44.4589767
-156.8129578 -28.5122490 43.3180466
-158.2692566 -28.5885792 42.0239601
155.0775299 -26.7751884 -10.8628750
153.4516754 -26.6861897 -8.6783915
75.8153839 -27.6735878 -14.0258617
-90.4487839 -27.3729553 27.6308022
-158.0608215 -27.3168716 43.2531357
154.8798676 -25.4851303 -9.8312941
153.3036804 -25.4148788 -7.7823677
75.7563171 -26.3831539 -13.2242146
74.6009216 -26.4885311 -15.1945190
-90.2998276 -26.0886593 29.1214752
-157.8731689 -26.0604362 44.3698883
154.7663116 -24.2214622 -9.0042229
153.1654510 -24.1494732 -6.9874372
75.6997070 -25.1000290 -12.4870148
74.5404053 -25.1990185 -14.4542980
-90.1610260 -24.8154106 30.4417286
-157.6880493 -24.8049545 45.4052315
156.2944794 -23.0454807 -10.4773350
154.6365662 -22.9635677 -8.2428331
153.0553436 -22.8961754 -6.3003907
75.6394806 -23.8254871 -11.8271160
74.5073776 -23.9091301 -13.6940088
-89.0191650 -23.6311836 29.5141621
-90.0520020 -23.5462265 31.6420403
-157.5320740 -23.5591354 46.3306808
-158.9980164 -23.6242428 45.1067772
-160.4055328 -23.6849499 43.8600616
-161.8556671 -23.7668591 42.4963226
156.1520844 -21.7779560 -9.7284031
75.6073456 -22.5486717 -11.2014046
74.4446335 -22.6362152 -13.0795574
73.2705841 -22.7394218 -15.0933523
-86.9159164 -22.5415192 25.8352852
-87.9165039 -22.4371471 28.4424419
-88.9131393 -22.3650608 30.6654053
-89.9372711 -22.2981796 32.6677513
-160.2277222 -22.4326477 44.8250580
-161.6567993 -22.4979267 43.4960136
156.0394592 -20.5200500 -9.0616913
75.5416718 -21.2875652 -10.7212257
74.4079742 -21.3609047 -12.5058708
-86.8056107 -21.2592144 27.1486092
-87.7982178 -21.1766052 29.5645294
-88.8184204 -21.1018600 31.7264137
-89.8488159 -21.0385647 33.6554642
-160.0820923 -21.1943207 45.6910553
-161.4902496 -21.2535992 44.4162636
157.6107178 -19.3463116 -10.8173771
155.9503479 -19.2691841 -8.4854660
75.5032654 -20.0229950 -10.2689590
74.3579636 -20.0958786 -12.0264368
-86.6963730 -19.9952431 28.2866516
-87.6939774 -19.9237251 30.5870457
-159.9526367 -19.9570599 46.4769173
-161.3339539 -20.0068798 45.2698441
-162.8222961 -20.0749741 43.8414536
157.4992676 -18.0891323 -10.2512417
155.8699341 -18.0242710 -7.9866447
75.4870758 -18.7598000 -9.8453331
74.3112564 -18.8339920 -11.6061115
-85.6042480 -18.8230896 26.8236275
-86.5985870 -18.7394867 29.3118172
-87.6046677 -18.6705227 31.5216179
-159.8247528 -18.7255058 47.1963196
-161.2245941 -18.7780418 46.0040627
-162.6777039 -18.8342896 44.6479187
159.1139374 -16.9184895 -12.3908606
75.4428787 -17.5042439 -9.5214930
74.2874832 -17.5717602 -11.2170935
-84.5120392 -17.6624565 25.0891266
-85.5192719 -17.5606041 27.8267422
-162.5515289 -17.6028614 45.3892708
159.0385132 -15.6679897 -11.9292250
75.4217834 -16.2483673 -9.2197924
-85.4351578 -16.3122520 28.7104397
-162.4313049 -16.3711033 46.0603867
158.9600677 -14.4212971 -11.5541334
75.4064026 -14.9941044 -8.9648609
-84.3645325 -15.1450195 26.9754295
-85.3584671 -15.0696011 29.5115566
-162.3305664 -15.1463766 46.6458626
-163.8255310 -15.2011318 45.2325439
-165.3454895 -15.2657661 43.6989899
158.8993530 -13.1775122 -11.2692003
75.3719254 -13.7465839 -8.8017845
-84.3063049 -13.8915529 27.8114338
-85.2889175 -13.8333836 30.2115574
-162.2383423 -13.9232826 47.1771393
158.8609009 -11.9389000 -11.0453472
75.3650055 -12.4976044 -8.6531029
-84.2395859 -12.6557970 28.4626446
-85.2350769 -12.5990620 30.8273087
-162.1585846 -12.7055569 47.6460991
158.8334961 -10.7028656 -10.9051447
75.3465958 -11.2513771 -8.5675383
-83.1882629 -11.4860363 26.4442749
-84.1904907 -11.4205818 29.0718689
-85.1939240 -11.3665791 31.3888397
-162.0880432 -11.4887886 48.0580826
-163.5633240 -11.5346079 46.7364998
-165.0317535 -11.5803366 45.3274117
158.7813263 -9.4669380 -10.7764788
75.3422852 -10.0055313 -8.5093918
-83.1208649 -10.2553997 27.0101166
-84.1384277 -10.1895123 29.5993481
-85.1493988 -10.1410856 31.8595963
-164.9694519 -10.3637667 45.7325172
-166.4538879 -10.4161606 44.2424164
158.8018494 -8.2358980 -10.8196936
75.3295517 -8.7617970 -8.5176077
-84.0887833 -8.9633427 30.0307159
-85.1035309 -8.9193792 32.2453270
-164.8749695 -9.1434078 46.1250038
-166.3696442 -9.1929893 44.6374397
158.8201904 -7.0056725 -10.9264736
77.6679230 -7.4375801 -5.5933709
76.5048523 -7.4769087 -7.0157847
75.3294525 -7.5188699 -8.5711441
-83.0506592 -7.7870364 27.9363651
-84.0651169 -7.7366166 30.4336281
-85.0821075 -7.6960616 32.6044312
-164.8378601 -7.9317245 46.4156761
158.8206940 -5.7764897 -11.0654249
77.6675415 -6.1999540 -5.6901617
76.4923706 -6.2374392 -7.1330481
75.3399811 -6.2765622 -8.6555214
-82.0488586 -6.6102757 25.5300522
-83.0219650 -6.5594258 28.2918663
-84.0374603 -6.5152354 30.7366486
-85.0548706 -6.4785414 32.8740463
-164.7800293 -6.7178307 46.6807060
-166.2554016 -6.7584772 45.2182007
158.8465118 -4.5480013 -11.2970800
77.6639862 -4.9634953 -5.8359694
76.5046082 -4.9987445 -7.2613950
-82.0179977 -5.3821855 25.8347950
-82.9952927 -5.3357887 28.5601463
-164.7584686 -5.5090599 46.8694687
-166.2090912 -5.5452642 45.4369812
158.9289856 -3.3178363 -11.6237946
77.6790161 -3.7266343 -6.0076494
76.5109177 -3.7597475 -7.4451237
-82.0024796 -4.1549578 26.0914001
-82.9934082 -4.1123962 28.7915344
-164.7351685 -4.3001776 47.0184937
-166.1949463 -4.3346429 45.5880623
158.9643250 -2.0909581 -11.9878206
157.2799072 -2.0611968 -9.4668932
155.6717377 -2.0343082 -7.2944918
77.6848221 -2.4903429 -6.2387018
76.5212479 -2.5216112 -7.6762781
75.3452377 -2.5506389 -9.2152996
-81.9840012 -2.9317708 26.2020531
-82.9857101 -2.8930159 28.9137344
-164.7132874 -3.0922661 47.1274185
-166.1691895 -3.1243894 45.7161560
157.3528290 -0.8359468 -9.9076128
155.7251282 -0.8124534 -7.6757746
77.6963806 -1.2539785 -6.5059118
76.5357132 -1.2835134 -7.9500976
75.3581085 -1.3100884 -9.5133305
-81.9868927 -1.7076739 26.3517056
-82.9783020 -1.6747286 28.9672756
-164.7047729 -1.8861141 47.1877785
-166.1571350 -1.9155679 45.7765274
-167.6704865 -1.9483576 44.1863632
157.3949890 0.3870578 -10.3519945
155.7761230 0.4110268 -8.0989847
75.3838501 -0.0711895 -9.8538694
-81.9826050 -0.4866170 26.3589821
-82.9772873 -0.4573582 28.9665298
-124.0845184 -0.2705543 60.4870834
-125.2535858 -0.2753527 60.6224136
-126.4292221 -0.2808246 60.7115669
-127.6196136 -0.2869855 60.7457047
-128.8282166 -0.2939120 60.7762833
-130.0018616 -0.2999706 60.8147812
-164.6784973 -0.6799214 47.2288895
-166.1566620 -0.7076674 45.7855415
-167.6538239 -0.7374358 44.2010651
157.4713135 1.6104811 -10.9179897
155.8446350 1.6324149 -8.6119690
75.4169235 1.1692164 -10.2537785
74.2497406 1.1445215 -11.9798746
-81.9899063 0.7334117 26.2953777
-83.0007172 0.7600485 28.9766235
-124.0674667 0.9080426 60.4604111
-125.2563095 0.9030728 60.5909119
-128.8398590 0.8857192 60.7441711
-130.0040588 0.8789334 60.7852287
-164.7149353 0.5244931 47.1651001
-166.1752472 0.4998523 45.7471390
157.6111145 2.8461924 -11.6003227
155.9371643 2.8566933 -9.2234097
75.4579468 2.4083846 -10.6834240
74.2840881 2.3866067 -12.4744797
-82.0160065 1.9527565 26.1697884
-83.0036621 1.9758945 28.8467064
-124.1094055 2.0878322 60.3899918
-125.2615738 2.0807829 60.5226517
-128.8330994 2.0644193 60.7078705
-130.0080566 2.0579672 60.7415352
-164.7181396 1.7287799 47.0895081
-166.1879578 1.7065189 45.6634941
156.0416870 4.0812359 -9.9065151
75.4659119 3.6543992 -11.2247715
74.3195801 3.6324019 -13.0119896
-82.0435791 3.1717930 25.9556961
-83.0213242 3.1911397 28.6477394
-124.1167297 3.2641950 60.3038940
-125.2888184 3.2604554 60.4350739
-126.4666748 3.2545624 60.5277939
-127.6516724 3.2486701 60.5915604
-128.8360901 3.2414412 60.6413155
-130.0179443 3.2362399 60.6606102
-164.7448578 2.9329851 46.9534988
-166.2144012 2.9123416 45.5112839
156.1450348 5.3070083 -10.6309004
154.4969788 5.3121805 -8.3942413
152.9596863 5.3248234 -6.5335350
75.5118256 4.8954110 -11.7755928
74.3512268 4.8796053 -13.6167469
-82.0549850 4.3930364 25.6681366
-83.0568771 4.4065280 28.4188747
-164.7832947 4.1371284 46.7664185
-166.2557526 4.1192136 45.3105392
156.2948303 6.5475178 -11.4612923
154.6268311 6.5419559 -9.2063131
153.0584106 6.5480142 -7.2437658
75.5532761 6.1410055 -12.4152536
74.4039764 6.1251931 -14.2929859
-83.0878983 5.6215954 28.0980492
-164.8230591 5.3409572 46.5401421
-166.2862854 5.3247924 45.0913010
154.7266083 7.7605062 -10.0388632
153.1719055 7.7720823 -8.0355387
75.5926819 7.3874745 -13.1428719
74.4560394 7.3738103 -15.0534534
-83.1229248 6.8387122 27.6859913
-164.8735962 6.5462408 46.2652969
154.8836060 8.9961004 -11.0163670
153.2899475 8.9954004 -8.9097185
75.6486282 8.6350555 -13.9227018
-83.1544952 8.0577211 27.2264004
-164.9382782 7.7504377 45.9295998
-166.4367676 7.7423148 44.4301376
155.0674133 10.2400761 -12.1023455
153.4129486 10.2213898 -9.8655138
75.7127838 9.8847141 -14.7651339
-83.1929779 9.2799549 26.6767464
-84.2145462 9.2741137 29.2739468
-85.2220840 9.2739563 31.5426121
-165.0058136 8.9562759 45.5446053
-166.5182800 8.9520006 44.0138626
153.5774231 11.4561939 -10.9570827
75.7679443 11.1404924 -15.7217588
-83.2722321 10.4972410 26.0947514
-84.2742081 10.4900894 28.7055912
-85.2647705 10.4899902 30.9930134
-165.0867920 10.1623821 45.0998154
153.7732849 12.6976156 -12.1829453
152.1654358 12.6806126 -10.0721588
150.6011353 12.6773357 -8.1705484
78.1222305 12.4002590 -12.9603596
76.9880829 12.3929777 -14.7590313
75.8439255 12.3940668 -16.7760696
-84.3454437 11.7054529 28.0747280
-85.3257904 11.7024202 30.4139900
-162.2611847 11.3814907 47.3358765
-163.7089233 11.3764887 46.0304260
-165.2050629 11.3747215 44.5707397
152.3555450 13.9191656 -11.3381023
150.7522430 13.9057312 -9.2934532
78.2023468 13.6486368 -13.9564857
77.0596848 13.6513100 -15.8663750
-84.4124527 12.9276562 27.3460999
-85.3890991 12.9211750 29.7508621
-162.3439941 12.5871983 46.8429108
-163.8020020 12.5853300 45.5035706
152.5441895 15.1587086 -12.6970835
150.9344940 15.1409311 -10.5476542
80.5796432 14.9008036 -11.6768961
79.4300995 14.9011698 -13.2807951
78.2829666 14.9047527 -15.0768490
77.1361694 14.9141045 -17.0651131
-84.4800949 14.1518316 26.5179253
-85.4699402 14.1386690 29.0416088
-162.4461670 13.7930412 46.2868347
-163.9126587 13.7942600 44.9019928
152.8176117 16.4230251 -14.2734070
151.1104126 16.3746357 -11.8890743
80.6537170 16.1554680 -12.7576199
79.5033951 16.1619663 -14.4490318
-85.5484924 15.3590012 28.1914825
-162.5537109 15.0009785 45.6684532
-164.0105286 14.9986095 44.2430878
-165.5242615 15.0045004 42.6241837
151.3666534 17.6402569 -13.4657001
149.7365112 17.6059837 -11.3513117
148.1948242 17.5917339 -9.5224066
80.7459030 17.4056702 -13.9282055
79.5982513 17.4175034 -15.7055378
78.4578476 17.4383984 -17.6099491
-85.6425400 16.5822716 27.2126770
-162.6911621 16.2148590 44.9703979
149.9735107 18.8563004 -12.9236593
148.4063263 18.8346195 -10.9852734
80.8419571 18.6695671 -15.2487097
79.6982117 18.6867332 -17.1038857
-85.7548981 17.8074112 26.1695499
-162.8321838 17.4289207 44.2043991
150.2734375 20.1403561 -14.7490540
148.6482697 20.0907803 -12.5996904
147.1072693 20.0652409 -10.7802687
145.5864258 20.0477257 -9.1381302
83.2488174 19.9141998 -13.2982349
82.0972061 19.9290104 -14.9217243
80.9603424 19.9367008 -16.6915245
-85.8452988 19.0505161 24.9399376
-86.8416824 19.0128136 27.6086197
-87.8422852 18.9913273 29.9729309
-160.0836487 18.6284962 46.0127335
-161.5115662 18.6349964 44.7661781
-162.9651031 18.6423836 43.3728676
147.3515015 21.3238087 -12.4497089
145.7743530 21.2886276 -10.6374121
83.3554535 21.1786804 -14.7022896
82.2100296 21.1905823 -16.4117699
81.0764923 21.2140083 -18.2931709
-86.9570618 20.2457047 26.3973217
-87.9522552 20.2180557 28.8918400
-160.2234192 19.8396244 45.2037926
-161.6878357 19.8531399 43.8711243
-163.1457825 19.8639545 42.4302177
147.6283569 22.5955582 -14.3447447
146.0409393 22.5468941 -12.4060106
144.4909668 22.5225220 -10.6627674
143.0166626 22.5114498 -9.2223806
85.7763977 22.4146652 -13.1161776
84.6342773 22.4282932 -14.5800180
83.4719315 22.4486160 -16.2536354
82.3199921 22.4727669 -18.1056862
-87.0698318 21.4924164 25.0619392
-88.0769272 21.4404202 27.7048492
-157.5393066 21.0367565 46.6422386
-158.9505920 21.0475559 45.5325432
-160.3982697 21.0609245 44.2884445
-161.8473358 21.0730343 42.9278259
146.2943726 23.8034382 -14.3266582
144.7308655 23.7728844 -12.4466028
143.2373505 23.7558632 -10.8657293
85.9101715 23.6806316 -14.6113043
84.7495880 23.7060890 -16.2210350
83.6063461 23.7233810 -17.9851685
-88.2111053 22.6781464 26.3361206
-157.7012634 22.2531166 45.7556458
-159.1248779 22.2674236 44.5978737
-160.5554962 22.2806244 43.3253403
-162.0304108 22.3023186 41.8968201
145.0222473 25.0546875 -14.4793806
143.4774780 25.0164528 -12.7263203
142.0019836 25.0014114 -11.2184982
140.5324402 24.9708843 -9.8563290
86.0447083 24.9604359 -16.3145752
-88.3387451 23.9454460 24.8484993
-89.3470230 23.8851013 27.4123878
-90.3414764 23.8516331 29.6497383
-157.8712921 23.4742737 44.7957382
143.7708282 26.2790184 -14.8356113
142.2768860 26.2618275 -13.1913290
140.7890472 26.2405663 -11.7054701
86.2064514 26.2384682 -18.2051582
-89.5011063 25.1327667 25.8556595
-90.4840469 25.0899200 28.2269020
-158.0681763 24.7013760 43.7326431
142.5865326 27.5473557 -15.4210377
141.0450897 27.4902611 -13.7237415
139.5730743 27.4834309 -12.3035469
138.1063385 27.4629726 -11.0093365
90.9915695 27.4327641 -14.1533718
89.8207474 27.4586811 -15.4837036
88.6545105 27.4888248 -16.9570923
87.5194397 27.5060196 -18.5440922
86.3653564 27.5572796 -20.3997364
-89.6555023 26.4015007 24.0754375
-90.6538162 26.3331871 26.6931267
-91.6456299 26.2949486 28.9546165
-92.6744843 26.2574749 31.0019226
-155.4137573 25.8876896 44.9081726
-156.8323975 25.9080105 43.8055267
-158.2391663 25.9247551 42.6162720
141.4110565 28.8174038 -16.1593761
139.8440399 28.7432404 -14.4649191
138.3758850 28.7311954 -13.0399284
91.1519012 28.7141399 -16.0379448
-90.7969437 27.6139374 24.9443817
-91.8041077 27.5453949 27.3493080
-92.8208389 27.4999523 29.5259571
-155.6234741 27.1176529 43.7592812
-157.0444031 27.1393623 42.6055603
-158.4678650 27.1632233 41.3485069
140.2008820 30.0582371 -17.0011883
138.6661072 29.9918327 -15.3207178
137.2172546 29.9854412 -13.9960194
135.7838593 29.9620056 -12.7957449
91.3324280 30.0024529 -18.2019501
-91.9555206 28.8289204 25.5620880
-92.9956970 28.7462025 27.9130173
-155.8405762 28.3557167 42.5054665
-157.2626343 28.3765583 41.3029404
139.0556946 31.3418369 -18.1035614
137.5560608 31.2938557 -16.5110016
136.0930023 31.2448330 -15.1524620
91.5472717 31.3458786 -20.6575584
-93.1635590 30.0264053 26.0961952
-156.0685883 29.5921288 41.1543236
136.4879150 32.5975075 -17.9209576
134.9695282 32.5239334 -16.4874802
133.5082397 32.4868279 -15.2772942
132.0798035 32.4595451 -14.2220745
130.7051086 32.4563828 -13.3559141
98.7951584 32.4666519 -15.4232855
97.5986328 32.4930763 -16.4383202
96.4179230 32.5164642 -17.5621376
95.2536316 32.5422020 -18.8136749
94.0924225 32.5779076 -20.2042484
92.9338989 32.6465073 -21.8043098
-94.3497620 31.2418709 26.4086914
-95.3898697 31.1661091 28.5484772
-96.4039688 31.1237049 30.4407940
-97.4479980 31.0925961 32.1348572
-153.4932251 30.7862511 42.0063515
-154.8940277 30.8124161 40.8908501
-156.3358154 30.8453751 39.6374435
133.8739014 33.8326302 -18.0784664
132.4180756 33.7616234 -16.8862953
131.0122528 33.7378922 -15.8266926
99.0225983 33.7742157 -17.7817516
97.8393173 33.8000793 -18.9120693
96.6670151 33.8293648 -20.1580944
-95.5864029 32.4504318 26.5725365
-96.6040878 32.3854446 28.6261292
-97.6327896 32.3434830 30.4653034
-153.7377777 32.0318947 40.5210876
-155.1755981 32.0661736 39.2986450
132.8356934 35.1296539 -20.0755196
131.4031219 35.0842476 -18.8364525
129.9739990 35.0332603 -17.7997589
128.5524139 35.0034790 -16.8691349
127.1588287 34.9856033 -16.0686188
125.7942047 34.9769058 -15.4114790
106.5144348 34.9728317 -15.4941511
105.2805405 34.9961853 -16.1316547
104.0678864 35.0172920 -16.8352051
102.8504333 35.0266647 -17.5746918
101.6523972 35.0479355 -18.4375916
100.4614944 35.0782166 -19.4573498
99.2821426 35.0937080 -20.5803585
98.0917816 35.1597061 -21.8870201
-96.8115005 33.6707916 26.5507793
-97.8517380 33.5962524 28.6173019
-98.8749695 33.5632553 30.3738861
-99.9289246 33.5254555 31.9739571
-151.2228088 33.2354698 41.0359955
-152.6155853 33.2663727 39.9957962
-154.0220642 33.2916412 38.8438492
128.9605103 36.3656311 -20.0727768
127.5427856 36.3250389 -19.1586304
126.1519165 36.2843437 -18.3509464
106.7753906 36.2903557 -18.1324081
105.5498047 36.3084221 -18.8178177
104.3357773 36.3310776 -19.6074982
103.1316071 36.3652077 -20.5039597
-98.0628281 34.8831787 26.4553547
-99.1029282 34.8183784 28.4333649
-100.1347275 34.7865791 30.1376209
-151.5098877 34.4971924 39.3623962
-152.9012909 34.5239258 38.2455559
126.6224365 37.6940308 -22.0742683
125.2272263 37.6399117 -21.1390228
123.8313293 37.5934067 -20.4621162
122.4695282 37.5815086 -19.9504738
121.1155624 37.5689545 -19.5035934
119.8003006 37.5631294 -19.1450863
118.4783173 37.5573578 -18.9178181
117.1808548 37.5672989 -18.8725605
115.8802948 37.5654106 -18.8815479
114.5927734 37.5675507 -18.9374733
113.3385315 37.5676689 -19.0486355
112.0635910 37.5788536 -19.3297253
110.8012390 37.5919342 -19.7238998
109.5587158 37.5955582 -20.1526127
108.3273544 37.6119499 -20.6750832
107.1125336 37.6220779 -21.2912903
105.8943253 37.6512222 -22.1307678
-99.3438950 36.1167374 26.1414948
-100.3671722 36.0539246 28.0496063
-101.3991547 36.0045433 29.7742805
-102.4454193 35.9707108 31.2951279
-146.3227234 35.6524582 41.2375679
-147.6580505 35.6758194 40.4702072
-149.0269623 35.7040329 39.6024246
-150.4010773 35.7334366 38.6276817
-151.8266296 35.7729492 37.4917984
-153.2362976 35.8040390 36.2583809
122.9845200 39.0156174 -24.0787773
121.5975266 38.9832649 -23.4959621
120.2506561 38.9072723 -22.9745712
118.9259720 38.8954086 -22.6646919
117.5910187 38.9312401 -22.5400429
115.0032196 38.9077873 -22.5635662
113.7388458 38.9066620 -22.6741104
112.4722595 38.9266090 -23.0191612
111.2109222 38.9470215 -23.4620667
109.9689255 38.9983559 -23.9611149
-100.6048889 37.3861618 25.6448555
-101.6520081 37.2908554 27.5443153
-102.6918793 37.2373123 29.2408199
-146.6042175 36.9225349 39.5139084
-147.9428101 36.9449158 38.6921577
-101.9133072 38.6410484 24.9013176
-102.9622192 38.5342484 26.8464699
-104.0133133 38.4757423 28.5177612
-105.0646286 38.4315414 30.0455742
-106.1234894 38.3997726 31.3979492
-107.1995926 38.3608780 32.6237030
-144.2125854 38.1435165 39.1624260
-145.5546112 38.1657944 38.4322815
-146.9049683 38.1943321 37.6038971
-148.2546234 38.2190857 36.6915321
-104.2949982 39.8078995 25.9170876
-105.3364639 39.7358627 27.6209431
-106.3983536 39.6734161 29.1658878
-107.4567719 39.6466904 30.4843712
-144.5238647 39.4234505 37.1833305
-145.8700104 39.4480133 36.3651733
-147.2642212 39.4846115 35.4003716
-148.6303558 39.5222664 34.3758888
-106.7071991 40.9808083 26.5066719
-107.7508316 40.9340935 28.0022316
-108.8262405 40.8960457 29.3702183
-109.9033661 40.8602448 30.5887337
-139.5707397 40.6220703 37.5719833
-140.8758545 40.6445961 37.0477753
-142.1882629 40.6616516 36.4482651
-143.5212708 40.6851425 35.7444458
-144.8782043 40.7121849 34.9230461
-146.2400665 40.7470856 33.9908676
-108.0928192 42.2688904 25.0539246
-109.1547470 42.1996689 26.6296425
-110.2194061 42.1594887 28.0149326
-139.9117432 41.9166222 35.3662148
-141.2358093 41.9367752 34.7573318
-142.5578003 41.9657593 34.0521393
-143.9035797 42.0004959 33.2534218
-145.3043671 42.0618820 32.2789841
-110.5377502 43.5169220 24.9142628
-111.6613770 43.4403763 26.2822628
-112.7356644 43.3895493 27.5749893
-113.8244019 43.3587570 28.7079773
-114.9322815 43.3345490 29.6897449
-116.0563660 43.3007507 30.5756073
-117.1860428 43.2744713 31.3619537
-132.6112823 43.1370087 35.0898590
-133.8696289 43.1538773 34.8820915
-135.1300507 43.1664009 34.6176720
-136.4132690 43.1809082 34.2819939
-137.6874237 43.1923981 33.8792725
-138.9816742 43.2030373 33.3957825
-140.3007507 43.2268372 32.7916260
-141.6389160 43.2636185 32.0795898
-113.1374435 44.7618561 24.1256371
-114.2186890 44.6911812 25.4761410
-115.3113785 44.6551437 26.6697330
-116.4182739 44.6237144 27.6464176
-117.5363846 44.5874939 28.5713596
-132.9824524 44.4633636 32.5207291
-134.2448883 44.4738312 32.2795715
-135.5039978 44.4838715 31.9785938
-136.7968445 44.4961395 31.5760918
-138.1015167 44.5175667 31.0604286
-139.4329529 44.5663223 30.4434433
-116.8566284 46.0500069 24.0165787
-117.9594345 45.9734955 25.1312542
-119.0725174 45.9016380 26.0826530
-120.2154388 45.8963852 26.8714600
-121.3533783 45.8627739 27.6037350
-122.5159225 45.8574219 28.1534481
-123.6823730 45.8342667 28.6413555
-124.8527908 45.8120155 29.0590839
-126.0477753 45.8097153 29.3601990
-127.2442169 45.7897530 29.6048813
-128.4601746 45.7850113 29.7489147
-129.6671295 45.7858620 29.8050613
-130.9152527 45.7835121 29.7826176
-132.1599121 45.7806549 29.6813183
-133.4239349 45.7918434 29.4614372
-134.6854706 45.8038826 29.1625595
-124.1818085 47.1988678 24.8240528
-127.7332535 47.1488152 25.9406338
-128.9464569 47.1396713 26.0931091
-130.1800690 47.1396141 26.1198597
-131.4391174 47.1762848 26.0183563
-132.6934662 47.2161179 25.8378296
119.0590363 -57.6459656 -23.2751064
118.4028320 -57.6438904 -23.1969452
117.7435608 -57.6504784 -23.1083260
117.0891724 -57.6565399 -23.0631161
116.4518585 -57.6689682 -23.1130428
115.8073578 -57.6818390 -23.1735535
115.1521606 -57.6881981 -23.2383194
114.5406494 -57.6836967 -23.3506317
111.4078064 -57.8075981 -24.3931255
110.7925568 -57.8600807 -24.7584896
110.1796951 -57.9030609 -25.1923161
121.4527893 -56.7878761 -21.4846077
114.2710266 -56.7840805 -20.9424267
126.7105789 -56.1842155 -22.1440830
126.0038986 -56.1100235 -21.6119957
125.2958679 -56.0525780 -21.1766911
123.2447433 -56.0132980 -20.0251961
122.5398636 -56.0081596 -19.7847137
121.8823929 -55.9711876 -19.6168804
121.1966324 -55.9526291 -19.3789787
114.0477448 -56.0209045 -18.9690456
113.4282913 -56.0546799 -19.1073780
112.8041534 -56.0961876 -19.3137016
112.1799469 -56.1161613 -19.5099258
107.8530960 -56.3560104 -21.4645672
107.2362518 -56.4125633 -21.8654156
106.6180649 -56.4757118 -22.3683167
106.0298615 -56.5302582 -22.9097519
129.8261108 -54.6893120 -19.9437389
129.1223907 -54.5345764 -19.1491985
103.8400726 -55.0927429 -20.5050278
103.2572403 -55.1496582 -21.0268841
102.6639633 -55.2179451 -21.6339378
131.7059021 -54.0977631 -20.2961578
132.1351776 -53.3250656 -18.9470387
131.4064941 -53.2685013 -18.3154945
98.0616989 -53.2978210 -20.9958916
134.6207581 -51.9862938 -18.0866528
133.8733521 -51.9200516 -17.3865871
98.5232010 -52.4327583 -18.6245918
97.9264145 -52.5201836 -19.3311996
97.3436508 -52.6118698 -20.0417004
96.7528610 -52.7110901 -20.8364639
136.6823273 -51.4163933 -18.8480740
137.1945953 -50.6893616 -17.9444771
136.4139099 -50.6039238 -17.0887661
95.9090118 -51.2608032 -18.5152683
95.2962723 -51.3566666 -19.2886105
137.7139740 -49.9774170 -17.1196480
139.0042267 -49.3355637 -17.2692776
138.2361603 -49.2873268 -16.3997440
137.4828186 -49.2248611 -15.5850306
93.3164215 -50.0890656 -18.7926559
-124.6590958 -49.9164886 22.8262005
-125.2498093 -49.9060173 23.0889034
-125.8385849 -49.8976021 23.3368626
-126.4298706 -49.8938980 23.5223103
-127.0339813 -49.8910446 23.6773281
-127.6302414 -49.8866577 23.8280087
-128.2362061 -49.8870049 23.8988171
-128.8654022 -49.8947563 23.9341698
-129.4729462 -49.8983727 23.9754963
-130.1123352 -49.9090729 23.9232025
-130.7336731 -49.9193611 23.8854847
-131.3637695 -49.9313812 23.7852726
92.0553284 -49.4955368 -19.1174736
-122.0043640 -49.1768188 24.1175041
-130.9773407 -49.0164337 26.3832836
-133.5203094 -49.1823425 25.8873634
91.9735107 -48.7237740 -17.8424606
-116.6763229 -48.6530342 21.8017788
-117.2724228 -48.6115150 22.3809948
-117.8132553 -48.5801659 23.0406170
-118.3447876 -48.5293770 23.6839905
-118.8910446 -48.4990883 24.2249470
-119.4469452 -48.4714584 24.7202473
-120.0017395 -48.4360237 25.1924877
-120.5575333 -48.3903313 25.6410942
-121.1246567 -48.3493919 26.0161953
-121.7066040 -48.3187370 26.3683643
-130.6510162 -48.2412376 28.5376835
-131.2850342 -48.2700119 28.4762268
-133.1743774 -48.3196449 28.1725082
141.5135956 -47.4270592 -16.4636974
91.8771973 -47.9953270 -16.6611538
-138.1378632 -47.8662720 28.1237373
142.0919189 -46.7556686 -16.0417919
141.2872162 -46.6638260 -15.0661716
91.7673187 -47.3081055 -15.5897427
91.1890564 -47.3625717 -16.3110504
90.6061554 -47.4196472 -17.0936298
90.0331879 -47.4917297 -17.8687611
-114.0006332 -47.2581291 23.6613789
-114.5317993 -47.1945229 24.4058456
-115.0680008 -47.1467857 25.0559330
-115.6072998 -47.0805702 25.6867962
-133.9582520 -46.9011650 31.4118462
-134.5881195 -46.9122620 31.2606754
-135.2438354 -46.9368172 31.0333672
-135.8817749 -46.9514236 30.8241787
-137.8422699 -47.0524139 30.0393925
-138.5377655 -47.1306915 29.6759682
-139.1992798 -47.1717949 29.3346539
-139.8844299 -47.2185974 28.9196053
89.3138962 -46.9088097 -17.5880737
-141.6700439 -46.5948410 29.3924961
144.1046295 -45.5351257 -16.4256401
89.2546844 -46.1611443 -16.4671631
88.6475601 -46.2595291 -17.2929001
-110.8884354 -45.9296570 23.8456402
-111.3960037 -45.8735313 24.7176514
-111.9294968 -45.8050194 25.5391598
-141.3646240 -45.8004112 31.1968784
-142.0691376 -45.8932762 30.7553062
86.8411789 -45.7650528 -18.8971977
-142.5028076 -45.2018433 31.9478912
145.2911224 -44.2072449 -15.8091269
86.7873001 -45.0279770 -17.7547035
-108.3734589 -44.6164169 24.2691555
-108.8853073 -44.5505028 25.1583691
-109.4028244 -44.5036316 25.9947300
-142.2506714 -44.4433632 33.4151115
-142.9519348 -44.5111580 32.9811783
-143.6308746 -44.5668678 32.5487633
145.0914307 -43.4634857 -14.5242147
-107.1227341 -44.0430145 24.2277603
-144.8045197 -43.9375648 33.0031662
146.5299072 -42.9380493 -15.5211973
145.6503143 -42.8246422 -14.3097019
144.8798676 -42.7692337 -13.3487043
85.4635773 -43.7798157 -17.6067600
-105.9048233 -43.4351921 24.1039238
-106.4153519 -43.3380356 25.0627804
-106.9472046 -43.2501717 26.0075340
-144.5655670 -43.1889458 34.3827286
-145.2780914 -43.2692337 33.9062576
147.8015137 -41.6741638 -15.4215612
-104.3181458 -41.9484978 25.9318161
-146.9188690 -41.9677582 34.9893150
-147.6539917 -42.0426331 34.4059715
84.1047287 -41.8210754 -16.5704021
83.5032272 -41.9245834 -17.4945335
-149.5799255 -41.4874420 33.8707199
147.4438629 -40.2626915 -13.1692743
84.0266266 -41.1509094 -15.7151108
-149.3460846 -40.7475014 35.1576691
-101.9839401 -40.1425056 26.0457363
-149.1521454 -40.0412483 36.3170738
149.5392609 -39.0796318 -14.4388485
148.7404633 -39.0261459 -13.3171520
82.7134476 -39.9607430 -15.8767433
-100.8100204 -39.5778084 25.4058418
-101.3266907 -39.4937248 26.4345703
-101.8360062 -39.4336815 27.3845024
-148.9527893 -39.3489914 37.4373169
81.5007019 -39.4136772 -16.9524117
-148.8123474 -38.6971855 38.4394836
150.0281982 -37.7737885 -13.5553865
81.4555969 -38.7192955 -16.1898098
80.8587952 -38.7999191 -17.1509724
-148.6394043 -38.0277405 39.4243240
-149.3191071 -38.0580482 38.9460564
-150.0572662 -38.1162987 38.3701553
-150.7391663 -38.1567497 37.8510971
-151.4625854 -38.2291603 37.2840729
80.2296143 -38.1938477 -17.3576641
-99.3809357 -37.5800018 27.2545795
-152.7301483 -37.6639290 37.0657425
151.4876709 -36.5950127 -14.1618633
80.1963959 -37.4968338 -16.5859356
79.6017914 -37.5865250 -17.6260471
-97.7249146 -37.1100311 25.2074623
-98.2460480 -37.0163002 26.3815708
-98.7465210 -36.9589767 27.4007435
-99.2592316 -36.9069176 28.3751507
-152.5300293 -36.9541969 38.0813408
-153.2624664 -37.0200233 37.4583626
151.3504181 -35.9176064 -13.2868662
80.1426697 -36.8203888 -15.8658752
-97.1191025 -36.4644890 25.3646603
-153.8247833 -36.3688660 37.7272339
-96.4887161 -35.8331528 25.4266548
-97.0013504 -35.7467346 26.5906391
-153.6560822 -35.6937218 38.6702194
-95.8692017 -35.2196426 25.4422607
-153.5187988 -35.0471687 39.5526123
80.0011292 -34.8239784 -13.9166059
-95.2651367 -34.5894852 25.4835758
-95.7655411 -34.5143471 26.6276550
-153.3634796 -34.3827171 40.4229813
152.4247437 -33.3611679 -12.2583914
79.9809494 -34.1470757 -13.2658491
-94.6451416 -33.9780464 25.4151802
153.0918121 -32.7459106 -12.6200371
152.2995605 -32.6883316 -11.5225286
79.9077072 -33.5120773 -12.7385492
79.3161011 -33.5780220 -13.6499376
78.7735901 -33.6207504 -14.5276070
78.2235794 -33.6617699 -15.4731865
77.6215897 -33.7403946 -16.5335217
77.0113068 -33.8349419 -17.6194286
-94.0269699 -33.3753624 25.2963715
-94.5518875 -33.2776184 26.5571690
153.8475952 -32.1618996 -13.1750498
77.5705338 -33.0800591 -15.9166946
154.5484314 -31.5595284 -13.6758986
153.7143097 -31.4923134 -12.4491110
77.5416107 -32.4136925 -15.3000860
76.9349899 -32.4970016 -16.3717384
76.3480911 -32.5717545 -17.4672680
-93.3473816 -32.0646591 26.2797318
-157.1496887 -32.0622482 39.8673630
-92.2235794 -31.5551777 24.6694965
76.2710342 -31.2453213 -16.2642593
75.7002487 -31.3125229 -17.3147125
-91.6453400 -30.9373894 24.4463329
-92.1416702 -30.8561764 25.7322979
-158.3671265 -30.8539009 39.9607544
76.2475662 -30.5807114 -15.6984186
154.9332428 -28.9848843 -12.2004662
76.2263107 -29.9167137 -15.1209946
-90.9599075 -29.6668701 25.1008911
-159.6475525 -29.6625690 39.8791275
-159.4858551 -28.9974537 40.6047821
-160.2570648 -29.0624695 39.8483620
156.5067749 -27.7688522 -13.4237480
-89.8057938 -28.4770508 24.3489437
-159.3604889 -28.3433533 41.2802048
156.4372864 -27.1834164 -12.9653645
74.9098740 -28.1041527 -15.7961159
-89.7433167 -27.7904854 25.3154755
-159.2362671 -27.6986732 41.9339714
-160.0055695 -27.7607174 41.2022781
74.9189835 -27.4352112 -15.2982693
-89.1673508 -27.2025280 24.8183250
-89.6719513 -27.1280098 26.1780357
-159.1278076 -27.0602360 42.5331039
156.2053833 -25.8907814 -11.8522720
-89.0960312 -26.5392208 25.6559010
-89.5911865 -26.4795895 26.9747791
-159.0209656 -26.4207268 43.1229744
156.1318512 -25.2527542 -11.3790073
-89.5027542 -25.8438148 27.7350578
-158.9563751 -25.8044415 43.6496849
156.0615997 -24.6106987 -10.9230719
73.6870270 -25.6078186 -16.1991749
73.0994492 -25.6716213 -17.3163357
-89.4334183 -25.2021694 28.4953861
-158.8315430 -25.1692619 44.2196465
155.9762726 -23.9713364 -10.4802580
73.6690750 -24.9575768 -15.7982874
-88.8378296 -24.6154785 28.0296135
-89.3680344 -24.5612125 29.1721363
-158.7376251 -24.5403709 44.7313652
-159.4635773 -24.5760536 44.0843124
-160.1533661 -24.6023865 43.4632759
-160.9222412 -24.6600666 42.7528839
-161.6640320 -24.7082615 42.0590248
73.6267319 -24.3104305 -15.4314785
-87.7783585 -24.0465832 26.1451530
-88.2663040 -23.9928837 27.4740410
-87.7373276 -23.4252205 26.8509598
-88.2210846 -23.3831711 28.0603580
-162.9508514 -23.5233326 41.5998840
-163.7488556 -23.5760746 40.7526855
-162.8176422 -22.8730164 42.1500397
157.3833313 -21.5286999 -11.3265457
-86.1272202 -22.3274174 24.0121288
-162.7057343 -22.2390175 42.6697350
-163.5237427 -22.2991371 41.8342857
157.3972015 -20.9073792 -11.1000891
73.5510483 -21.7469406 -14.0960665
72.9674988 -21.7969894 -15.0891447
-86.0795670 -21.6704941 24.7468357
-162.6430359 -21.6191025 43.1079521
158.1450653 -20.3195572 -11.9366474
157.2539825 -20.2623386 -10.6492767
73.5153809 -21.1120434 -13.8247166
-162.5668793 -20.9941921 43.5537567
73.4910812 -20.4765339 -13.5501413
-85.9446259 -20.3969097 26.0281792
73.4613800 -19.8452034 -13.3159113
-85.9180527 -19.7506866 26.6598625
-163.9710236 -19.8364983 42.8753624
-164.7686005 -19.8858089 42.0538254
-163.8555298 -19.2018528 43.3205795
73.4118652 -18.5798302 -12.8441162
160.5005798 -17.3094063 -14.7808685
160.4408875 -16.6786861 -14.4645119
-163.6537170 -17.3428631 44.4716454
-164.4152069 -17.3700314 43.6898766
74.5522003 -16.6119099 -10.5497923
73.9393311 -16.6527367 -11.4458122
-84.7040939 -16.6869144 26.5332565
-163.5816345 -16.7227287 44.8261108
74.5416336 -15.9836760 -10.3938236
-83.6470184 -16.1663265 24.0764160
-84.1866608 -16.1004009 25.6566715
-84.6730118 -16.0581989 27.0020924
-163.5229645 -16.1060886 45.1512718
74.5297470 -15.3549385 -10.2571354
-83.6131058 -15.5354671 24.5925751
-166.5198975 -15.6325397 42.3337212
74.5253754 -14.7272282 -10.1442690
73.9340363 -14.7600927 -11.0053244
73.3111191 -14.7984095 -11.9328146
-166.4284210 -15.0014915 42.6709518
74.5035400 -14.1025782 -10.0737686
73.9182053 -14.1338139 -10.9288769
73.3091507 -14.1693182 -11.8371181
-163.3896484 -14.2711334 46.0192566
-164.1208496 -14.2936115 45.3216476
74.4931335 -13.4763708 -9.9861898
-83.4955368 -13.6528511 25.9126511
-163.3594818 -13.6615572 46.2733154
160.1600037 -12.2979946 -13.1481390
74.4906540 -12.8505573 -9.8912659
-83.4913406 -13.0232391 26.3265686
-163.2901001 -13.0466633 46.5407639
-165.4916687 -13.0986834 44.3582077
-166.2732391 -13.1583958 43.5701523
-167.0372925 -13.1969500 42.8024788
160.1425323 -11.6781788 -13.0179214
74.4661255 -12.2276363 -9.8474350
-83.4746857 -12.3979349 26.6639576
-163.2553253 -12.4374046 46.7605400
-163.9980927 -12.4616079 46.0597572
-164.7357941 -12.4838572 45.3331871
-165.4806824 -12.5121746 44.5835495
-166.2041016 -12.5428038 43.8586388
160.1492310 -11.0595226 -12.9616642
74.4627075 -11.6027861 -9.7915068
-82.4211655 -11.8649969 24.0530071
-166.1498871 -11.9263811 44.1243324
160.1533051 -10.4410257 -12.9235344
74.4613876 -10.9782066 -9.7467270
-82.3896866 -11.2431078 24.3980789
160.1342468 -9.8214159 -12.8625536
74.4457779 -10.3549595 -9.7344847
160.1430664 -9.2030401 -12.8573322
74.4486160 -9.7307234 -9.7114410
160.1185760 -8.5833950 -12.8179226
74.4537964 -9.1070862 -9.7016468
-82.8330002 -9.3049135 26.7895565
-83.3453751 -9.3073997 28.0887604
160.1026917 -7.9647598 -12.8141613
74.4471970 -8.4843683 -9.7248487
-82.8170929 -8.7249250 26.9376278
-83.3275375 -8.6939821 28.3069019
160.1402283 -7.3480320 -12.9158068
74.4502106 -7.8620243 -9.7489367
-82.3276215 -8.1364927 25.7557144
-165.9595642 -8.2684364 45.2600060
160.1302490 -6.7314019 -12.9664793
74.4428482 -7.2396402 -9.7975512
-82.3196335 -7.5186901 26.0146294
-165.9228973 -7.6598382 45.4133644
-166.6648407 -7.6823053 44.6580200
-167.4803925 -7.7121320 43.8059731
-168.2302246 -7.7370043 43.0133629
160.1223602 -6.1164141 -13.0470095
74.4467621 -6.6171956 -9.8396797
-167.3933258 -7.0969458 43.9950142
160.1005554 -5.5029044 -13.1462841
74.4601440 -5.9955254 -9.8780918
-167.3905640 -6.4899435 44.0978851
75.6167297 -5.3355536 -8.3778048
75.0442352 -5.3544121 -9.1470251
74.4489594 -5.3731098 -9.9573793
-167.3770447 -5.8827577 44.2042503
75.6050491 -4.7137265 -8.4662743
-167.3496399 -5.2742863 44.3158112
75.6040344 -4.0928278 -8.5539074
-167.3413849 -4.6676216 44.3988800
75.6313248 -3.4745092 -8.6278448
-167.3194122 -4.0600924 44.4872932
158.5651550 -1.1652648 -11.6427946
-168.8513794 -2.2781014 42.8855743
158.6106415 -0.5503776 -11.9015913
-168.8160706 -1.6707113 42.9196129
158.6731262 0.0657609 -12.1857433
-168.8470459 -1.0651777 42.8795204
158.6692200 0.6767955 -12.3711357
74.5089188 0.2187664 -11.2135420
73.9283066 0.2089725 -12.0818110
-168.8533478 -0.4590687 42.8664818
158.7211914 1.2883185 -12.7110767
-126.1190948 0.6044950 60.6812859
73.3917999 1.4379258 -13.4602785
73.4157791 2.0586610 -13.7143536
73.4168854 2.6879754 -14.0150881
-81.2460327 2.2427123 23.8773136
-126.1504745 2.3714271 60.5881119
-126.7414398 2.3665912 60.6240578
-127.3535309 2.3674338 60.6487312
-127.9545059 2.3666139 60.6655464
-167.3334198 1.9922516 44.4863625
157.2365570 3.7685215 -11.4295034
73.4272461 3.3127403 -14.3029566
-81.2556534 2.8541064 23.7323132
-167.3593445 2.5962801 44.3875313
157.3199768 4.3870587 -11.8595228
-81.2620773 3.4656770 23.5699596
-167.3537445 3.1995430 44.3163719
157.3852997 5.0008063 -12.2947645
-81.2702255 4.0783792 23.4136276
-167.3735352 3.8046725 44.2134514
158.3771667 5.6240358 -14.1880865
157.5123596 5.6253886 -12.7972460
-81.2943192 4.6906252 23.2980499
-167.4049377 4.4090438 44.0920715
73.5260544 5.8055024 -15.5897865
-82.2965546 5.3142133 26.1291409
-167.4200134 5.0133181 43.9802895
73.5421677 6.4348898 -15.9946556
-82.3224335 5.9232054 25.9765072
-167.4948273 5.6211309 43.8009720
155.9523315 7.4613748 -11.5212822
73.5599365 7.0634012 -16.4027863
-82.3425140 6.5324774 25.7525043
-165.9601288 6.2362328 45.2636223
156.0524445 8.0821238 -12.0835457
-82.3674011 7.1436052 25.4947605
-166.0145569 6.8402529 45.0831375
-166.7714386 6.8360839 44.3214340
157.0232849 8.7090731 -13.9970770
156.1366119 8.7018719 -12.5983410
74.7768097 8.3144732 -15.1694345
74.1875153 8.3200140 -16.1992245
-81.8635330 7.7571502 23.6766682
-82.3989792 7.7525244 25.2877979
74.7903137 8.9458551 -15.6155939
156.3285828 9.9539242 -13.6956520
74.8203125 9.5747967 -16.0514927
74.8489227 10.2051754 -16.5155849
155.6414337 11.1889534 -13.5605688
154.8005066 11.1683359 -12.3825226
-166.2017517 9.8606367 44.0700760
154.8877411 11.7945929 -12.9601450
74.9246368 11.4628105 -17.5356770
-166.2456512 10.4650536 43.8327637
154.9956055 12.4248915 -13.5999088
74.9543228 12.0968809 -18.1101265
-83.5555801 11.4131470 26.2839603
-166.3330994 11.0828714 43.5347366
-83.5842361 12.0264101 25.8876801
154.3914490 13.6605091 -13.8440237
153.4988403 13.6214437 -12.5879211
76.1835022 13.3364925 -17.1081600
75.5823212 13.3606119 -18.2328835
-83.6029358 12.6452627 25.3989010
-164.8994751 12.2826223 44.5469627
-165.6330566 12.2822132 43.8110847
153.6358490 14.2568607 -13.3147421
76.2248840 13.9713717 -17.6922646
-83.1363297 13.2707462 23.4585629
-83.6540985 13.2550421 25.0424767
-164.9455566 12.8857203 44.2659492
153.7960510 14.9011316 -14.1193638
154.0450287 16.1488152 -15.8158760
78.6334152 15.8439722 -15.4870062
78.0569763 15.8530970 -16.4663792
77.4885178 15.8566360 -17.4713058
76.8944016 15.8834591 -18.5629826
-83.7813721 15.1015129 23.5779152
-84.3012161 15.0791187 25.0972404
-84.7926865 15.0673571 26.5035706
78.6560364 16.4940338 -16.1627960
-83.8440475 15.7079573 23.0134144
-84.8443222 15.6773615 26.0271454
152.6130066 17.3792095 -14.8659077
-84.9147339 16.2853756 25.5344944
-163.7559052 15.9148664 44.0830612
-84.9569855 16.9056435 24.9395676
152.0117493 18.6229782 -15.3692608
151.1326141 18.5790787 -14.1174850
-84.4853058 17.5600853 22.7388725
-84.9880676 17.5284405 24.3390808
-85.0184784 18.1587715 23.6994095
-163.9747467 17.7388763 42.8916550
80.0576630 19.6394100 -17.7679844
-85.0562057 18.7912140 23.0060310
80.1114655 20.2801743 -18.5861969
79.5192413 20.3102493 -19.6517830
149.2905273 21.0894394 -14.4467354
148.4587860 21.0427666 -13.3959513
80.1895676 20.9220505 -19.3836117
-85.6555176 20.0162449 23.1662235
-86.1960144 19.9649582 24.7480679
-164.2424622 19.5780811 41.4786797
148.6222534 21.7045498 -14.3356743
-86.2302933 20.5931778 24.0289707
-86.2652664 21.2423344 23.2179947
-162.9221954 20.7801723 42.0684128
148.8903656 22.9742222 -16.3924179
81.5124664 22.8315868 -20.0299244
-163.0124359 21.4006004 41.5647202
148.2776031 23.5943851 -16.4254208
147.4498138 23.5354538 -15.3554716
82.7179794 23.4219608 -18.9519749
82.1334152 23.4556122 -19.9988384
-86.8758469 22.4671307 23.1384506
-87.4248199 22.4092999 24.7126503
147.6786957 24.2159748 -16.5856895
82.7749176 24.0792923 -19.9560032
-87.4979401 23.0375500 23.9466705
147.0236053 24.8269253 -16.6331444
146.1245117 24.7616596 -15.4015102
85.1471939 24.6517696 -17.0980358
84.5807571 24.6630764 -17.9854794
-87.5468369 23.6906757 22.9684162
-158.8714447 23.1742840 44.1914330
-159.5848694 23.1806393 43.5675049
146.3736572 25.4579601 -16.6583996
85.2473450 25.2869511 -18.0094814
-158.9720001 23.7907066 43.6565857
144.8468018 25.9981861 -15.6492052
85.3122482 25.9277802 -19.0335312
-88.6918488 24.8711147 24.3289757
-159.0637360 24.3995590 43.1094398
145.8772430 26.7137852 -18.0396709
145.0445557 26.6575642 -16.8902378
85.3775406 26.6012936 -20.1654911
84.8205948 26.6214600 -21.1101742
-88.7486267 25.5309429 23.3403969
-159.1537628 25.0122280 42.5408401
145.2841492 27.3543224 -18.2621403
144.4559937 27.3074818 -17.1464462
143.6780243 27.2756538 -16.1787720
85.4618835 27.2687359 -21.3002110
-159.2844086 25.6356277 41.9189148
143.8774872 27.9594135 -17.4248047
