128.1175690 -71.7421646 -24.8155937
126.6998978 -71.6597443 -23.8047848
125.2937012 -71.5992737 -22.9529762
123.9226837 -71.5605927 -22.2684135
122.5597382 -71.5361710 -21.7268372
121.2060547 -71.5268707 -21.2991543
104.5070343 -71.9281616 -22.7448483
103.2800369 -71.9982147 -23.3814240
102.0550308 -72.0732498 -24.1386795
100.8418655 -72.1845856 -25.0495663
99.6428146 -72.2900085 -26.0410099
98.4337082 -72.4487915 -27.2081547
132.0732422 -70.4671021 -25.1689034
130.5985718 -70.3450470 -23.8540516
129.1578369 -70.2584915 -22.7218819
127.7460403 -70.1879501 -21.7538147
126.3609772 -70.1531830 -20.9754295
99.3659744 -70.7746735 -23.2620888
98.1692657 -70.8805084 -24.2703552
96.9637909 -71.0117188 -25.4140606
133.1304779 -69.0055466 -23.4323044
131.6940155 -68.9229431 -22.1856289
130.2399445 -68.8318634 -21.0388794
128.8464813 -68.7867889 -20.1274071
127.4448700 -68.7218018 -19.2983875
126.0682373 -68.6924286 -18.6342773
99.1468735 -69.3081360 -20.9193192
97.9413910 -69.4015579 -21.8089790
96.7281647 -69.5127258 -22.8317375
95.5372467 -69.6263885 -23.9312878
94.3346405 -69.7997742 -25.2268505
135.7643127 -67.7331924 -23.5039997
134.2593842 -67.6217041 -22.0533295
132.8031006 -67.5261688 -20.7814484
131.3751526 -67.4488449 -19.6871052
94.1293411 -68.2822113 -22.7830124
92.9495010 -68.4110565 -24.0233288
-126.9418335 -67.9982758 17.5292301
-128.1226501 -67.9779510 17.9629078
-129.3223114 -67.9681473 18.2560043
136.8955383 -66.3442307 -22.3406448
135.4058075 -66.2263489 -20.8599834
133.9474945 -66.1466522 -19.6023178
132.4987335 -66.0638733 -18.4875603
131.0959167 -66.0080414 -17.5560226
93.9254684 -66.8395615 -20.6719685
92.7345276 -66.9552383 -21.7809124
91.5477600 -67.0951004 -23.0377731
90.3678360 -67.2438660 -24.4494934
-119.4899368 -66.6522446 17.1741104
-122.8446884 -66.4471741 19.9580765
-124.0098648 -66.3829651 20.6050549
-125.1844254 -66.3556366 21.1315765
-126.3638000 -66.3345184 21.5822563
-127.5516586 -66.3204803 21.9436550
-128.7644653 -66.3088226 22.2330933
-129.9815216 -66.3299026 22.4111633
-131.2063141 -66.3414459 22.5010853
-132.4520264 -66.3592834 22.4707508
-133.7045288 -66.3840179 22.4026241
139.6019592 -65.1598282 -23.1416531
138.0513306 -64.9923553 -21.4135628
136.5665741 -64.8822021 -19.9343281
91.3619080 -65.6501007 -21.0180588
90.1835175 -65.7769165 -22.3093243
89.0100327 -65.9192276 -23.7281837
-116.7726135 -65.2165451 18.8135357
-117.8738403 -65.1145401 19.9453449
-118.9928284 -65.0447464 20.9379482
-120.1166229 -64.9788818 21.8262234
-121.2575836 -64.9341431 22.6037693
-122.4010239 -64.9021759 23.2432899
-123.5739441 -64.8727112 23.8135834
-132.0083160 -64.8554993 25.5505028
-133.2458801 -64.8687286 25.5187492
-134.5138245 -64.9050293 25.3721199
-135.7778931 -64.9278259 25.1732368
-137.0638275 -64.9667816 24.8474998
-138.3670959 -65.0169601 24.4516296
-139.6801147 -65.1056366 23.9481373
-141.0388336 -65.2164917 23.3024426
139.2720032 -63.6831055 -20.6969528
137.7597504 -63.5540771 -19.1977444
136.2854309 -63.4545212 -17.8735580
91.2084198 -64.2342300 -19.2165852
90.0200195 -64.3563004 -20.4154854
88.8358841 -64.4848862 -21.7382507
87.6539536 -64.6344299 -23.1653175
-113.1086502 -63.9761505 18.3214645
-114.1794739 -63.8518753 19.7092361
-115.2621918 -63.7562866 20.9556084
-116.3562088 -63.6890717 22.0339184
-117.4742279 -63.6177750 23.0263939
-118.6002426 -63.5660439 23.8765926
-119.7390289 -63.5108528 24.6575546
-120.8884430 -63.4703674 25.3261395
-122.0503540 -63.4389191 25.9095631
-123.2189255 -63.4085274 26.4340096
-131.6353455 -63.3981323 28.0808487
-132.8757629 -63.4077530 28.0765533
-134.1287384 -63.4413071 27.9714432
-135.3913574 -63.4705696 27.8084736
-136.6581116 -63.4999924 27.5834255
-137.9362183 -63.5432663 27.2578220
-139.2461090 -63.5906868 26.8386307
-140.5585327 -63.6547279 26.3218765
-141.8799744 -63.7226715 25.7197075
-143.2444763 -63.8191223 24.9601707
-144.6270447 -63.9495964 24.1104851
140.4804077 -62.3435211 -20.1636429
138.9663086 -62.2342606 -18.6128845
88.6788025 -63.0789070 -19.9676857
87.5020599 -63.2024536 -21.3036156
86.3208160 -63.3539658 -22.7911930
85.1380920 -63.5384636 -24.3912010
-110.5771790 -62.6860428 18.5073586
-111.6331787 -62.5466728 20.0796947
-112.7218704 -62.4463158 21.4637051
-113.8058624 -62.3604469 22.6689148
-144.1652527 -62.4146843 26.9948425
143.2784882 -61.1870422 -21.6967716
141.7315369 -61.0508347 -19.8509254
140.2127991 -60.9325066 -18.2205200
138.7078094 -60.8275070 -16.7887058
88.5435944 -61.6844215 -18.3752613
87.3523636 -61.8166008 -19.6528206
86.1826782 -61.9320755 -20.9958687
85.0078278 -62.0809479 -22.5071869
83.8043213 -62.2765808 -24.2051277
-108.1221466 -61.4130363 18.3001385
-109.1692352 -61.2772141 20.0054569
-110.2210770 -61.1664658 21.5158234
-111.2960510 -61.0795288 22.8472538
-112.3902740 -60.9874496 24.0593414
-113.4962769 -60.9154625 25.1144810
-143.7911072 -60.9812317 29.4144897
-147.9051361 -61.2735519 26.9256325
-149.3179932 -61.4030151 25.8399658
144.5084229 -59.8908424 -21.5199471
142.9757690 -59.7625313 -19.6270542
141.4554138 -59.6415977 -17.9525490
83.6918564 -60.8308716 -22.4114075
82.5153961 -61.0140266 -24.1025009
-106.7414856 -60.0598259 19.4674358
-107.7849503 -59.9284058 21.1673603
-108.8363953 -59.8290787 22.6296387
-143.4638672 -59.5864639 31.5024357
-144.7986450 -59.6495094 30.8931561
-146.1316528 -59.7157631 30.1931648
-147.4979858 -59.8061752 29.3447266
-148.8880615 -59.9073677 28.4041824
-150.3265381 -60.0543060 27.3234215
144.2450562 -58.4855843 -19.5379562
142.7239532 -58.3691483 -17.8279362
141.2368469 -58.2709694 -16.3391647
83.5684357 -59.4302940 -20.7975826
82.3952484 -59.5871582 -22.4309978
81.2243271 -59.7691612 -24.1740055
-104.3583832 -58.8726234 18.5022945
-105.3841019 -58.7261276 20.3756180
-106.4397430 -58.6063271 22.0622005
-107.5017014 -58.5039978 23.5427399
-108.5785522 -58.4143448 24.8571835
-143.1655579 -58.2006683 33.3578720
-144.4962006 -58.2671051 32.7979736
-145.8290863 -58.3346481 32.1657143
-147.1558380 -58.4069290 31.4495544
-148.5152588 -58.4844093 30.6217899
-149.9232635 -58.5890846 29.6420479
-151.3579712 -58.7200050 28.5497036
144.0037231 -57.1070061 -17.8452682
81.1071854 -58.3503723 -22.5909977
-103.0444946 -57.5418015 19.2511482
-104.0621185 -57.4128265 21.0924873
-150.9967041 -57.2862396 30.6800499
-152.4071503 -57.4050026 29.6023197
146.9156952 -55.9988403 -20.0106602
145.3382874 -55.8614388 -18.0686340
143.7945709 -55.7479401 -16.3575478
80.9863510 -56.9744492 -21.1540928
-101.7462769 -56.2602425 19.7257767
-102.7744293 -56.1269302 21.6031475
-103.8198090 -56.0180130 23.2513313
-150.6859131 -55.9161873 32.5445023
-152.0751038 -56.0098915 31.5628433
-153.4923706 -56.1312180 30.4809341
148.2357178 -54.7505951 -20.4075851
146.6718140 -54.6153336 -18.3952599
80.8836136 -55.6159134 -19.8188457
-99.4579773 -55.1548653 17.8261375
-100.4579163 -54.9809685 20.0205765
-101.4997406 -54.8472214 21.9535503
-153.1853333 -54.7404480 32.2928848
-154.6166840 -54.8506966 31.1413536
148.0230103 -53.3892174 -18.8744984
146.4658661 -53.2666702 -16.9711933
80.7799988 -54.2715378 -18.6367912
79.6245422 -54.3954544 -20.1752548
78.4457397 -54.5439758 -21.9492836
-98.2148743 -53.8874130 17.8894539
-99.2064819 -53.7246056 20.1236420
-100.2257538 -53.5863876 22.0957928
-101.2840118 -53.4717827 23.8382568
-152.9044495 -53.3932037 33.9422188
-154.3120575 -53.4829330 32.8944931
149.3828125 -52.1692848 -19.4965687
147.7980499 -52.0361443 -17.4506111
146.2841339 -51.9344673 -15.7169676
78.3532104 -53.1928253 -20.7329559
77.1937256 -53.3388596 -22.5260735
-96.9809418 -52.6392365 17.8038692
-97.9806824 -52.4668579 20.1270103
-98.9932327 -52.3420029 22.1143799
-152.6545410 -52.0564079 35.4296341
-154.0502472 -52.1408920 34.4651184
-155.4945068 -52.2441254 33.3492050
-156.9036865 -52.3445511 32.1670876
149.1555939 -50.8178749 -18.0898380
147.6310272 -50.7112274 -16.2406445
146.1012878 -50.6093216 -14.5724831
78.2698975 -51.8488770 -19.6176224
77.1093521 -51.9876518 -21.3486824
75.9380722 -52.1573296 -23.2500038
-96.7590485 -51.2344742 19.9305954
-97.7710342 -51.1000786 22.0005016
-98.8082047 -50.9880295 23.8196163
-152.4306030 -50.7353287 36.7576370
-153.8285522 -50.8208733 35.8357620
-155.2507629 -50.9132195 34.8051720
-156.6468658 -51.0044022 33.7064972
-158.0958252 -51.1369858 32.4871788
150.6222839 -49.6409073 -18.9811459
149.0045166 -49.4950485 -16.9271278
75.8609772 -50.7974434 -22.0716000
-95.5420151 -50.0207672 19.5458775
-96.5635452 -49.8755646 21.7267036
-157.8049316 -49.7747841 33.9863205
-159.2850647 -49.9094543 32.7026176
150.4248657 -48.3010712 -17.7887325
148.8430634 -48.1809235 -15.8600769
75.7887802 -49.4629555 -21.0458813
-94.3540192 -48.8051682 19.0546532
-95.3623047 -48.6570396 21.2974701
-96.3970337 -48.5293617 23.3232956
-157.5784760 -48.4540405 35.3173332
-159.0180511 -48.5594978 34.1023178
-160.5396729 -48.6986542 32.7214813
150.2537231 -46.9842262 -16.7402267
148.6719971 -46.8639412 -14.8661013
75.7050171 -48.1368294 -20.1644478
-94.1820145 -47.4451599 20.7526684
-160.2905884 -47.3523788 34.0657654
153.3736725 -45.9384727 -20.2044468
151.7260132 -45.7947578 -17.8666840
150.1024780 -45.6739731 -15.7953329
148.5425720 -45.5710373 -14.0047569
75.6525192 -46.8189163 -19.3204956
74.4788132 -46.9565201 -21.1225662
-93.0195236 -46.2401123 20.0774193
-94.0243454 -46.1170883 22.2496777
-160.0748596 -46.0421143 35.2933502
-161.5655060 -46.1664352 33.9549026
153.1967773 -44.6145859 -19.1765709
151.5626831 -44.4850769 -16.9121590
75.5869751 -45.5097466 -18.5696144
74.4251633 -45.6339149 -20.2927780
73.2522659 -45.7784157 -22.2150879
-91.8583374 -45.0566902 19.1950455
-92.8746338 -44.9099274 21.5664406
-93.8832779 -44.7975655 23.5887222
-159.8756714 -44.7428551 36.4100876
-161.3343201 -44.8450012 35.1288109
153.0205078 -43.3018951 -18.1995277
151.4395142 -43.1947708 -16.0911541
75.5278854 -44.2106361 -17.8967094
74.3661423 -44.3296432 -19.5748367
73.2012253 -44.4614105 -21.4371758
-90.7356644 -43.8711548 18.2414341
-91.7264557 -43.7237320 20.6732807
-92.7429352 -43.5939407 22.8697166
-93.7680054 -43.4850578 24.7970695
-159.7206573 -43.4625511 37.3941154
-161.1598663 -43.5541687 36.1721954
-162.5643768 -43.6525688 34.9123306
152.9080505 -42.0102768 -17.4161434
151.3084412 -41.9030800 -15.3539610
73.1446381 -43.1552773 -20.7373486
71.9825897 -43.2942581 -22.6846714
-90.5881653 -42.5486183 19.6042023
-91.5960312 -42.4136276 21.9336853
-162.3795013 -42.3581772 35.9388199
154.4550171 -40.8529816 -19.0078297
152.7996979 -40.7281876 -16.7157516
151.2227783 -40.6280899 -14.7497330
73.1036606 -41.8548012 -20.0985451
71.9320755 -41.9876595 -22.0300713
-90.4760513 -41.2298012 20.8969536
-91.4925079 -41.1096344 23.0909443
-162.2210846 -41.0771713 36.8748245
-163.6943512 -41.1879005 35.5502472
154.3182526 -39.5595512 -18.2656746
73.0529175 -40.5602264 -19.5642586
71.8850555 -40.6869354 -21.4499893
-89.3516769 -40.0611916 19.6289940
-90.3641510 -39.9307899 22.0146656
-91.3749390 -39.8264122 24.0622272
-162.0630341 -39.8030663 37.7359848
-163.5172577 -39.9009972 36.4472580
155.8756561 -38.4087143 -20.1223469
154.2022400 -38.2777977 -17.6434021
73.0039597 -39.2747955 -19.0989990
71.8495865 -39.3920097 -20.9271297
70.6488113 -39.5349922 -22.9464779
-88.2504425 -38.9065399 18.1751995
-89.2401123 -38.7673531 20.7132282
-90.2606049 -38.6461906 22.9843559
-91.2908173 -38.5424080 24.9879456
-161.9488983 -38.5417137 38.4947395
-163.3645020 -38.6252670 37.2698288
-164.8749695 -38.7299538 35.8447609
155.7865448 -37.1275253 -19.5596657
154.1352997 -37.0081635 -17.1497650
72.9748230 -37.9884491 -18.6623344
71.8094864 -38.1040840 -20.4845390
70.6312408 -38.2339058 -22.4480305
-88.1541672 -37.6015396 19.2619114
-89.1488724 -37.4780426 21.7069702
-164.7241364 -37.4578972 36.6347313
155.7010651 -35.8547707 -19.0517025
154.0630798 -35.7422638 -16.7100792
72.9504395 -36.7076187 -18.2880077
71.7716217 -36.8215561 -20.0913162
-87.0674667 -36.4564323 17.5277615
-88.0582581 -36.3151855 20.2310162
-89.0627975 -36.1967926 22.5793343
-164.6203003 -36.2012520 37.3225060
155.6292877 -34.5856209 -18.6372452
154.0068054 -34.4811401 -16.3510609
72.9147568 -35.4356155 -18.0077858
-86.9693680 -35.1718140 18.5035019
-164.5003967 -34.9430046 37.9733009
157.3167114 -33.4515190 -21.0015011
155.5398254 -33.3191681 -18.2536087
153.9367676 -33.2208595 -16.0283222
72.9118271 -34.1597595 -17.7373409
-86.9070969 -33.8825340 19.4066067
-164.3976135 -33.6920280 38.5470314
155.5020752 -32.0640793 -18.0102787
153.9079285 -31.9697189 -15.8280888
72.8815842 -32.8936081 -17.5556850
71.6839905 -32.9960594 -19.2694359
-86.8315811 -32.6125069 20.1366367
-164.2922974 -32.4435654 39.0692596
-165.7994537 -32.5320511 37.6880913
-167.2611694 -32.6177864 36.2410088
155.4841766 -30.8139133 -17.8673096
153.8724060 -30.7212677 -15.6774750
72.8609161 -31.6277428 -17.3964233
-85.7658844 -31.4737244 18.1665077
-86.7648849 -31.3506279 20.7719021
-164.2242584 -31.2055016 39.5072098
-165.7096710 -31.2862587 38.1734810
-167.1716003 -31.3686085 36.7500076
155.4643097 -29.5647545 -17.7639370
153.8629913 -29.4766197 -15.5967512
72.8426514 -30.3650093 -17.2890701
-85.7297211 -30.2011738 18.8382854
-86.7279968 -30.0865879 21.3880043
-167.0833740 -30.1234093 37.2179680
155.4253540 -28.3162098 -17.6700497
153.8458252 -28.2326851 -15.5411139
72.8245926 -29.1054802 -17.2492886
-85.6677246 -28.9440098 19.3381233
-86.6674347 -28.8363724 21.8497162
-167.0133514 -28.8839245 37.6139679
-168.5025330 -28.9701271 36.1007385
155.4328918 -27.0744305 -17.6990013
153.8235779 -26.9918613 -15.5374689
72.8226852 -27.8471355 -17.2482090
-85.6413727 -27.6865063 19.8483181
-86.6387787 -27.5856342 22.2963257
-166.9670258 -27.6491222 37.9409447
-168.4344635 -27.7296352 36.4680672
155.4532776 -25.8355408 -17.8116112
153.8506622 -25.7560272 -15.6611958
72.8120880 -26.5922508 -17.3159256
-85.5950165 -26.4389648 20.2364006
-86.6007996 -26.3448582 22.6255436
-166.9154816 -26.4163570 38.2271576
-168.3870392 -26.4937496 36.7629776
155.4597778 -24.5983944 -17.9640236
153.8659668 -24.5213432 -15.8115997
72.8184052 -25.3381691 -17.4115295
-85.5586395 -25.1959229 20.5280056
-86.5835037 -25.1029930 22.9180183
-166.8588715 -25.1858177 38.4708252
-168.3380890 -25.2610435 37.0109177
-169.8900452 -25.3475723 35.3648682
155.4775391 -23.3632240 -18.1776695
153.8904266 -23.2875328 -16.0126343
72.8299713 -24.0859241 -17.5520477
-84.5552139 -24.0535469 18.1202755
-85.5437317 -23.9534607 20.7802486
-86.5527420 -23.8687859 23.0964508
-166.8311005 -23.9600239 38.6447220
-168.3050079 -24.0318165 37.2014771
155.5229034 -22.1315365 -18.4862556
153.9029236 -22.0561256 -16.2421455
72.8297272 -22.8361588 -17.7716331
-84.5453339 -22.8107433 18.3229885
-125.8563385 -21.8525219 51.8930435
-127.0234528 -21.8575363 52.0345421
-128.2061157 -21.8633976 52.1511765
-129.3995056 -21.8693161 52.2340965
-130.6101074 -21.8793106 52.2810631
-131.8037720 -21.8896885 52.3004723
-166.8080444 -22.7352104 38.7754478
-168.2764587 -22.8046608 37.3498001
157.3248749 -20.9824638 -21.5529690
155.5745544 -20.9006138 -18.8619995
153.9697876 -20.8269119 -16.6076260
72.8543625 -21.5880146 -18.0146103
-84.5347595 -21.5732365 18.4347324
-125.8493958 -20.6605110 51.9137688
-127.0153275 -20.6638470 52.0655212
-128.2137451 -20.6708450 52.1770859
-129.4010925 -20.6782551 52.2433472
-130.6161194 -20.6873360 52.2858047
-131.8156738 -20.6969051 52.3192863
-166.7882690 -21.5134258 38.8595467
-168.2664185 -21.5804100 37.4322586
155.6293030 -19.6693020 -19.2769623
154.0133362 -19.5996819 -16.9992409
72.8674774 -20.3400249 -18.3157597
-84.5352554 -20.3365536 18.5130730
-125.8416977 -19.4674644 51.9167862
-130.6245880 -19.4954109 52.2718353
-131.8048706 -19.5030460 52.3201942
-166.7882080 -20.2940960 38.8847351
-168.2716370 -20.3589382 37.4574928
155.6991730 -18.4441681 -19.8022232
154.0725708 -18.3731499 -17.4725208
72.8936768 -19.0945587 -18.6532822
-84.5294876 -19.1049538 18.4748230
-125.8466187 -18.2759514 51.8955460
-131.8174286 -18.3122368 52.2832832
-166.7944641 -19.0764885 38.8667755
-168.2722473 -19.1386795 37.4474068
155.7925110 -17.2188148 -20.4453964
154.1595764 -17.1501045 -18.0496731
72.9155121 -17.8483639 -19.0677757
71.7276917 -17.9138756 -20.8405495
-84.5410614 -17.8743935 18.3936501
-125.8547211 -17.0849094 51.8462143
-130.6284637 -17.1119251 52.2017975
-131.8347473 -17.1214027 52.2249527
-166.8140411 -17.8605881 38.7954636
-168.2745209 -17.9199486 37.3930321
155.9302979 -15.9832048 -21.1500854
154.2451477 -15.9245453 -18.6682396
72.9436340 -16.6031990 -19.5312519
71.7507324 -16.6669617 -21.3546944
-84.5516510 -16.6455936 18.2500648
-125.8781128 -15.8962688 51.7468796
-127.0533600 -15.8992167 51.9039040
-128.2347717 -15.9064045 52.0223045
-129.4366760 -15.9142723 52.0775719
-130.6462402 -15.9225721 52.1208191
-131.8366547 -15.9314585 52.1519241
-166.8375549 -16.6460342 38.6772270
-168.3106232 -16.7038136 37.2555275
154.3317261 -14.6999340 -19.3499584
72.9661026 -15.3582525 -20.0688152
71.7976608 -15.4213734 -21.9057789
-84.5570984 -15.4174385 18.0096378
-166.8579254 -15.4328804 38.5236740
-168.3436890 -15.4889116 37.0788307
-169.8702393 -15.5474682 35.5054779
154.4813843 -13.4696674 -20.1886654
73.0097961 -14.1154118 -20.6463623
71.8462372 -14.1781569 -22.5138073
-84.5915833 -14.1921759 17.7424030
-166.9102478 -14.2197981 38.3033142
-168.3793793 -14.2742147 36.8642731
-169.9235229 -14.3315029 35.2473946
154.6137085 -12.2406750 -21.0553703
152.9282990 -12.2018862 -18.7036953
151.3318024 -12.1540136 -16.6380234
73.0352097 -12.8684235 -21.3236389
71.8737793 -12.9292660 -23.2221413
-84.6248856 -12.9674387 17.3617630
-85.6522751 -12.9047298 20.0638084
-86.6507416 -12.8443727 22.4245491
-166.9300232 -13.0088606 38.0763664
-168.4202576 -13.0611534 36.6034470
-169.9837341 -13.1149149 34.9500847
153.0548248 -10.9791479 -19.6030464
151.4339447 -10.9325552 -17.4631329
73.0980530 -11.6271877 -22.0148945
-84.6599274 -11.7423935 16.8720779
-85.6814880 -11.6838655 19.6131954
-86.6844635 -11.6267452 22.0311451
-166.9994202 -11.7979622 37.7496872
-168.4912109 -11.8477345 36.2652054
153.2442627 -9.7451086 -20.6620560
151.5599060 -9.7170467 -18.3799210
75.4727859 -10.2758455 -19.2991695
74.2829208 -10.3233719 -21.0203266
73.1370850 -10.3803568 -22.8264027
-85.7344894 -10.4654131 19.1385021
-86.7262497 -10.4090309 21.5784378
-167.0704041 -10.5878849 37.3743477
-168.5565338 -10.6367655 35.8763657
151.6957703 -8.4976463 -19.4011211
75.5136414 -9.0333738 -20.0910187
74.3485718 -9.0823317 -21.8197594
73.1822281 -9.1308117 -23.7064247
-85.7876511 -9.2479095 18.5433674
-86.7849731 -9.1935463 21.0954628
-167.1362610 -9.3784523 36.9615555
-168.6508942 -9.4253712 35.4069290
-170.2167511 -9.4688244 33.7076073
151.8691254 -7.2661252 -20.5497437
150.2769012 -7.2260351 -18.4266949
148.7029266 -7.1991978 -16.5574913
75.5837631 -7.7923646 -20.9218006
74.4148102 -7.8404655 -22.7210274
-85.8601685 -8.0304203 17.9160118
-86.8386536 -7.9768739 20.4959850
-167.2263794 -8.1685333 36.4744148
-168.7558289 -8.2111664 34.8916855
150.4288788 -5.9957366 -19.5113068
148.8366394 -5.9819417 -17.5847702
75.6356888 -6.5487394 -21.8734646
74.4778595 -6.5938258 -23.7235603
-85.9400330 -6.8153586 17.1709957
-86.9140320 -6.7626677 19.8240967
-167.3327179 -6.9586964 35.9272232
150.6016083 -4.7816978 -20.8419609
148.9803162 -4.7635193 -18.7356453
75.6966171 -5.3026285 -22.9117088
-85.9961777 -5.5900407 16.2756424
-86.9916534 -5.5479994 19.0498371
-164.4737549 -5.6756296 38.1524506
-165.9467163 -5.7109046 36.8123093
-167.4400024 -5.7485642 35.3320160
150.8207397 -3.5482450 -22.2728691
149.1730957 -3.5386894 -20.0780048
75.7864227 -4.0594893 -24.0247002
-87.0758820 -4.3337708 18.1863403
-164.5807343 -4.4688234 37.5558815
-166.0668030 -4.5007644 36.1691856
-167.5873413 -4.5280104 34.6575661
149.4061584 -2.3051629 -21.5776310
147.8244171 -2.2862213 -19.5409107
146.2496033 -2.2689033 -17.6912441
78.1835709 -2.7388699 -21.7071342
77.0099030 -2.7688093 -23.4385033
75.8870239 -2.8135719 -25.2400627
-87.1605225 -3.1116819 17.2221241
-88.1638489 -3.0778639 19.8309841
-89.1705627 -3.0435069 22.1257439
-164.7065582 -3.2604342 36.8767548
148.0306091 -1.0641737 -21.0275059
146.4556122 -1.0386699 -19.1039524
78.2719498 -1.4958538 -22.9077663
77.1157379 -1.5313354 -24.6900578
-87.2504120 -1.8872628 16.0965519
-88.2499771 -1.8613904 18.8088779
-89.2592545 -1.8332258 21.2489510
-164.8382416 -2.0508466 36.1498260
148.2619781 0.1669362 -22.7146053
146.6335602 0.1772486 -20.5719471
145.0947113 0.1985012 -18.7611809
143.6012115 0.2230723 -17.2286396
80.7145386 -0.1916924 -20.9894085
79.5452271 -0.2213469 -22.5242100
78.3744812 -0.2518002 -24.2301083
-88.3580246 -0.6430311 17.7451553
-89.3599548 -0.6154742 20.2526512
-162.0796356 -0.7911813 37.9116287
-163.5274658 -0.8144863 36.6921272
-164.9756165 -0.8411489 35.3722496
146.8955383 1.4220233 -22.2749481
145.3003693 1.4271932 -20.3109531
143.7851563 1.4467909 -18.6597729
80.8036804 1.0583708 -22.3100739
79.6354294 1.0338309 -23.9347515
78.4789886 1.0001664 -25.7104187
-88.4564514 0.5904142 16.5472145
-89.4666748 0.6036441 19.1397305
-162.2264252 0.4216283 37.1174355
-163.6753693 0.3978127 35.8647118
-165.1415710 0.3687215 34.4705772
145.5262299 2.6603541 -22.0027504
143.9932251 2.6730027 -20.2526646
80.9064026 2.3046498 -23.7278481
79.7533340 2.2775707 -25.4259834
-89.5825729 1.8225476 17.9427948
-90.5996704 1.8385702 20.3251247
-91.6159973 1.8610834 22.4496098
-162.3632507 1.6259338 36.2814255
-163.8317566 1.6061463 34.9628639
144.2365723 3.9059207 -22.0365219
81.0188599 3.5583036 -25.2930908
-89.7110901 3.0518811 16.5539284
-90.7339935 3.0544426 19.0964069
-91.7379303 3.0755482 21.3241653
-162.5294189 2.8379490 35.3435669
-164.0041351 2.8177626 33.9692764
144.5174408 5.1402993 -24.0893478
142.9743958 5.1452670 -22.2199554
141.4455566 5.1571536 -20.5072060
83.4778748 4.8450885 -23.6652546
82.3118134 4.8277931 -25.2625961
81.1631775 4.8082118 -27.0317001
-90.8547974 4.2845054 17.6958923
-91.8647003 4.2926044 20.0485897
-159.8287964 4.0846057 36.7604523
-161.2676239 4.0709448 35.5884056
-162.7262115 4.0536022 34.2923508
-164.2036743 4.0362110 32.8761597
143.2752686 6.3853788 -24.3716431
141.6975403 6.3807149 -22.4513645
83.6236115 6.0988331 -25.3712273
82.4513550 6.0823951 -27.1122875
-92.0017395 5.5193901 18.6670799
-160.0223999 5.2996874 35.7356873
-161.4593658 5.2842569 34.5183868
141.9939728 7.6172810 -24.6826019
140.4144897 7.6307344 -22.7844772
138.9087830 7.6350427 -21.2524185
86.0970230 7.3883300 -24.1623497
84.9375458 7.3642836 -25.6246338
83.7565918 7.3625250 -27.3232155
-92.1208801 6.7676210 17.0611553
-93.1709976 6.7457323 19.4518509
-94.1982803 6.7513199 21.5743790
-160.1963348 6.5115557 34.6513901
-161.6453400 6.4988885 33.3784714
139.1905212 8.8802023 -23.3720341
86.2567215 8.6415405 -26.0575676
85.0850601 8.6475258 -27.6870861
-93.3370361 7.9735708 17.8636627
-94.3487930 7.9763126 20.1145096
-160.4115295 7.7302427 33.4428635
-161.8699036 7.7220740 32.1238708
139.5450134 10.1585732 -25.8560715
138.0118103 10.1126137 -24.1678219
136.5235901 10.1118374 -22.6959534
135.0464783 10.1183052 -21.3921967
133.6014099 10.1245070 -20.2588882
91.1468353 9.9374752 -22.6893864
89.9604034 9.9332561 -23.8630867
88.7626495 9.9271317 -25.1855354
87.6003647 9.9109650 -26.6023521
86.4199219 9.9112759 -28.2403469
-94.4763489 9.2266426 18.5156288
-95.5370789 9.2105017 20.6427574
-96.5750580 9.2038860 22.5395222
-157.7606812 8.9630775 34.5493965
-159.1915741 8.9605932 33.3980255
-160.6464233 8.9559774 32.1244659
136.8634644 11.3771257 -25.2062454
135.3218231 11.3582754 -23.6469975
133.8587189 11.3588800 -22.3495712
91.3052368 11.2016315 -24.6580620
90.1294785 11.1938705 -25.9108696
88.9413147 11.1867056 -27.3448524
87.7921753 11.1779823 -28.9226341
-95.6996307 10.4491930 18.9853249
-96.7355804 10.4319572 20.9824734
-157.9989929 10.1888065 33.2320557
-159.4204559 10.1810093 32.0345192
135.6681976 12.6462746 -26.2591934
134.1739197 12.6297216 -24.8218231
132.7126617 12.6106949 -23.5627747
131.2946167 12.6076155 -22.4632626
93.8825989 12.4822397 -24.5071182
92.6920471 12.4730778 -25.6241112
91.5120239 12.4691629 -26.8620529
-95.8945541 11.6886730 17.0493183
-96.9266739 11.6577148 19.2514458
-97.9618454 11.6528368 21.2179832
-99.0027466 11.6588459 22.9514713
-152.6645203 11.4353390 35.7809792
-154.0007782 11.4260654 34.9711342
-155.3977356 11.4223251 34.0240326
-156.8107147 11.4203548 32.9694252
-158.2436218 11.4137936 31.8004990
-159.6904602 11.4126120 30.5074539
133.0504761 13.8693352 -26.2112160
131.6103516 13.8591423 -24.9758854
94.0870361 13.7397823 -26.7887821
92.8961411 13.7391481 -28.0482731
-97.1123962 12.9116154 17.2851524
-98.1480103 12.8837214 19.4127254
-99.1787872 12.8890266 21.2933750
-152.8787231 12.6578836 34.4826355
-154.2301636 12.6477089 33.6181335
-155.6443939 12.6499777 32.5968056
-157.0577393 12.6459694 31.4845161
-158.5189362 12.6517448 30.2111893
132.0070648 15.1721277 -27.9575958
130.4962006 15.1129036 -26.6443291
129.0450745 15.1075001 -25.5343437
127.6300354 15.1078205 -24.5849018
126.2473145 15.1062469 -23.7583218
124.8717957 15.1020889 -23.0571632
123.4844055 15.0977488 -22.4825745
99.1274109 15.0285072 -25.2143402
97.9105988 15.0289898 -26.0949402
96.7202148 15.0159283 -27.0507450
95.5148697 15.0151157 -28.1945534
94.3257523 15.0226355 -29.4628277
-98.3643341 14.1228533 17.3537655
-99.3944778 14.1158390 19.4444084
-153.1165619 13.8812447 33.0637894
-154.4887695 13.8775234 32.1167412
129.4350586 16.4019680 -28.6584702
127.9803619 16.3706436 -27.5283623
126.5723953 16.3669071 -26.5239792
125.1804733 16.3596172 -25.7019329
123.7763290 16.3513260 -25.0014820
99.3750458 16.2948627 -27.7686596
98.1657715 16.2907906 -28.7686882
96.9714966 16.2999249 -29.8962860
-98.5996246 15.3977308 15.0158863
-99.6300430 15.3540306 17.2920914
-153.3822327 15.1148615 31.4865494
-154.7751770 15.1105328 30.4545593
125.5798340 17.6466122 -28.8815899
124.1360626 17.6241150 -28.0436649
122.7456055 17.6281548 -27.3877316
121.3747406 17.6073952 -26.7402000
120.0321045 17.6063538 -26.2432880
118.7005768 17.6171494 -25.9413395
117.3535004 17.6145668 -25.7198181
116.0297852 17.6051178 -25.5196114
107.0489655 17.5817356 -26.5014896
105.7881927 17.5845833 -27.0066814
104.5444260 17.5872498 -27.5892544
103.3188400 17.5724277 -28.2043648
102.0937805 17.5752640 -28.9515343
100.8622971 17.5839462 -29.8500385
99.6699677 17.5839863 -30.8835583
98.4681091 17.6169395 -32.0542564
-99.8717422 16.6318531 14.8140020
-100.8844910 16.5955620 17.0574665
-101.9244080 16.5727139 19.0517845
-102.9508972 16.5709343 20.7570496
-104.0267944 16.5567341 22.3591805
-150.8742676 16.3449707 31.6712132
-152.2577972 16.3448505 30.7693481
-153.6689758 16.3498554 29.7417278
-155.0826263 16.3585949 28.6112747
123.1843262 18.9574547 -30.9854794
121.7795181 18.8916817 -30.1922436
120.4236679 18.8842545 -29.5715446
119.0567932 18.8716087 -29.1103477
117.7044983 18.8713417 -28.8302803
116.3747253 18.8790588 -28.5947914
107.3610001 18.8587456 -29.5916061
106.1155090 18.8509521 -30.1327019
104.8752975 18.8616543 -30.8069267
-102.1886139 17.8236732 16.6683235
-103.2129059 17.8014984 18.5797520
-104.2573166 17.8016396 20.3058357
-151.1696472 17.5848122 29.9013271
-152.5582886 17.5880184 28.9216232
-153.9781189 17.5952816 27.8003769
118.1573181 20.2144222 -32.7988968
116.8052750 20.1867809 -32.4574318
115.4880829 20.1359901 -32.1928673
114.1746597 20.1502495 -32.1409492
112.8574905 20.1592464 -32.2486229
111.5661316 20.1512909 -32.3826714
110.2998352 20.1740837 -32.5964584
109.0407410 20.1962013 -32.9229164
107.7660828 20.2120399 -33.5145988
-103.4900818 19.0730209 16.0567646
-104.5315781 19.0357475 18.0054722
-105.5772095 19.0272179 19.7044373
-106.6339035 19.0241394 21.2118320
-148.7258911 18.8186302 29.7536335
-150.1015015 18.8249722 28.8894634
-151.4793396 18.8236389 27.9336319
-104.8074722 20.3516426 15.2264080
-105.8606949 20.2960281 17.1722565
-106.9128876 20.2659035 18.8766994
-149.0539551 20.0677910 27.7218609
-150.4406433 20.0725899 26.7685623
-107.2373657 21.5187645 16.1220036
-108.2694778 21.5047913 17.8353367
-109.3346100 21.4881897 19.3981094
-110.4189682 21.4817677 20.7449112
-111.5068893 21.4699974 21.9584541
-143.9760132 21.2966557 28.5594444
-145.3075867 21.3030052 27.9363041
-146.6698761 21.3154144 27.1976624
-148.0294342 21.3076706 26.3849850
-149.4268951 21.3369370 25.4155216
-108.6065369 22.8220291 14.7624664
-109.6553650 22.7648582 16.5489883
-110.7350006 22.7266140 18.1160564
-111.8046722 22.7094536 19.5192413
-144.3174744 22.5607147 26.3392620
-145.6583557 22.5588799 25.6411667
-111.0993271 24.0452919 14.9196072
-112.1584167 24.0027733 16.5255146
-113.2358398 23.9687366 17.9393559
-114.3218918 23.9514866 19.2092171
-115.4277191 23.9417877 20.3145866
-116.5466232 23.9207230 21.3249855
-117.6733627 23.9132442 22.1988564
-118.8107224 23.9057369 22.9822063
-139.4198608 23.8117619 26.0446968
-140.7222900 23.8129044 25.6222534
-142.0497284 23.8153172 25.1028976
-143.3798523 23.8201351 24.4891224
-144.7096863 23.8185120 23.7973137
-112.5390701 25.3419495 12.8758163
-113.6367035 25.2917099 14.5736179
-114.7100601 25.2285042 16.0675163
-115.7976837 25.2048378 17.3634377
-116.9043655 25.1947823 18.4849968
-118.0220337 25.1683445 19.5074615
-119.1433105 25.1606712 20.3963661
-139.7973633 25.0689945 23.4994278
-141.1173706 25.0747261 22.9743481
-142.4549866 25.0797710 22.3542366
-143.8179169 25.1070423 21.6060524
-118.4343872 26.4743576 16.1667862
-119.5471649 26.4380779 17.2247162
-120.6780090 26.4166393 18.1471062
-121.8146286 26.4111385 18.9421692
-122.9676514 26.4060936 19.6230183
-124.1327133 26.3994122 20.2081871
-125.3116150 26.3937378 20.7160721
-126.5000610 26.3795986 21.1659622
-127.6858978 26.3803387 21.4730091
-128.8851624 26.3669281 21.7443447
-130.1093140 26.3622589 21.9334602
-131.3309784 26.3572826 22.0423050
-132.5718536 26.3594856 22.0502701
-133.8155975 26.3502865 22.0101585
-135.0822144 26.3488693 21.8756218
-136.3503876 26.3419914 21.6655540
-137.6382141 26.3452454 21.3385220
-138.9383545 26.3510437 20.9299507
-140.2540283 26.3755150 20.4143944
-141.6099243 26.4107075 19.7464542
-121.1576920 27.7828522 14.2705183
-122.2996292 27.7439308 15.2541275
-123.4425583 27.6836205 16.0799522
-124.5930405 27.6688728 16.7876110
-125.7528992 27.6842117 17.3716908
-126.9364166 27.6789246 17.8557281
-128.1247559 27.6539097 18.2362957
-129.3303375 27.6363220 18.5064049
-130.5479279 27.6377697 18.6915512
-131.7841492 27.6333504 18.7982521
-133.0274811 27.6291122 18.7960110
-134.2622070 27.6272297 18.7170334
-135.5629883 27.6460266 18.4905663
-136.8630981 27.6767483 18.1780758
-138.1686096 27.6993122 17.7494774
-129.9071655 29.0052299 14.2185459
-131.1299744 29.0163021 14.4149189
-132.3674011 29.0105419 14.4876194
114.8889618 -76.8186264 -31.6447964
111.6620789 -76.8904800 -32.1513748
120.6772919 -75.9744110 -30.5075779
119.9765930 -75.9576416 -30.2095394
119.2747269 -75.9209061 -29.9041138
118.6062469 -75.9084549 -29.7520046
117.9369812 -75.8363113 -29.5480709
114.6307678 -75.8181305 -29.0731869
112.0260849 -75.8912659 -29.4303169
111.4046173 -75.9127350 -29.5752239
109.5218506 -76.1018524 -30.2132854
108.8772659 -76.1410217 -30.4372902
108.2487335 -76.2076340 -30.8173294
107.6292343 -76.2508698 -31.1935616
123.6059418 -74.3710098 -27.6862431
122.9291229 -74.3278656 -27.3781090
129.5907898 -73.1016312 -28.6629219
128.8422089 -73.0419846 -27.9151173
128.0863647 -72.9640427 -27.2053089
127.3645706 -72.8998108 -26.5941563
126.6436844 -72.8409500 -26.0493069
103.8057404 -73.1197052 -25.3227730
103.1920166 -73.1696243 -25.7171783
102.5900116 -73.2100372 -26.1430225
101.9821777 -73.2476120 -26.5994606
99.5812759 -73.5488129 -28.8540916
98.9654236 -73.6817169 -29.5446281
129.3193817 -72.2172623 -26.5667915
97.6210556 -73.0144196 -29.0093937
131.3113708 -71.6340027 -26.7515259
130.5517731 -71.5382690 -26.0130768
129.8337097 -71.4641190 -25.3922596
129.0657196 -71.3728638 -24.7087841
97.4641724 -72.1778946 -27.3556767
96.8904190 -72.2606506 -27.9540386
96.2668915 -72.3660736 -28.6902676
96.1325378 -71.5340881 -27.0531578
134.6448364 -70.3612442 -27.2224751
133.8469086 -70.2474289 -26.2448425
133.0692139 -70.1559677 -25.4024334
96.0025558 -70.7461090 -25.5869331
95.4038925 -70.8427582 -26.2142525
94.8007889 -70.9530029 -26.9251785
134.3541107 -69.5084381 -25.3418484
93.4868622 -70.3420944 -26.9522476
135.6988373 -68.8029556 -25.2001514
134.9061432 -68.7671204 -24.4782143
134.1461487 -68.6957932 -23.7238712
93.4073334 -69.5141983 -25.5297909
92.7951126 -69.6213837 -26.2917366
92.2338409 -69.6823959 -27.0703621
-126.2319412 -68.4952240 15.9090509
-130.4067383 -68.4208755 17.2226200
-134.1911469 -68.4658356 17.0050735
137.6024170 -67.5650024 -24.8811150
136.8108368 -67.4641495 -23.9975281
-123.5614624 -67.7164993 17.0473518
-124.1192932 -67.6777039 17.4436684
-124.7086945 -67.6335220 17.7994232
-125.2958221 -67.5741959 18.1122818
-125.8915405 -67.5484543 18.3616352
-130.0710297 -67.4909439 19.5864143
-133.1836700 -67.5323715 19.5961647
-133.8170319 -67.5584106 19.4978085
-118.8229675 -67.2151260 15.0353060
-120.4550705 -66.9974365 16.9312515
-121.5436554 -66.9820099 17.9360695
-122.0964279 -66.9318008 18.4523735
-134.7944794 -66.8130722 21.3427658
-138.7377472 -67.0465622 20.0409603
138.7174225 -66.1651382 -23.7842197
137.9347534 -66.0694427 -22.8853416
89.4247284 -67.0171967 -25.0111332
88.8318100 -67.1173553 -25.8306198
88.2430344 -67.2159576 -26.6893330
-117.9615631 -66.3600845 16.7785320
-118.5194473 -66.2862549 17.4065990
-120.1888275 -66.1578751 18.9857960
-120.7513885 -66.1102371 19.5161095
-121.3149109 -66.0974808 19.9543953
-121.8693771 -66.0780945 20.3527412
-134.5358429 -66.0285416 23.1397953
-135.1736908 -66.0513840 23.0188389
-135.8083954 -66.0694427 22.8861980
-136.4461060 -66.0842285 22.7241440
-137.1060181 -66.1009293 22.5102959
-137.7593994 -66.1281815 22.3022041
-138.4136353 -66.1848526 22.0700035
-139.0729370 -66.2522659 21.8075752
-139.7706146 -66.3249588 21.4656658
88.1503143 -66.4407196 -25.4627819
-116.0746613 -65.7605209 16.8891335
140.6980591 -64.9198456 -23.8709564
88.0684052 -65.6998825 -24.3382359
87.4594193 -65.8148422 -25.1207371
-114.2295609 -65.1328278 16.5974102
-114.7666016 -65.0324554 17.4295502
-115.2991562 -64.9729691 18.1049709
-115.8497467 -64.9002991 18.7887821
-141.9202576 -64.9056091 23.6010094
-142.5981750 -64.9629211 23.2088757
-143.2931519 -65.0158081 22.7666264
-143.9987946 -65.0721359 22.2698364
140.5455017 -64.0419922 -22.2402153
86.7827301 -65.1546555 -24.8379669
141.1492004 -63.5052605 -22.3249321
140.3518372 -63.4352608 -21.3714771
86.7112885 -64.4110260 -23.8480282
86.1125641 -64.5101929 -24.6753769
85.5333481 -64.6128006 -25.5177231
-111.6539001 -63.7888412 17.1900196
-112.1828537 -63.6933823 18.0149097
-145.5646210 -63.6772041 24.2125950
141.7410431 -62.8357239 -22.0869732
-109.8980637 -63.2131691 16.3728313
-145.2732849 -62.8501396 25.7443619
143.1515808 -62.2677155 -22.9113159
142.3206177 -62.1550331 -21.8458595
141.5353699 -62.0688591 -20.8969574
84.2078171 -63.3322716 -25.1826763
-108.6614227 -62.6061325 16.1374931
-109.1886292 -62.4711075 17.2164230
-109.7003860 -62.3958702 18.0831490
-145.0821075 -62.1090126 27.0718479
-144.8990326 -61.3960266 28.3170452
144.3415222 -60.9324989 -22.5984650
82.8667145 -62.0730591 -25.0857868
-106.7298508 -61.2756386 16.6937160
-107.2553558 -61.1508598 17.7298603
-144.7223969 -60.6962852 29.4557419
-145.3985748 -60.7360344 29.0910225
-146.0510254 -60.7579422 28.7311840
-146.7286530 -60.7981949 28.3113556
-106.0482330 -60.5592041 17.3352661
145.6372681 -59.6458206 -22.6046276
81.5878525 -60.8153191 -25.0173626
-104.8451996 -59.9997978 16.7674961
-105.3752289 -59.8693199 17.8828468
-105.8846664 -59.7937012 18.8191605
-151.3223267 -59.8168449 27.0725250
-103.6779022 -59.4143600 16.1904564
-152.5480194 -59.2184029 27.0537529
145.3387604 -58.2781906 -20.4594002
80.2924652 -59.5763474 -25.1943169
-103.0112305 -58.7320137 16.6052895
-103.5246658 -58.6088829 17.7371960
-152.3115387 -58.4440193 28.2852211
-153.0431061 -58.5321350 27.6626835
-153.8007202 -58.6243896 26.9452114
146.0729370 -57.6407700 -20.6165295
145.2432556 -57.5556602 -19.6145153
80.2701340 -58.8310852 -24.3315697
79.6940765 -58.9274902 -25.3372116
-102.3463974 -58.0629349 16.9630547
145.8780060 -56.9113884 -19.6771755
145.1088104 -56.8542099 -18.7680092
80.2350998 -58.1077042 -23.5230160
-101.6995544 -57.3936844 17.3043404
-102.2031097 -57.3148651 18.3335991
-153.4201508 -57.1780586 29.2743950
148.2328491 -56.4943123 -22.1246262
80.1663742 -57.4082527 -22.7738438
-101.0181122 -56.7691154 17.4476528
-154.6882935 -56.6156235 29.0663967
148.0597687 -55.7689476 -21.1832600
80.0836182 -56.7461395 -22.0759449
-100.9120255 -56.0181351 18.8091164
-154.4741364 -55.8689308 30.0900383
-155.2291718 -55.9469833 29.4203339
-155.9975586 -56.0336342 28.6871166
-156.7527924 -56.1127396 27.9429131
80.0336685 -56.0567131 -21.3413277
-155.7814789 -55.2828217 29.7200184
-156.5146179 -55.3569641 29.0127163
149.4270172 -54.5563812 -21.7202206
79.9723969 -55.3837433 -20.6938553
79.4072342 -55.4551735 -21.5117970
78.8186798 -55.5327606 -22.4454327
78.2512665 -55.5998077 -23.3808575
77.6593857 -55.6946564 -24.3672733
77.0319824 -55.8274574 -25.4360676
-98.6400833 -54.9446564 16.6236782
-155.6237488 -54.5834999 30.6538506
149.2838440 -53.8399239 -20.8622341
77.5816422 -55.0178070 -23.7017155
-155.4578857 -53.8930511 31.5929146
149.9733429 -53.2374306 -21.2056942
149.1419373 -53.1469765 -20.0483036
77.5578918 -54.3229294 -22.9800320
76.9482422 -54.4283447 -23.9774437
76.3527756 -54.5255737 -24.9771500
-97.4015427 -53.6731720 16.6550770
-155.3453674 -53.2377892 32.4260559
-156.0528412 -53.2902527 31.8378563
-156.7635803 -53.3415451 31.2113457
-157.4844055 -53.4091187 30.5607014
-158.2726288 -53.5160332 29.8350792
150.6505737 -52.6302109 -21.5601883
76.3322601 -53.8198433 -24.3090763
75.7266922 -53.9323769 -25.4143314
-158.0929413 -52.8075600 30.7452412
-158.8535767 -52.8972931 30.0281906
151.4461670 -52.0668716 -22.1407700
150.5515594 -51.9494629 -20.8187408
76.2977219 -53.1273727 -23.6653252
-96.1634827 -52.4387283 16.4690514
-157.9181061 -52.1036873 31.6301956
150.4275055 -51.2693062 -20.0485249
-95.5448532 -51.8333282 16.3160839
-96.0640945 -51.7081757 17.6671047
151.2196045 -50.7026939 -20.5674057
150.3211823 -50.5910797 -19.3475513
-95.9517212 -51.0112000 18.7223549
-159.1283417 -50.9011078 31.9275017
151.8298645 -49.3480110 -20.1767483
74.9179230 -50.6118813 -23.2385426
-94.7343826 -49.8013573 18.2655621
-160.3868561 -49.6969490 31.9846382
152.5338593 -48.8155746 -20.9136562
151.7292023 -48.7634964 -19.7371159
74.8550034 -49.2594528 -22.2220535
74.2563171 -49.3477745 -23.1886520
-93.5412979 -48.6033707 17.6650429
-161.6401520 -48.4839630 31.9659901
151.5155945 -47.3897705 -18.4717369
74.8344116 -48.5847130 -21.7489834
-93.4732208 -47.8958855 18.6164532
-161.5086365 -47.7980461 32.6553993
-162.2698059 -47.8805237 31.9164066
153.1418610 -46.8641472 -20.4238129
152.2767487 -46.7729568 -19.1156330
151.4661102 -46.7631378 -18.0715733
74.8155746 -47.9117622 -21.2838039
74.2451096 -47.9846230 -22.1986561
73.6304855 -48.0757561 -23.2319107
-92.3737030 -47.4064407 16.9271450
-92.8786011 -47.3067970 18.2121811
-93.3845139 -47.2209473 19.4423637
-161.3827820 -47.1288643 33.3251572
-92.3147812 -46.7032318 17.8493118
-91.7166290 -46.1229668 17.3338566
-92.2298813 -46.0191917 18.6664276
-162.5848236 -45.9296875 33.2574883
-163.3505707 -46.0065689 32.5074883
154.5326233 -45.0735130 -21.3386192
72.3683167 -46.2378044 -23.9768105
71.7647705 -46.3294296 -25.0780163
-91.1392746 -45.5360184 16.8439865
-162.4566040 -45.2595139 33.8637772
154.4346161 -44.4124489 -20.8043118
72.3374863 -45.5731087 -23.5708504
-91.0629272 -44.8603134 17.6415691
-162.3770905 -44.6103821 34.4117012
-163.1001740 -44.6768646 33.7472382
154.2765503 -43.7263489 -20.1825695
72.3156967 -44.9092560 -23.1457767
-163.7490540 -44.0851250 33.5650063
-164.5450897 -44.1599274 32.7615166
155.1577606 -43.1842308 -21.1436558
154.2508392 -43.0878792 -19.7972832
72.2946548 -44.2457657 -22.7517910
71.6829071 -44.3369904 -23.8254070
71.0861511 -44.4219131 -24.9178696
-163.6228180 -43.4151573 34.1404419
155.0667572 -42.5207558 -20.6556473
154.1935730 -42.4362144 -19.3736324
-89.8557739 -43.0178146 17.3120308
-163.5552521 -42.7774582 34.6497459
-164.3221741 -42.8541908 33.9397278
154.1133423 -41.7864914 -18.9489841
-89.2759781 -42.3760452 16.7638416
-89.8006821 -42.3337593 18.0523434
-163.4426270 -42.1239662 35.1846809
155.7841034 -41.3000870 -21.1313820
71.0387650 -42.4333763 -23.7499046
70.4316101 -42.5169792 -24.8479729
-89.7360306 -41.6724434 18.7088699
155.6892090 -40.6394424 -20.6633091
71.0267487 -41.7759857 -23.4222965
-88.6447678 -41.2012787 16.5806446
-89.1759872 -41.0918274 18.0384579
-89.6936493 -41.0049744 19.3871803
70.9951401 -41.1222191 -23.1243114
-88.6087418 -40.5216866 17.3029842
-164.7154083 -40.3180504 35.1542435
-165.5150146 -40.3872871 34.3803062
-88.5679703 -39.8529625 17.9607010
-164.6079254 -39.6643524 35.6107140
157.1451569 -38.2008934 -22.0082951
157.1507568 -37.5645409 -21.8045216
-87.4231644 -38.0541878 16.8520889
-165.9235535 -37.8560829 35.2763557
157.0373383 -36.9093704 -21.4262753
-87.3814926 -37.3935394 17.4292927
70.9040909 -37.2323341 -21.6156139
70.8947830 -36.5881767 -21.4034100
-165.7707672 -35.9683037 36.3579597
-166.4887390 -36.0120811 35.6335220
72.0326309 -35.8336716 -19.3743458
-165.6799622 -35.3321495 36.7345848
156.8833008 -34.3616829 -20.5213032
72.0096512 -35.1978302 -19.2302799
-165.6076660 -34.7010880 37.0626984
72.0097656 -34.5581131 -19.0806351
-86.1601868 -34.3194008 17.1409760
-165.5359497 -34.0698738 37.3718987
72.0045547 -33.9210472 -18.9643707
71.3904724 -33.9785271 -19.8537712
-86.1283340 -33.6718941 17.5781345
-165.5031128 -33.4450645 37.6428032
-166.2436066 -33.4923553 36.9286613
-166.9762726 -33.5354538 36.1937180
-167.7330627 -33.5879631 35.3995018
-168.4552155 -33.6320686 34.6234398
156.8098145 -32.4666595 -19.9700317
-86.0892563 -33.0319061 17.9555798
-168.4061890 -33.0021477 34.9319649
156.7748260 -31.8356228 -19.8148937
-85.5224152 -32.4782486 16.8580017
-86.0701370 -32.3875427 18.3561821
-168.3402557 -32.3743782 35.2156601
156.7846985 -31.2101440 -19.7525616
-168.3040771 -31.7498531 35.4618835
156.7629242 -30.5815144 -19.6644859
-168.2526398 -31.1239471 35.7317047
-169.0161743 -31.1728668 34.9203148
156.7368622 -29.9535046 -19.5837784
-168.2366028 -30.5029850 35.9578476
156.7068329 -29.3268490 -19.5067635
-84.9037247 -30.0017281 16.7659302
-168.1766510 -29.8786564 36.2058258
-168.9250793 -29.9265919 35.4218750
-169.7526093 -29.9860020 34.5291710
-170.5533447 -30.0415611 33.6489601
156.7484131 -28.7057362 -19.5417500
-84.9153214 -29.3547382 17.1471901
-169.7039185 -29.3584843 34.7437782
156.7486572 -28.0815411 -19.5324726
-84.9218597 -28.7168617 17.4748859
-169.6428833 -28.7322235 34.9756088
156.6910553 -27.4543495 -19.4578648
-84.9144516 -28.0862122 17.7172050
156.7239075 -26.8338451 -19.5282707
-84.3741455 -27.5278358 16.4092541
-84.9090195 -27.4524288 17.9683361
156.7437897 -26.2130127 -19.5968037
156.6959686 -25.5898266 -19.5875931
-84.8456268 -26.1793442 18.4224377
-169.5131836 -26.2494545 35.6135559
-170.3188477 -26.2972202 34.7159157
156.7408905 -24.9713135 -19.7279434
-84.8398056 -25.5806484 18.5512199
156.7833557 -24.3528385 -19.8813267
-83.8383179 -25.0827618 15.5504303
-84.3246307 -25.0166779 17.1883240
-84.8147736 -24.9591312 18.6538620
156.8181305 -23.7350845 -20.0398903
-83.8323059 -24.4533119 15.7756853
-169.4512939 -24.3989067 35.9751434
-170.2428894 -24.4427681 35.1420631
156.8004761 -23.1170139 -20.1428814
-83.8294067 -23.8271694 15.9483566
-169.4187164 -23.7819767 36.0952759
156.7780762 -22.5022430 -20.2676640
-83.8097458 -23.2039051 16.0532951
-169.4436646 -23.1704082 36.1454582
157.7623444 -21.9267311 -21.9442730
156.8261108 -21.8860283 -20.5112953
71.9370193 -22.5777283 -19.0691128
-83.7913589 -22.5817261 16.1605492
-169.4296417 -22.5553799 36.2141914
71.9558563 -21.9532166 -19.1915951
-83.7793884 -21.9621105 16.2198200
-169.4246979 -21.9421387 36.2541237
71.9415436 -21.3285599 -19.3667336
-83.7738724 -21.3427582 16.2437172
-169.3944397 -21.3283043 36.2999649
-170.1680603 -21.3668270 35.4631462
157.8773651 -20.0792465 -22.7370567
156.9022217 -20.0370007 -21.1451912
71.9743652 -20.7039852 -19.4842777
-83.2550735 -20.7802811 14.6643028
-83.7724991 -20.7217674 16.2887802
-126.7188492 -19.7682056 52.0393181
-127.3226089 -19.7714672 52.1070671
-127.9217377 -19.7748737 52.1527748
-128.5165253 -19.7787476 52.1863480
-129.1292419 -19.7828312 52.2148933
-129.7242279 -19.7872047 52.2380638
-169.3868866 -20.7158298 36.3153687
71.9730988 -20.0779171 -19.6655521
-83.7595978 -20.1027012 16.3100605
-126.7161102 -19.1717415 52.0377159
-129.7454071 -19.1914635 52.2268295
-169.4182587 -20.1063595 36.2824898
157.0411377 -18.7987480 -21.6991081
71.9717865 -19.4538498 -19.8675613
-83.7526474 -19.4844284 16.3027000
-126.7273636 -18.5764904 52.0361519
-130.9337463 -18.6030655 52.2770271
-169.4071960 -19.4947128 36.2843323
157.0737152 -18.1844101 -22.0017872
71.9952698 -18.8306923 -20.0594692
71.4111328 -18.8628807 -20.9383354
-83.7373199 -18.8679199 16.2296352
-130.9351959 -18.0069103 52.2558136
-169.4011993 -18.8836136 36.2779770
157.1720123 -17.5688286 -22.4410419
-83.7538910 -18.2495651 16.2185936
-126.6718369 -17.3729477 52.0136337
-128.3080139 -17.3832932 52.4871178
-169.4104309 -18.2733803 36.2453041
157.2057190 -16.9537811 -22.7819366
-83.7497177 -17.6335373 16.1336632
-126.7219391 -16.7758102 51.9703293
-127.3260345 -16.7499237 52.0421562
-127.9298401 -16.7516193 52.1179314
-128.5252228 -16.7887707 52.1556969
-169.3946228 -17.6618748 36.2323303
157.2433777 -16.3393726 -23.1467266
-83.7516022 -17.0168533 16.0591278
-169.4537964 -17.0531845 36.1309433
-83.7584763 -16.3999329 15.9870224
-169.4403076 -16.4439697 36.0825043
155.5574341 -15.0439806 -20.9500751
70.8922577 -15.7781763 -23.2261696
155.6269836 -14.4242382 -21.3447895
70.9146118 -15.1557188 -23.5357571
155.7083130 -13.8052425 -21.7826157
70.9404984 -14.5319157 -23.8483715
70.9555740 -13.9049730 -24.1920509
70.9894562 -12.6568947 -24.9437733
154.2939758 -11.3091145 -21.1191864
72.2062836 -11.9840345 -23.2712173
71.6061249 -12.0060902 -24.3018303
71.0001526 -12.0262289 -25.3610744
154.4062805 -10.6831284 -21.6699619
72.2132187 -11.3526888 -23.6918659
-169.6728058 -11.5811348 34.9639893
72.2192001 -10.7227221 -24.1253853
-84.9570313 -10.8139944 17.2352390
-169.7162628 -10.9733181 34.7429085
-85.0042038 -10.2072973 16.9569855
-169.7559204 -10.3677731 34.5141296
153.8213501 -8.8238277 -22.1286869
152.9175720 -8.8251381 -20.8501549
72.2771454 -9.4763470 -24.9828472
-85.0449829 -9.5995073 16.6123486
153.0006256 -8.2113981 -21.4390354
72.2988052 -8.8409939 -25.4637012
-85.0767059 -8.9880352 16.2641048
154.0283813 -7.5998039 -23.4751759
153.1094360 -7.5878730 -22.0689888
-85.1085510 -8.3772182 15.9179020
-84.6222916 -7.7889700 13.8506956
-85.1373672 -7.7659216 15.4917288
151.6574249 -6.3213830 -20.8771076
-84.6780014 -7.1858039 13.4222717
-168.4062500 -7.2958918 34.9374352
-169.2220001 -7.3074369 34.0768242
-168.5046539 -6.6846590 34.6028023
151.8002625 -5.0654297 -22.1433144
74.8158264 -5.6442695 -24.0328007
-168.5739288 -6.0731006 34.2870865
151.9504852 -4.4678817 -23.0148067
74.8398514 -5.0197797 -24.6298695
-168.6637726 -5.4611287 33.9409218
-86.2845993 -4.6609559 16.3149796
-86.3420334 -4.0510597 15.8264189
150.5950470 -2.6083548 -22.8709393
-85.8764801 -3.4522550 13.6509647
-86.3917847 -3.4398406 15.3435030
-165.7472992 -3.5940349 36.0492897
-166.5399780 -3.6069124 35.2639046
150.7429810 -1.9801503 -23.7409458
-165.8361969 -2.9892046 35.6472969
150.0250549 -1.3517091 -23.3271751
149.1919556 -1.3631057 -22.2047424
76.2256317 -1.8633283 -25.7790222
-165.8995056 -2.3800242 35.2848701
149.3595734 -0.7252361 -23.0777321
76.2573547 -1.2324014 -26.5186138
75.6524124 -1.2270616 -27.5869141
-165.9864960 -1.7684367 34.8951912
77.4760895 -0.5845345 -25.2565727
76.8793182 -0.5871730 -26.2661781
76.2947845 -0.5940549 -27.2756958
-87.5647812 -0.9603251 15.9038296
149.6496429 0.5030527 -25.0719070
