79.2967758 -78.2996674 -31.7430801
-106.3349915 -76.9031296 12.0085745
-107.3874664 -76.7377625 13.7876854
-108.4541550 -76.5992813 15.3630104
-150.9791565 -76.4830780 23.2198830
-152.3931580 -76.6048355 22.2455292
-153.8294373 -76.7668762 21.1541138
144.2806244 -75.6189499 -28.3150787
142.7292480 -75.4462585 -26.3998318
141.1735535 -75.3003006 -24.6867809
82.7242584 -76.3487091 -25.6160793
81.5276260 -76.5069427 -26.9981251
80.3413925 -76.6775284 -28.5136528
79.1765671 -76.8528137 -30.1531429
77.9729843 -77.0856323 -31.9954872
-105.0171204 -75.5661163 12.6173105
-106.0599136 -75.4073486 14.3853264
-107.1313858 -75.2665329 15.9810867
-108.2136536 -75.1393433 17.4099941
-150.6899414 -75.0652313 25.0605316
-152.0757446 -75.1642532 24.1984806
-153.4585114 -75.2796783 23.2508774
145.6071320 -74.3616486 -28.6441460
144.0370789 -74.1809387 -26.6207581
77.8750305 -75.6325073 -30.4888916
-102.6955109 -74.4548950 10.9667768
-103.7197266 -74.2579269 13.0091467
-104.7613220 -74.1058197 14.7963285
-105.8278351 -73.9595490 16.4132195
-153.1679077 -73.8654327 25.0243454
-154.5771790 -73.9877777 24.0179138
-156.0206146 -74.1345749 22.8857517
145.3725128 -72.9404984 -27.0183487
143.8236694 -72.7881241 -25.1443920
77.7814941 -74.2183228 -29.0991535
76.5844116 -74.4275208 -30.9160385
-101.4118347 -73.1656189 11.1745720
-102.4438324 -72.9759521 13.2224092
-103.4889374 -72.8059692 15.0798779
-104.5501251 -72.6743469 16.6878967
-105.6231842 -72.5504684 18.1535435
-152.8938141 -72.4676208 26.6382713
-154.2831879 -72.5770416 25.7157059
-155.7073364 -72.7005157 24.6686268
146.7659912 -71.7213211 -27.6390419
145.1752014 -71.5469971 -25.5900631
143.6418152 -71.4030991 -23.8505955
77.6776733 -72.8337021 -27.8789120
76.5070801 -73.0106201 -29.5877342
-100.1569061 -71.9015579 11.1752338
-101.1852493 -71.7067261 13.2808809
-155.4449921 -71.3096771 26.2632427
-156.8799438 -71.4337158 25.1799755
-158.3138123 -71.5687103 23.9883633
-159.7945251 -71.7472000 22.6543331
148.2263336 -70.5261993 -28.4964428
146.5752411 -70.3354568 -26.2592087
144.9846649 -70.1784210 -24.3246231
143.4842682 -70.0547256 -22.7259483
77.5841980 -71.4600449 -26.7763710
76.4090118 -71.6317291 -28.4169655
-98.9403076 -70.6342621 11.0167599
-99.9523239 -70.4392853 13.2114010
-100.9778519 -70.2891464 15.1013975
-155.2132874 -69.9415283 27.6789284
-156.6428986 -70.0624771 26.6601849
-158.0397644 -70.1746826 25.5824966
-159.4770508 -70.3151245 24.3676414
147.9837341 -69.1224823 -27.0617161
146.3858948 -68.9599457 -24.9967632
77.5119400 -70.0944977 -25.7687359
76.3203278 -70.2596283 -27.3584442
-97.7273636 -69.4002838 10.7042370
-98.7322617 -69.2048492 12.9532137
-157.7987671 -68.8039856 27.0083332
-159.2192841 -68.9340668 25.8777542
149.4259796 -67.9383240 -28.0509644
147.8125916 -67.7582932 -25.8494072
146.2231445 -67.6049042 -23.8994026
77.4294586 -68.7458496 -24.8870811
76.2361603 -68.9081573 -26.4189796
75.0704727 -69.0629425 -28.0321827
-96.5185776 -68.1819763 10.1990089
-97.5290222 -67.9793320 12.5556412
-98.5475540 -67.8082581 14.6198864
-157.5875244 -67.4511337 28.2911758
-158.9720154 -67.5621185 27.2459774
-160.4279480 -67.7000732 26.0412140
-161.9610596 -67.8669052 24.6368885
149.2532043 -66.5678787 -26.8543568
74.9908600 -67.7093964 -27.1170692
73.8054886 -67.8902893 -28.8840160
72.6414185 -68.0802002 -30.7931309
-96.3322983 -66.7606201 12.0112677
-160.1945648 -66.3355789 27.3476448
-161.6933594 -66.4764862 26.0321960
-163.2224121 -66.6502075 24.6130447
150.7189636 -65.3987198 -28.0239925
149.0673218 -65.2104340 -25.7420425
74.9157410 -66.3706284 -26.2984314
73.7471161 -66.5325012 -27.9761143
72.5744019 -66.7158203 -29.8210907
-95.1481323 -65.5643158 11.3047123
-96.1641541 -65.3683319 13.6079588
-159.9978943 -64.9993134 28.5209312
-161.4833679 -65.1296082 27.2796669
-162.9464722 -65.2658691 25.9699020
150.5436554 -64.0409012 -26.9663963
148.9396210 -63.8780212 -24.8172073
72.5153275 -65.3563385 -28.9243507
71.3125153 -65.5594330 -30.9025345
-93.9733276 -64.3842163 10.4257202
-94.9854279 -64.1774139 12.8357487
-96.0048447 -64.0139999 14.9659767
-162.7444305 -63.9196358 27.1559334
-164.2055206 -64.0694580 25.8235092
150.3998108 -62.7050781 -26.0452709
148.7939453 -62.5438461 -23.9581623
72.4552765 -64.0174866 -28.1414852
71.2830734 -64.1970444 -30.0344334
-93.8262024 -62.9946480 11.9261141
-94.8450546 -62.8159142 14.2008877
-95.8864517 -62.6544304 16.2292328
-162.5672455 -62.5946312 28.2217312
-163.9914703 -62.7222061 26.9675617
151.9002533 -61.5478287 -27.4893799
150.2683411 -61.3798904 -25.2203751
148.7162170 -61.2421646 -23.2766476
72.3963470 -62.6859665 -27.4495125
71.2230911 -62.8575134 -29.3004436
-92.6925201 -61.8235321 10.8552027
-93.6865997 -61.6376076 13.2611856
-162.3940277 -61.2748070 29.2147427
-163.8050537 -61.3907776 28.0105991
-165.2933044 -61.5431557 26.6463413
151.8024445 -60.2312965 -26.7148666
150.1594543 -60.0649948 -24.5013695
148.6094360 -59.9327126 -22.6247139
72.3418884 -61.3649101 -26.8360310
71.1721497 -61.5278282 -28.6359100
69.9749298 -61.7162971 -30.6301308
-91.5638123 -60.6666260 9.5755987
-92.5536041 -60.4625320 12.1808577
-93.5696640 -60.2914772 14.4541454
-162.2256775 -59.9627304 30.1260986
-163.6313629 -60.0756836 28.9639359
-165.0897522 -60.2103691 27.6556568
151.7062225 -58.9195099 -25.9623699
72.3012772 -60.0469398 -26.2826786
71.1241913 -60.2063026 -28.0430279
-91.4460297 -59.3039398 10.9293966
-164.9331360 -58.8966408 28.5378704
151.5810242 -57.6090546 -25.3712177
72.2590790 -58.7387810 -25.8095589
71.0792694 -58.8931770 -27.5238342
-90.2933121 -58.1863632 9.3960009
-91.3178864 -57.9675827 12.0766077
-164.7952576 -57.5974121 29.3377380
-166.3240662 -57.7375488 27.9365807
153.1285095 -56.4675713 -27.1824398
151.4682922 -56.3046265 -24.8235073
72.2183533 -57.4371223 -25.4034481
71.0395966 -57.5817795 -27.0679474
69.8550568 -57.7431984 -28.9194832
-91.2107925 -56.6445541 13.0724316
-164.6690674 -56.3071823 30.0752068
-166.1506805 -56.4275818 28.7420883
153.0498657 -55.1715469 -26.6862240
151.4223022 -55.0199661 -24.4206944
72.1837311 -56.1403580 -25.0479279
70.9984665 -56.2828636 -26.6892586
-89.1223297 -55.7071762 8.7895441
-90.1114655 -55.5002213 11.5679607
-91.1326523 -55.3245087 13.9977932
-164.5387878 -55.0213127 30.7567101
-166.0374451 -55.1415520 29.4360218
154.6888580 -54.0618134 -28.8777237
152.9850464 -53.8848305 -26.2873058
151.3524170 -53.7386169 -24.0585976
72.1673813 -54.8435364 -24.7225609
70.9781799 -54.9835739 -26.3544197
-89.0416794 -54.3705826 9.8110504
-164.4397583 -53.7439766 31.3495350
-165.9089050 -53.8564491 30.0940704
154.6133118 -52.7711639 -28.4951897
152.9407043 -52.6064529 -25.9791050
151.2989197 -52.4628677 -23.7614670
72.1358337 -53.5568314 -24.4854431
70.9532776 -53.6936760 -26.1080227
-87.9561386 -53.2732735 7.7531466
-88.9481125 -53.0587730 10.6904879
-164.3577118 -52.4755287 31.8737507
-165.8224335 -52.5846214 30.6496429
-167.3506622 -52.7103424 29.2535362
-168.8208160 -52.8371964 27.8408089
154.5576477 -51.4892883 -28.2051792
72.1187134 -52.2741203 -24.2867756
70.9385986 -52.4052124 -25.8928528
69.7482224 -52.5484352 -27.6273766
-88.8740234 -51.7531204 11.4877748
-167.2353668 -51.4331436 29.8049240
-168.7118225 -51.5556068 28.4031715
154.5296936 -50.2159691 -28.0002003
72.1034012 -50.9944725 -24.1300182
70.9217377 -51.1217613 -25.7151985
-87.8205490 -50.6389084 9.4415531
-88.8086700 -50.4582977 12.1606960
-167.1394958 -50.1638031 30.2953606
-168.6032410 -50.2794647 28.9196529
154.4799500 -48.9431763 -27.8030014
72.1003494 -49.7169800 -24.0067215
70.9034653 -49.8436089 -25.5982361
-87.7707825 -49.3399963 10.1438198
-88.7507935 -49.1727600 12.7460318
-167.0671692 -48.9040298 30.7147369
-168.5116577 -49.0120544 29.3799400
154.4719391 -47.6796188 -27.7369499
72.0865707 -48.4453011 -23.9586067
70.8950729 -48.5675659 -25.5309448
-86.7087097 -48.2536163 7.7277193
-87.7166901 -48.0522308 10.7218781
-88.7059708 -47.8935471 13.2526646
-166.9992371 -47.6461754 31.0828476
-168.4545288 -47.7536087 29.7593613
-169.9382324 -47.8728714 28.2947426
154.4762268 -46.4230309 -27.7669945
72.0695343 -47.1782684 -23.9684868
70.8854370 -47.2966537 -25.5213184
-86.6615982 -46.9632988 8.3085108
-87.6744080 -46.7729301 11.2146320
-88.6630478 -46.6245155 13.6567774
-169.8706360 -46.6121788 28.6450233
-171.4217682 -46.7438469 27.0007515
154.4684296 -45.1684456 -27.8343678
72.0742950 -45.9117813 -23.9966240
70.8758698 -46.0293846 -25.5691261
-87.6238403 -45.5041161 11.5849447
-88.6312714 -45.3588791 14.0093985
-169.8144989 -45.3573341 28.9444771
154.4885559 -43.9190750 -27.9851189
111.4787521 -42.9429932 -4.8226776
110.1981125 -42.9618263 -4.8436518
72.0766068 -44.6495667 -24.0853062
70.8755112 -44.7647438 -25.6635342
-86.5979385 -44.4050293 9.1745186
-87.5884552 -44.2395935 11.9110889
-88.6088791 -44.0978851 14.3068771
-169.7980194 -44.1115990 29.1533852
154.5148773 -42.6738510 -28.2132244
111.4836502 -41.7161789 -4.9361157
110.2133789 -41.7353821 -4.9929981
72.0780640 -43.3899231 -24.2257118
70.8734818 -43.5033379 -25.8119888
-86.5716171 -43.1370621 9.4643402
-87.5764847 -42.9770699 12.1848087
-88.5866394 -42.8442268 14.5151510
-169.7471924 -42.8645935 29.3551178
-171.2613068 -42.9796143 27.7908783
154.5552673 -41.4319801 -28.5203514
72.0933762 -42.1319084 -24.3896027
70.8865509 -42.2423325 -25.9847412
-86.5636215 -41.8767815 9.6648674
-128.2359009 -40.2880020 43.4290009
-129.4330750 -40.2955894 43.5663910
-130.6220856 -40.3007126 43.6750336
-131.8416443 -40.3112946 43.7562637
-133.0318909 -40.3190765 43.8056107
-134.2490082 -40.3349800 43.8147964
-169.7293091 -41.6229935 29.4795666
-171.2320862 -41.7340851 27.9357262
154.6022186 -40.1919556 -28.8654327
72.0866394 -40.8777733 -24.6364536
70.9073181 -40.9849548 -26.2003250
-86.5561218 -40.6222153 9.7783270
-128.2229767 -39.0821915 43.4518814
-129.4132385 -39.0856628 43.5958748
-130.6117249 -39.0943947 43.6982307
-131.8401184 -39.1048889 43.7613754
-133.0471039 -39.1164322 43.7920151
-134.2633209 -39.1295853 43.8070641
-169.7114258 -40.3848724 29.5568638
-171.2193909 -40.4935608 28.0193119
154.6848450 -38.9571342 -29.3534851
152.9699402 -38.8309898 -26.8083763
151.3308868 -38.7197189 -24.5906525
72.1048584 -39.6244812 -24.9103661
70.9099731 -39.7305298 -26.5077286
-86.5612640 -39.3704605 9.8591433
-128.2311401 -37.8773117 43.4509354
-129.4292908 -37.8822937 43.5862427
-134.2529297 -37.9231911 43.7945480
-169.7028198 -39.1503220 29.5836678
-171.2264709 -39.2575264 28.0385647
154.7545471 -37.7298393 -29.9397774
153.0290680 -37.6014137 -27.3065262
151.3806305 -37.4890251 -25.0334816
72.1142883 -38.3736496 -25.2446117
70.9236832 -38.4786148 -26.8589783
69.7338104 -38.5874214 -28.5685616
-86.5617523 -38.1245689 9.8499489
-128.2195740 -36.6734886 43.4042473
-129.4303284 -36.6795273 43.5330963
-134.2673035 -36.7200546 43.7589874
-169.7079468 -37.9184456 29.5634937
-171.2215881 -38.0221252 28.0325737
153.0888672 -36.3743744 -27.8509216
151.4503937 -36.2620697 -25.5505009
69.7452240 -37.3349838 -29.0110016
-86.5641785 -36.8839645 9.7407217
-128.2447815 -35.4727402 43.3223495
-129.4391479 -35.4791412 43.4493866
-130.6359253 -35.4861908 43.5544128
-131.8512115 -35.4942780 43.6362457
-133.0480652 -35.5052414 43.6723671
-134.2773438 -35.5176582 43.6918793
-169.7145386 -36.6893196 29.4991627
-171.2354584 -36.7912178 27.9575310
153.1670685 -35.1505394 -28.4954147
151.5126190 -35.0389595 -26.1285343
69.7913895 -36.0863838 -29.4523907
-86.5887299 -35.6446114 9.6025267
-128.2682495 -34.2732773 43.2200928
-129.4697418 -34.2780609 43.3449554
-130.6558838 -34.2864075 43.4531593
-131.8619995 -34.2943268 43.5347443
-133.0706329 -34.3046646 43.5786438
-134.2847443 -34.3163605 43.6044350
-169.7525177 -35.4643250 29.3557644
-171.2568817 -35.5630264 27.8281517
151.5951080 -33.8180695 -26.7948494
69.8162918 -34.8387604 -30.0213413
-86.6125488 -34.4118843 9.3462076
-169.7779388 -34.2405396 29.1842709
-171.2853088 -34.3377762 27.6472454
-172.8907776 -34.4457703 25.8777447
151.7143707 -32.5984802 -27.5795670
69.8483734 -33.5935287 -30.6381035
68.6530991 -33.6996498 -32.6410980
-86.6453552 -33.1819344 9.0199909
-169.8234558 -33.0195923 28.9519329
-171.3435211 -33.1159134 27.3850136
151.8357849 -31.3777142 -28.4281082
150.2174988 -31.2861214 -26.2362099
148.6654663 -31.2030640 -24.3253613
69.8897171 -32.3489151 -31.2846851
-86.6825256 -31.9547806 8.6109047
-169.8678589 -31.7999306 28.6776886
-171.3968506 -31.8939934 27.0916882
151.9853516 -30.1578236 -29.4017296
150.3339386 -30.0721054 -27.0954094
148.7703094 -29.9857254 -25.1193924
69.9318848 -31.1055069 -32.0359993
-86.7414932 -30.7295723 8.1866875
-169.9410706 -30.5833778 28.3249626
-171.4645691 -30.6752357 26.7338200
150.4634857 -28.8575211 -28.0651894
148.8764343 -28.7726517 -26.0006790
72.3286896 -29.6623955 -29.0894890
71.1578598 -29.7612953 -30.8882713
69.9703369 -29.8599796 -32.8763161
-86.7672729 -29.5037842 7.5997128
-87.7660904 -29.3842125 10.4313869
-88.7646179 -29.2755928 12.8840914
-169.9998627 -29.3682289 27.9422760
150.5937653 -27.6465416 -29.1234245
149.0258331 -27.5611534 -27.0141010
72.3772812 -28.4243832 -29.9010029
71.2068939 -28.5205784 -31.7549820
-86.8144379 -28.2791042 6.9598384
-87.8297577 -28.1648827 9.8596163
-88.8334351 -28.0584106 12.3928852
-170.0852814 -28.1541519 27.4910450
150.8198700 -26.4180527 -30.3576870
149.1477661 -26.3534050 -28.0608654
72.4321365 -27.1860390 -30.7873116
71.2618866 -27.2807922 -32.6901855
-87.8858032 -26.9487896 9.1799812
-88.8935547 -26.8425102 11.7919979
-167.1937256 -26.7882881 29.8369255
-168.6758270 -26.8622131 28.4797649
-170.1804504 -26.9425659 26.9755859
-171.7433777 -27.0245991 25.2984238
149.3598328 -25.1321888 -29.3317070
72.5017166 -25.9516296 -31.7358646
-87.9525604 -25.7332954 8.4086971
-88.9627914 -25.6303902 11.0987339
-167.3088531 -25.5772114 29.3014812
-168.7779999 -25.6512642 27.9328117
149.5616150 -23.9129658 -30.6687965
147.8630676 -23.8606262 -28.3917046
146.3014374 -23.7873497 -26.4613647
74.9254379 -24.5462875 -29.2332611
73.7440872 -24.6251755 -30.9286232
72.5646133 -24.7159367 -32.8187866
71.3898315 -24.8015652 -34.8800926
-88.0145721 -24.5144901 7.5365276
-89.0358887 -24.4195137 10.2974691
-167.3947754 -24.3699265 28.7436256
-168.8792267 -24.4429131 27.3387470
148.0664825 -22.6454811 -29.7609043
146.4558716 -22.5804596 -27.6994019
74.9972153 -23.3139343 -30.2592773
73.8202896 -23.3954124 -32.0296593
72.6468048 -23.4831734 -34.0062904
-89.1238022 -23.2073822 9.4422188
-167.5030823 -23.1637421 28.1131287
-169.0027466 -23.2323017 26.6742287
146.6568756 -21.3613472 -29.0693398
145.0709839 -21.3125000 -27.1935921
143.5608826 -21.2553864 -25.5399170
77.4394379 -21.9362926 -28.2377510
76.2512665 -22.0047474 -29.7426643
75.0570374 -22.0729218 -31.4249725
73.8941650 -22.1564636 -33.2486496
-89.2127914 -21.9957886 8.4875832
-90.2219391 -21.9080963 11.0850286
-91.2363358 -21.8250122 13.3598824
-164.7044983 -21.8317413 29.9825554
-166.1362152 -21.8935432 28.7801132
-167.6366425 -21.9571629 27.4014301
145.2574463 -20.1069603 -28.5860214
143.7285461 -20.0506134 -26.8202457
77.5202789 -20.7038536 -29.3497581
76.3349457 -20.7772560 -30.9108562
-89.2844696 -20.7724209 7.3966560
-90.3172302 -20.6998577 10.0871363
-91.3342590 -20.6206913 12.4662886
-164.8139801 -20.6286087 29.2982311
-166.2724762 -20.6877899 28.0396042
-167.7756348 -20.7495022 26.6375313
147.1375732 -18.9362907 -32.3755379
145.4619904 -18.9037762 -30.1298656
143.9198914 -18.8439865 -28.2567558
77.5989990 -19.4683342 -30.5867386
76.4264221 -19.5429974 -32.1990852
-90.4142303 -19.4881496 8.9874592
-91.4324799 -19.4139557 11.4515238
-164.9580536 -19.4230766 28.5254631
-166.4194946 -19.4829941 27.2377033
145.7364655 -17.6753788 -31.8972092
144.1224670 -17.6405945 -29.8570213
77.6919098 -18.2363300 -31.9178772
-90.5075912 -18.2662239 7.7889633
-91.5420837 -18.2083855 10.3301373
-165.1083832 -18.2207031 27.6941471
-166.5611267 -18.2795105 26.3829060
-168.0918121 -18.3327427 24.8978119
144.3549805 -16.4397755 -31.6604996
142.7867584 -16.3750858 -29.6996689
141.2435913 -16.3341236 -27.9580688
80.1700134 -16.8882446 -30.2041645
78.9813690 -16.9483547 -31.7030811
77.8096771 -17.0157337 -33.3310356
-91.6567993 -16.9989853 9.0889645
-92.6767578 -16.9356937 11.4990091
-93.7064896 -16.8674259 13.6340609
-165.2660980 -17.0161819 26.7959690
-166.7394714 -17.0750389 25.4195251
144.6897125 -15.2021608 -33.7453079
143.0220184 -15.1794205 -31.5396252
141.4623718 -15.1274376 -29.6705761
80.2694016 -15.6566229 -31.6400528
79.0814285 -15.7131319 -33.2345657
77.9041824 -15.7741184 -34.9890442
-91.7760849 -15.7783508 7.7669463
-92.8054276 -15.7308540 10.2471027
-93.8283997 -15.6681671 12.5023289
-165.4366150 -15.8157368 25.8183384
-166.9295654 -15.8661528 24.3807640
140.1763611 -13.8536081 -29.7886906
138.6648865 -13.8412447 -28.2961063
82.7828369 -14.3264027 -30.2614899
81.5706558 -14.3683290 -31.6868992
80.3787689 -14.4225588 -33.2290154
79.2105103 -14.4874620 -34.9108086
-92.9395599 -14.5229769 8.8668070
-93.9657898 -14.4628277 11.2380686
-162.6968231 -14.5109482 27.3171806
-164.1452637 -14.5582857 26.1022263
-165.6414185 -14.6067524 24.7221050
140.4145355 -12.6597204 -31.7572727
138.9102936 -12.6283379 -30.1598339
82.8792877 -13.0839024 -31.8652020
81.7040939 -13.1410418 -33.3091888
-94.1190491 -13.2627869 9.8497152
-162.8883362 -13.3058157 26.2506599
-164.3511963 -13.3556423 24.9694233
140.7238007 -11.4391727 -34.0116119
139.1747284 -11.4207497 -32.2198296
137.6670837 -11.3869667 -30.6076717
136.1511993 -11.3525686 -29.1068115
85.4189835 -11.7648687 -30.8587112
84.2217865 -11.8112049 -32.1415024
83.0187683 -11.8537617 -33.5904541
81.8495941 -11.9136391 -35.1633301
-94.2675629 -12.0523262 8.2434559
-95.2929535 -12.0027437 10.6266794
-96.3129883 -11.9450912 12.6984367
-160.2042999 -12.0218201 27.3827629
-161.6332245 -12.0595837 26.3023663
-163.0738373 -12.1064644 25.1104774
-164.5684814 -12.1480970 23.7385025
139.5275269 -10.1773396 -34.6465950
137.9385834 -10.1863012 -32.7755737
136.3906860 -10.1573687 -31.0994186
85.5624847 -10.5340815 -32.5756149
84.3592224 -10.5806799 -33.9713593
83.1725769 -10.6305380 -35.5230026
81.9987793 -10.6771641 -37.2247353
-95.4580536 -10.8004122 9.0119057
-96.4748230 -10.7462311 11.2300596
-160.4055786 -10.8165989 26.2452259
-161.8401184 -10.8574677 25.1121960
-163.3014221 -10.9012966 23.8313599
138.2946625 -8.9391594 -35.3200836
136.6795807 -8.9516716 -33.4306068
135.1571350 -8.9209986 -31.8616428
133.6916504 -8.8921995 -30.5385418
132.2562561 -8.8642969 -29.3672638
130.8130646 -8.8427992 -28.3106194
88.1064072 -9.2291355 -31.9352226
86.8987427 -9.2622051 -33.1668015
85.7059860 -9.3042135 -34.5161629
84.5122604 -9.3440466 -36.0588303
-96.6349258 -9.5357304 9.5622044
-160.6282043 -9.6094694 24.9990425
-162.0610962 -9.6498346 23.8030548
132.5268707 -7.6516728 -31.5196533
131.0594330 -7.6295090 -30.3345032
88.2595367 -7.9890757 -33.9172020
87.0604935 -8.0233383 -35.2567978
85.8822937 -8.0716124 -36.7198563
84.6952057 -8.1124344 -38.4346542
-96.8427658 -8.3348494 7.7443628
-160.8356628 -8.4109116 23.6679974
134.3013611 -6.4662552 -35.4471474
132.8361053 -6.4410110 -34.0188141
131.3494263 -6.4149914 -32.6742516
129.8706360 -6.4001665 -31.4685955
128.4385681 -6.3833375 -30.4753914
127.0395813 -6.3716879 -29.6157951
125.6551895 -6.3566885 -28.8657837
90.8422394 -6.6817222 -33.6660995
89.6409531 -6.7164917 -34.8431320
88.4504013 -6.7658300 -36.1203384
-97.0267563 -7.0990992 5.5720057
-98.0592346 -7.0910950 8.1211052
-99.0826035 -7.0480528 10.3132811
-100.1219788 -7.0096054 12.2493925
-101.1725311 -6.9721484 13.9702759
-155.4125366 -7.0797343 26.3811111
-156.8132172 -7.1051559 25.4780846
-158.2135468 -7.1359591 24.4961662
-159.6550446 -7.1642923 23.3756218
-161.1050110 -7.1994853 22.1444550
133.2017975 -5.1972370 -36.8782120
131.6672058 -5.2136593 -35.2947998
130.1707611 -5.1977868 -33.9701996
128.7203369 -5.1778650 -32.8248367
127.3146744 -5.1451178 -31.8721466
125.9102173 -5.1381207 -30.9965229
91.0507202 -5.4554725 -35.9301224
89.8422241 -5.4921808 -37.2545738
88.6691513 -5.5358086 -38.6893806
-99.2908249 -5.8407440 8.3359814
-100.3239288 -5.8085833 10.4348488
-101.3615112 -5.7707558 12.3165951
-155.6501160 -5.8700347 25.0148048
-157.0507813 -5.8968525 24.0641975
-158.4737244 -5.9278297 22.9999428
-159.9320984 -5.9558196 21.7929382
127.6106796 -3.9373627 -34.4519424
126.1912155 -3.9285331 -33.4356232
124.7570648 -3.9092813 -32.6018944
123.3576965 -3.8988085 -31.8937607
121.9889221 -3.9002357 -31.2595997
120.6259918 -3.8945496 -30.7264385
96.1298599 -4.1093740 -34.1765976
94.8944244 -4.1357255 -35.1099701
93.6755905 -4.1545348 -36.1527596
92.4810257 -4.1967955 -37.2700691
91.2747803 -4.2233291 -38.6143799
90.0736084 -4.2395573 -40.1126823
-100.5320587 -4.5865784 8.4076052
-101.5744171 -4.5682869 10.4544916
-155.9042664 -4.6613932 23.5237770
-157.3138428 -4.6881094 22.4987545
129.4801941 -2.6951945 -38.9561157
127.9938049 -2.7107158 -37.5539017
126.5533905 -2.7124507 -36.3873215
125.0910492 -2.7014885 -35.3726807
123.6681976 -2.6833282 -34.5398369
122.2801819 -2.6805305 -33.7813797
120.9039764 -2.6679957 -33.1484070
96.3524933 -2.8660073 -36.7320557
95.1359863 -2.9070053 -37.7395592
93.9263763 -2.9307303 -38.9208374
92.7306824 -2.9474669 -40.2291145
-101.7972412 -3.3502891 8.2886343
-156.1649170 -3.4539177 21.8982391
126.9995880 -1.4343829 -39.9758949
122.6047974 -1.4588110 -36.7140541
121.2347870 -1.4560684 -35.9718857
119.8444977 -1.4397672 -35.3991699
118.4605103 -1.4384050 -34.9223557
117.1091843 -1.4430089 -34.5190430
115.7809601 -1.4341384 -34.2281189
106.6071930 -1.4925848 -34.4396172
105.3319092 -1.5100651 -34.7689857
104.0788116 -1.5222138 -35.1748848
102.8144684 -1.5397320 -35.6624298
101.5433884 -1.5561624 -36.2646179
100.3008652 -1.5710261 -36.9737625
99.0567169 -1.5882386 -37.7873688
97.8459244 -1.6238755 -38.6480103
96.6378326 -1.6467245 -39.6892967
95.4124908 -1.6390435 -40.9250832
-102.0440826 -2.1035907 5.7636194
-103.1019897 -2.1299152 8.0421448
-104.1331100 -2.1020403 9.9887228
-105.1773300 -2.0649467 11.6974697
-106.2579956 -2.0512922 13.2871027
-153.6732025 -2.1877787 22.0761356
-155.0674133 -2.2116578 21.1287384
-156.4540710 -2.2465093 20.0898151
123.0513840 -0.2166636 -40.4398766
121.6245651 -0.2538258 -39.4522247
120.2058716 -0.2509883 -38.6867790
118.8121185 -0.2381978 -38.1091881
117.4453964 -0.2390404 -37.5762787
116.0919952 -0.2267020 -37.1903877
106.8947906 -0.2625538 -37.3399353
105.6254654 -0.2790394 -37.7066460
104.3598022 -0.2991914 -38.1372643
103.1064835 -0.2997326 -38.7005424
101.8505096 -0.3146898 -39.4105988
100.6129074 -0.3472603 -40.2220345
99.3861465 -0.3748457 -41.1528320
-103.3646927 -0.8801819 5.3473048
-104.3902435 -0.8772267 7.5785294
-105.4353943 -0.8595588 9.4881859
-106.4933929 -0.8354847 11.2099857
-153.9427185 -0.9857291 20.2835846
-155.3737946 -1.0039012 19.2076511
-156.8196869 -1.0244383 18.0020103
116.5138931 0.9816648 -40.9811592
115.1607513 0.9884669 -40.5433578
113.7963867 0.9902422 -40.3439331
112.4683609 0.9913877 -40.2671394
111.1494141 0.9832013 -40.2344398
109.8530273 0.9763618 -40.3037415
108.5587387 0.9675086 -40.5224953
107.2620850 0.9593270 -40.8928680
105.9785995 0.9617431 -41.3210983
-105.7231369 0.3627225 6.9425373
-106.7767029 0.3653743 8.8679581
-107.8293686 0.3892964 10.5906210
-108.8944550 0.4144722 12.0944729
-148.7596893 0.3154349 21.6278095
-150.0999908 0.2905610 20.9484692
-151.4916382 0.2789531 20.1259403
-152.8788910 0.2498191 19.2357445
-154.2914429 0.2319839 18.2075691
-155.7479248 0.2255096 17.0127792
-107.0762634 1.6022844 6.1047659
-108.1261597 1.5956843 8.0410881
-109.1712646 1.6150157 9.7241116
-149.0563049 1.5279937 19.7067795
-150.4282837 1.5079643 18.9209881
-151.8277130 1.4902841 18.0131721
-153.2439575 1.4797416 16.9963970
-108.4538269 2.8562222 4.9780831
-109.4945374 2.8388615 6.9374280
-110.5585022 2.8437452 8.6643534
-111.6388168 2.8604860 10.1722498
-112.7247238 2.8708620 11.5365715
-113.8243561 2.8836493 12.7543793
-144.0283051 2.7998717 20.0187931
-145.3389130 2.7854872 19.5346336
-146.6838684 2.7781696 18.9516125
-148.0285950 2.7598226 18.3029213
-149.4011536 2.7422462 17.5270329
-150.8008881 2.7310824 16.6110077
-110.8967209 4.1166620 5.5661893
-111.9764481 4.0785360 7.3134880
-113.0569077 4.0818796 8.8696432
-114.1379089 4.0928931 10.2515755
-144.3657532 4.0264382 17.8648529
-145.6847076 4.0070710 17.3268318
-147.0366821 3.9999568 16.6644440
-148.4065857 3.9860003 15.9041595
-149.8038330 3.9703012 14.9985571
-113.4134521 5.3554282 5.6466680
-114.4966431 5.3257623 7.2508159
-115.5760498 5.3233700 8.6717892
-116.6846542 5.3293290 9.9217300
-117.8009491 5.3455582 10.9914446
-118.9253693 5.3467665 11.9914541
-142.0843506 5.2666512 16.4450836
-143.3987732 5.2523689 15.9940434
-144.7322845 5.2439032 15.4296284
-146.0726624 5.2312622 14.7722902
-117.0801010 6.5611429 6.7439694
-118.1871414 6.5525813 8.0095253
-119.2993774 6.5628786 9.1083021
-142.4744873 6.4914575 13.7747345
-143.8120270 6.4778576 13.2206335
-145.1766510 6.4772882 12.5452394
-146.5453339 6.4892716 11.7588310
-119.7408829 7.8055773 5.5767555
-120.8464355 7.7754779 6.7814579
-121.9741211 7.7848406 7.8104153
-123.1136703 7.7908573 8.7018423
-124.2634811 7.7941370 9.4918365
-125.4342651 7.8061562 10.1500130
-126.6023941 7.8025546 10.7611866
-127.8048630 7.8048115 11.2467690
-129.0022583 7.7989039 11.6326447
-130.2047882 7.7885990 11.9601450
-131.4368896 7.7932367 12.1972141
-132.6570740 7.7828975 12.3943844
-133.9110718 7.7888436 12.4487514
-135.1483765 7.7736735 12.4682608
-136.4253693 7.7708130 12.3835659
-137.6895142 7.7576046 12.2443123
-138.9818573 7.7518249 11.9687309
-140.2780762 7.7344337 11.6262074
-141.6079254 7.7287483 11.1526022
-142.9607239 7.7428274 10.5580845
-122.4820709 9.0822840 3.6357150
-123.6071014 9.0765791 4.7448163
-124.7544861 9.0220652 5.7160339
-125.9111099 9.0197735 6.5510335
-127.0709839 9.0236959 7.2679615
-128.2632446 9.0122375 7.8371673
-129.4643707 9.0061388 8.2398634
-130.6697693 9.0048847 8.6124706
-131.8874054 9.0036354 8.8855724
-133.1141663 9.0041885 9.0579720
-134.3724976 9.0021477 9.1030159
-135.6281433 9.0011539 9.0661335
-136.9049530 8.9871540 8.9715405
-132.4877014 10.3011847 4.4750323
-133.7275085 10.2965355 4.6217189
-134.9941101 10.2867870 4.6533074
109.2866135 -95.7223434 -39.6861534
117.5970535 -94.6528931 -37.5082054
116.9546204 -94.6467209 -37.3609276
116.2669907 -94.6198578 -37.0866280
115.5826263 -94.6303864 -36.9424782
114.9053726 -94.5980453 -36.7578773
114.2408142 -94.5863495 -36.6910706
113.5804138 -94.5193634 -36.5846672
109.0331497 -94.6901474 -37.1081467
108.3816605 -94.7948608 -37.3762093
107.7465973 -94.8598480 -37.6480217
107.1421890 -94.8872757 -37.8739548
106.5100250 -94.9420395 -38.2490387
119.4461212 -93.7855682 -35.9819908
118.7554855 -93.7487717 -35.6793633
118.0632706 -93.7221146 -35.4411392
117.3607941 -93.6588821 -35.2263374
103.7820282 -94.2586441 -37.3659821
123.4414368 -93.1376038 -36.4068718
122.7032089 -93.0260620 -35.8720360
121.9964218 -92.9577637 -35.4015121
121.2830658 -92.9107285 -34.9589806
120.5892563 -92.8879623 -34.6218109
119.8798370 -92.8473282 -34.2476921
119.1809540 -92.8202972 -33.9239578
118.4805450 -92.7908707 -33.6362877
117.8098755 -92.7800827 -33.4334335
117.1470108 -92.7723312 -33.2736473
103.5966415 -93.2812653 -35.2713280
102.9632568 -93.3823242 -35.6847076
102.3350906 -93.4874573 -36.1762352
101.7182007 -93.5748291 -36.6920013
101.1093445 -93.6533051 -37.2485046
100.5174637 -93.7232819 -37.7988701
99.9182587 -93.8006439 -38.4429092
98.5145111 -93.0885391 -37.5181084
125.8385925 -91.5466309 -34.4079628
125.1217728 -91.4880524 -33.9088364
98.3380203 -92.1579971 -35.5971184
97.7417603 -92.2939224 -36.2253380
97.1260376 -92.3962708 -36.8689537
127.7948761 -90.9100723 -34.4586945
129.0330963 -90.1643906 -33.9017563
128.2580109 -90.0365601 -33.1661720
127.5325928 -89.9708481 -32.5802002
95.6241302 -90.8438721 -34.6273041
95.0141373 -90.9665680 -35.3093262
130.3169098 -89.4764938 -33.6130562
131.6426239 -88.8180618 -33.5277328
130.8471527 -88.6864777 -32.6723633
130.0889740 -88.6020966 -31.9577980
92.9716797 -89.5535507 -34.2982559
132.9142914 -88.1178513 -33.3813324
92.8520432 -88.7206039 -32.8980713
134.2500153 -87.4984055 -33.5405350
133.4447479 -87.3570328 -32.5972786
132.6739044 -87.2482910 -31.7644176
92.7303772 -87.9499054 -31.6322956
92.1292877 -88.0368805 -32.2553749
91.5335464 -88.1349335 -32.9642525
90.9552002 -88.2162018 -33.6663628
90.3613968 -88.3105240 -34.4360275
89.7431946 -88.4503860 -35.2986107
-131.6598206 -87.4854507 8.4924088
-132.2635956 -87.4966583 8.6225328
-132.8761292 -87.5006561 8.7012415
-136.0572815 -87.5888672 8.4289188
89.0338364 -87.7648239 -34.6562691
88.4445877 -87.8991165 -35.5228767
-128.8076172 -86.5621033 10.4382925
-130.6652222 -86.4558334 10.9531593
-136.2935638 -86.5802231 11.0791693
88.9371643 -86.9433212 -33.3225212
-122.7612839 -86.0311127 8.8424883
-123.3272934 -85.9238663 9.3635864
-126.1955414 -85.7158127 11.4564676
-126.7877808 -85.6859589 11.7427998
-127.3791275 -85.6484528 12.0309258
-127.9696960 -85.6295547 12.2902851
-128.5576172 -85.6185455 12.5120478
-129.1484985 -85.5963974 12.7368717
-129.7565460 -85.5937576 12.9132414
-130.3682251 -85.5865707 13.0668621
-135.9873352 -85.6753235 13.2441435
-139.9173431 -85.9524078 12.1271954
-140.6009216 -86.0278397 11.8045588
87.6326752 -86.4165955 -33.6212082
-138.9381409 -84.9921494 14.3916149
136.5411987 -84.5199051 -30.9301014
87.5435562 -85.5978012 -32.4352798
86.9590378 -85.7101517 -33.2074165
86.3565369 -85.8408127 -34.0872574
-118.3380737 -84.7092819 8.8594484
-118.8768311 -84.6159515 9.5487709
-119.4340744 -84.5167923 10.2112665
-136.7472229 -84.1082458 16.5537720
-137.3890076 -84.1412048 16.4079342
-138.0317841 -84.1539917 16.2764835
-138.6834869 -84.1661148 16.1191349
-142.0158997 -84.4159622 14.9020262
-142.7166443 -84.4944229 14.5270052
-143.4109344 -84.5619659 14.1256065
137.9365997 -84.0177765 -31.5784321
-115.9725952 -84.1655197 7.6754146
138.5090485 -83.3138428 -31.2050400
137.7172852 -83.2231979 -30.2816277
-114.6456604 -83.4687500 8.1148205
-115.1879196 -83.3177414 9.0376949
-115.7182770 -83.2228088 9.8331633
-144.2164612 -83.0058441 16.8247395
-144.9050446 -83.0742950 16.4388828
-145.5990143 -83.1389313 16.0120258
-146.3020782 -83.2105713 15.5329523
-113.3535156 -82.7843857 8.3754559
-146.7368774 -82.4377441 16.6865997
-147.4694519 -82.5362778 16.1679382
140.5060120 -82.0591202 -31.6716824
82.4482727 -83.4401932 -34.9318924
-112.0854416 -82.1235428 8.4334440
-112.6165085 -81.9833069 9.4004421
-113.1465149 -81.8835220 10.2570324
-146.5036316 -81.6011581 18.1529007
-110.8351898 -81.4977188 8.3051958
-146.2983551 -80.8269806 19.4992123
81.1196213 -82.1477280 -34.6562347
-110.6409073 -80.6189041 10.0998631
-146.1046600 -80.0866013 20.7360783
-146.7862396 -80.1415253 20.3700352
-147.4537964 -80.1850815 19.9948978
-148.1198883 -80.2256927 19.5891685
-148.8594666 -80.3144073 19.0696373
-149.5724792 -80.4036713 18.5716801
-150.2758789 -80.4850769 18.0412464
-151.0127411 -80.5746460 17.4301586
-151.7556305 -80.6678925 16.7651119
141.6179962 -79.9661026 -30.1590519
81.0562439 -81.3722687 -33.6280441
-109.4077072 -80.0286484 9.8712492
-151.5099335 -79.8456650 18.2354355
141.4770660 -79.2260818 -29.1040287
-108.1858749 -79.4486237 9.4442186
-108.7253265 -79.2957458 10.5104856
-109.2431946 -79.1977463 11.4020433
-151.2560577 -79.0385742 19.6147022
-152.0305634 -79.1585922 19.0017834
-152.7466736 -79.2587662 18.4143658
142.9390106 -78.6852112 -30.1145477
-152.5144043 -78.4570694 19.7093105
143.6030731 -78.0512161 -30.1635857
142.7798462 -77.9371033 -29.0899258
80.8557892 -79.1253662 -30.7862606
-106.2658386 -78.0673370 9.5850496
-106.8110199 -78.0286026 10.4592724
-152.3229980 -77.6904602 20.8843384
-153.0415649 -77.7798462 20.3328648
-153.7788391 -77.8778610 19.7173195
-154.5063782 -77.9729385 19.0794582
144.2374878 -77.4093018 -30.1809006
-105.6214676 -77.4721603 9.8270655
144.0808258 -76.6576996 -29.1712952
78.3143463 -78.1499100 -32.7998619
-104.9716949 -76.7569351 10.2654362
-105.4964523 -76.6302261 11.3111038
-154.8373108 -76.5462494 20.8791637
-104.3071594 -76.1044769 10.5038576
-154.6239624 -75.7754211 21.9643936
145.3990173 -75.4057388 -29.4213829
77.0345612 -76.9184418 -33.0971794
-103.1531067 -75.5452347 9.6732264
-103.6580582 -75.4294891 10.7453680
-104.1813278 -75.3187027 11.8028326
-154.4486389 -75.0310898 22.9459953
-155.1691132 -75.1139984 22.3820915
-155.8978424 -75.1988754 21.7741241
-156.6823120 -75.3108902 21.0701447
77.0161972 -76.1595078 -32.2526245
76.4010010 -76.3078232 -33.3189926
-101.9613953 -75.0240555 8.6194115
146.8566284 -74.2089386 -30.0380955
76.9509964 -75.4454117 -31.5305996
-101.3041458 -74.3400879 8.7966156
-101.8572235 -74.2495880 9.9231586
-157.0676270 -73.9110107 22.4143200
-157.8100128 -73.9984970 21.7501202
146.6936798 -73.4634399 -29.1198063
75.6877747 -74.9810638 -32.7508926
-156.8870392 -73.1634369 23.3511219
147.3725586 -72.8482513 -29.3981209
146.5648651 -72.7388229 -28.2856293
75.6549072 -74.2533188 -32.0428009
75.0630798 -74.3802261 -33.0631256
-99.9588852 -72.9837570 9.1203985
-100.5354309 -72.9158783 10.1532841
-156.7351074 -72.4539337 24.2231979
75.6305084 -73.5270309 -31.3257427
-99.4440460 -72.4708099 8.7363882
148.8521423 -71.6647186 -30.2703552
147.9389496 -71.5104141 -28.9479370
75.5884171 -72.8148117 -30.6528530
74.9932861 -72.9385452 -31.6270390
-98.8304367 -71.8405991 8.6439619
-99.3457947 -71.6898651 9.9693441
-160.8804779 -71.5504761 22.0005436
75.5375519 -72.1236877 -30.0570412
-98.2276611 -71.2120972 8.5587158
-160.6886444 -70.8160400 22.9225101
149.4373169 -70.3492966 -29.9271774
75.5093918 -71.4214020 -29.4377537
-98.1361160 -70.4386826 9.7618914
75.4547806 -70.7303009 -28.8887348
-160.4015198 -69.4149628 24.5876045
150.0066071 -69.0357895 -29.6627808
149.1785126 -68.9283676 -28.4631977
75.3946152 -70.0591736 -28.3986607
74.7863312 -70.1610870 -29.3145714
74.2117615 -70.2533417 -30.1826630
73.6073380 -70.3712463 -31.1112309
-96.9203415 -69.2103577 9.3702831
-160.2695618 -68.7103806 25.3061428
-161.0382538 -68.8103333 24.6344566
150.7790985 -68.4745407 -30.2956104
74.1703796 -69.5607452 -29.6449718
-163.2071075 -68.3703156 23.1064224
-163.9537506 -68.4552383 22.3249626
74.1728745 -68.8549728 -29.0732574
73.5830612 -68.9553223 -30.0005646
72.9835052 -69.0613861 -31.0108223
72.3805389 -69.1787872 -32.0886688
71.7721100 -69.3088531 -33.2215958
-95.6801300 -68.0345001 8.6557293
-163.0235291 -67.6317062 23.9117737
150.5166321 -67.0536804 -28.8526764
71.7699356 -68.5895233 -32.5954323
-95.6023636 -67.2922363 9.6759291
150.4783783 -66.3838196 -28.3409348
-95.0069962 -66.6896896 9.3298550
-95.5231018 -66.5606995 10.6367245
-164.2525940 -66.4361649 23.9284439
71.6667175 -67.2299423 -31.5870476
71.0715561 -67.3401031 -32.6215172
-94.4062195 -66.1178741 8.9008226
-164.1328430 -65.7416763 24.5877075
-164.8979645 -65.8432693 23.8340931
71.6595535 -66.5308914 -31.0674076
-164.0287018 -65.0571136 25.2207584
151.9025421 -64.5554581 -29.1079311
151.7592468 -63.8529320 -28.5002422
-93.1529236 -64.2236481 8.8423920
151.6491699 -63.1683731 -27.9713650
70.3804398 -64.6999130 -31.8115387
69.7533264 -64.8215256 -32.9736443
-165.1884003 -63.1921234 25.6448994
152.5214081 -62.6321602 -28.8929348
151.6302643 -62.5147095 -27.6016331
70.3514709 -64.0191803 -31.4130173
-92.0320816 -63.0677338 7.5549850
-92.5476151 -62.9141693 9.0667620
-93.0514526 -62.7968750 10.4591045
-165.0602875 -62.5086670 26.2152500
-165.8562927 -62.6098480 25.4563808
70.3232040 -63.3458290 -31.0110455
-91.9707947 -62.3536263 8.3790550
70.3054962 -62.6689110 -30.6319771
69.7037277 -62.7772064 -31.6777649
69.0770874 -62.8932533 -32.8133659
-91.3950348 -61.7879639 7.6833510
-91.9198914 -61.6331940 9.2218533
-166.4417267 -61.3523788 25.7625198
153.1636810 -60.7248268 -28.8660564
153.0841827 -60.0550117 -28.4112206
-90.7762604 -60.5153885 7.7636948
-166.1971283 -59.9997177 26.8233376
-167.0302124 -60.0975380 26.0123253
70.2572708 -60.6637306 -29.6065464
-90.7216492 -59.8152199 8.4975977
-166.1140594 -59.3364830 27.2675171
152.9388580 -58.6704445 -27.2896729
70.2350998 -60.0006905 -29.3104115
-90.1269836 -59.2778473 7.6078706
-90.6662064 -59.1248360 9.2004137
-166.0361633 -58.6777039 27.7008057
-166.8082886 -58.7593765 26.9747391
-167.6283112 -58.8529510 26.1849804
70.2047272 -59.3419228 -29.0495777
70.1884842 -58.6828728 -28.7775764
69.5941849 -58.7735367 -29.7896366
69.0103302 -58.8594856 -30.8246384
-89.5183487 -58.0308838 7.4688969
-167.4826660 -57.5359726 27.0055218
-168.2490234 -57.6149712 26.2696724
-89.9249191 -57.1517143 9.8620529
-90.4502029 -57.1317635 10.9902658
-167.3872528 -56.8748550 27.4162865
-90.4170685 -56.4538651 11.4910450
-167.2941895 -56.2143822 27.8175640
-168.0913239 -56.3023911 27.0409374
-168.8522491 -56.3820763 26.2860107
154.3271332 -55.6282349 -28.7609196
70.1165619 -56.7239227 -28.1155376
69.5260391 -56.8019218 -29.0747738
-167.2261353 -55.5649757 28.1778698
-167.9972076 -55.6430054 27.4289303
155.2094269 -55.0915947 -29.9904022
154.3001862 -54.9816055 -28.5185757
70.0962601 -56.0732307 -27.9302025
-167.1481323 -54.9179840 28.5412979
70.0827713 -55.4228554 -27.7562523
-88.3071136 -54.8836670 7.3016787
-167.0931091 -54.2763710 28.8744736
70.0692596 -54.7726288 -27.6018734
-88.2804565 -54.2018776 7.8525052
-167.0317383 -53.6325531 29.1996384
-167.7989197 -53.7013130 28.4664497
-168.5341187 -53.7661896 27.7466621
70.0566711 -54.1264877 -27.4686069
155.9755096 -52.6034012 -30.5852108
70.0471649 -53.4823647 -27.3564434
69.4439545 -53.5582657 -28.2600040
68.8377151 -53.6361008 -29.1811981
155.9308014 -51.9582748 -30.4146633
68.8438110 -52.9868584 -29.0518017
-88.1569901 -52.2160530 9.2619476
155.9082794 -51.3159981 -30.2871017
68.8344574 -52.3409042 -28.9442787
-88.1082458 -51.5678139 9.6363945
-169.8192596 -51.3398361 27.4201431
-170.6153412 -51.4194145 26.6190567
155.9210663 -50.6807098 -30.2246170
70.0277176 -51.5452995 -27.0362473
69.4236145 -51.6196213 -27.9337635
68.8148346 -51.6967964 -28.8553047
-169.7686768 -50.7009277 27.6731606
-170.5453644 -50.7738457 26.8962574
155.8582306 -50.0353012 -30.0501118
70.0179443 -50.9014435 -26.9411354
-87.0804214 -50.4677277 7.3680296
-169.7020874 -50.0580063 27.9446907
155.8645172 -49.4013824 -29.9940796
70.0125732 -50.2608566 -26.8564949
-87.0464935 -49.8162193 7.7474866
-169.6583099 -49.4220848 28.1846867
155.8389130 -48.7621994 -29.8975124
69.9900665 -49.6241112 -26.8229542
-86.4897842 -49.2900391 6.4334340
-87.0179291 -49.1623001 8.0915098
-169.5995483 -48.7858009 28.4152889
-170.3735352 -48.8560181 27.6299648
-171.1660004 -48.9274216 26.7930069
155.8295746 -48.1268044 -29.8417530
69.9722443 -48.9866600 -26.8021927
155.7741852 -47.4876328 -29.7360249
69.9787979 -48.3464813 -26.7641830
155.7533569 -46.8542328 -29.7082367
69.9542542 -47.7119904 -26.7836952
155.7998810 -46.2293510 -29.8060951
69.9802704 -47.0720901 -26.7492981
155.7728729 -45.5980644 -29.8071823
69.9770508 -46.4370842 -26.7700901
-86.3632965 -46.0505180 7.9227748
-86.8710480 -45.9531059 9.4089880
-170.9773254 -45.7640457 27.6838474
-171.7716675 -45.8316612 26.8409042
155.8158722 -44.9741859 -29.9272690
69.9761887 -45.8027077 -26.8031597
-86.8521729 -45.3164024 9.6112843
-170.9487457 -45.1359520 27.8304882
155.8298950 -44.3481140 -30.0133629
69.9911194 -45.1682968 -26.8304691
-170.9461060 -44.5122528 27.9405003
155.8273163 -43.7214813 -30.0876865
69.9845581 -44.5361061 -26.9022503
-170.9135895 -43.8856888 28.0689106
155.8225098 -43.0953522 -30.1776848
69.9674301 -43.9055595 -27.0017815
155.8445282 -42.4720154 -30.3287678
69.9872665 -43.2732925 -27.0610485
-172.4621582 -42.7660828 26.4993191
155.9005737 -41.8519936 -30.5484638
69.9427643 -42.6441917 -27.2182312
-172.4638672 -42.1430664 26.5864353
155.9385223 -41.2318039 -30.7534485
69.9848557 -42.0123367 -27.2682800
-172.4588013 -41.5203629 26.6557484
155.9553375 -40.6086311 -30.8970032
69.9900818 -41.3821335 -27.3867054
-85.7996902 -41.0615578 7.5380478
-172.4127502 -40.8938522 26.7479877
69.9894562 -40.7534561 -27.5332260
-85.7810516 -40.4344330 7.5829167
-172.3880463 -40.2716599 26.8019924
70.0032806 -40.1251564 -27.6780491
-85.7707443 -39.8079300 7.6113286
-130.3033142 -38.1875725 43.6703911
-130.9211273 -38.1926765 43.7094002
-131.5458069 -38.1992302 43.7357025
-132.1499634 -38.2044830 43.7528839
-132.7633667 -38.2109642 43.7666168
-133.3674316 -38.2170258 43.7801056
-172.3625336 -39.6496086 26.8451843
70.0067444 -39.4979630 -27.8550568
-85.7809219 -39.1791153 7.6695499
-130.3247986 -37.5865250 43.6571045
-133.3703308 -37.6150856 43.7716560
-172.4184570 -39.0350266 26.7923317
-85.7596512 -38.5570602 7.6138763
-130.3390045 -36.9851646 43.6353035
-133.3714752 -37.0125237 43.7575989
-172.4423828 -38.4179573 26.7614765
-85.7972260 -37.9268837 7.6944356
-130.3322449 -36.3839493 43.6007729
-133.3819122 -36.4109917 43.7336655
-172.4214478 -37.7980576 26.7641468
156.2035980 -36.9121475 -32.7637558
155.2893677 -36.8396301 -31.1793423
154.3801117 -36.7738762 -29.7036438
-85.7925797 -37.3061752 7.6177878
-172.4022675 -37.1798134 26.7513313
154.4528961 -36.1596489 -30.0559711
-85.7920456 -36.6858215 7.5100799
-172.4716949 -36.5673637 26.6327934
154.4774017 -35.5496902 -30.3999062
-85.8047638 -36.0670090 7.3986373
-172.4277954 -35.9488449 26.6228428
68.8820724 -35.8563385 -31.0348225
-85.8463058 -35.4479942 7.3258181
-172.4721069 -35.3366890 26.5038567
153.7339020 -34.2580833 -29.7887650
152.8518982 -34.1985512 -28.4158535
68.9219437 -35.2347221 -31.2996178
152.8969727 -33.5880013 -28.7635727
68.9349442 -34.6080589 -31.6246109
152.9579773 -32.9787407 -29.1926231
-85.8660965 -33.5953636 6.8089604
-172.5092163 -33.5001717 26.1426125
153.9500122 -32.4143562 -31.0662346
153.0745697 -32.3599396 -29.6951427
-85.8794479 -32.9781075 6.6295838
153.1504669 -31.7432423 -30.1156940
-85.9106674 -32.3636513 6.4387059
69.0009155 -32.1162682 -32.9745483
-85.9544525 -31.7509975 6.2144251
69.0131531 -31.4893570 -33.3951340
69.0275497 -30.8641071 -33.8205261
-172.6797943 -30.4452496 25.2973404
151.6677856 -29.2252388 -29.5309105
-171.1264038 -29.7398624 26.8564568
-171.8938599 -29.7854652 26.0143166
152.6242218 -28.6527596 -31.3788033
151.7298584 -28.6216621 -30.0709496
-171.1786346 -29.1316910 26.6312885
152.7188873 -28.0387497 -32.0114822
151.8262634 -28.0065823 -30.6639557
70.3128052 -28.9042454 -33.0027275
-171.2312622 -28.5215054 26.3957367
151.9320831 -27.3907661 -31.2786942
70.3146591 -28.2770767 -33.5062447
-171.2807159 -27.9138412 26.1389694
-172.0622406 -27.9572296 25.2922001
152.0651703 -26.7761669 -31.9701099
70.3496933 -27.6548309 -33.9698906
-87.1134033 -27.3334522 7.2677555
-87.0973206 -26.7189407 6.7604346
150.5533905 -25.4769459 -30.6981640
71.6112442 -26.3329124 -32.9157677
70.9993668 -26.3667297 -33.9631920
-87.1454239 -26.1077557 6.3789968
-169.8849945 -26.0119267 26.9491749
-170.6559143 -26.0509853 26.1407261
-171.4235535 -26.0955315 25.3076210
150.6616821 -24.8628197 -31.3751259
71.6306534 -25.7083340 -33.4683609
-87.1873856 -25.4990311 5.9348030
-169.9174500 -25.4058475 26.6864262
-169.9917603 -24.7972488 26.3717213
-170.0813293 -24.1861954 26.0228558
149.2249756 -23.0023308 -31.0862007
71.7498169 -23.8586063 -35.2676125
-87.7928772 -23.6205711 6.0079045
-88.3477249 -23.5824242 7.6293306
150.2934570 -22.4130669 -33.3468208
149.3733368 -22.3788242 -31.8844090
-88.3739471 -22.9704609 7.1344604
148.6844330 -21.7177887 -31.4443645
147.8412933 -21.6970768 -30.2901344
73.0032578 -22.5337372 -34.4263115
-88.3823471 -22.3554611 6.5189304
-168.7168579 -22.3096352 26.5138435
-169.4883423 -22.3354282 25.7557983
73.0502014 -21.9205036 -35.0601540
-88.4261398 -21.7458572 5.9515796
-168.8060303 -21.7021389 26.1195621
147.2492218 -20.4390602 -30.6915760
146.4054413 -20.4398270 -29.6633530
75.4281158 -21.1330166 -31.8539658
-168.8763123 -21.0944023 25.7363930
146.5021820 -19.8424759 -30.4543896
75.4727173 -20.5161266 -32.4839058
74.8570251 -20.5343990 -33.4013863
75.5101242 -19.8985615 -33.1599922
-89.6061707 -19.8377533 7.2518978
-167.5045624 -19.8322220 26.4001942
-168.2774200 -19.8532181 25.6570015
75.5377884 -19.2672138 -33.8870468
-89.6477585 -19.2235661 6.6281257
-167.5792847 -19.2252769 25.9777660
146.9361572 -17.9904881 -33.1548691
76.8047104 -18.6037369 -32.7724762
76.1831512 -18.6206703 -33.6992912
76.8412933 -17.9786701 -33.5122910
145.5393066 -16.7636642 -32.8530388
76.8787613 -17.3588848 -34.3023834
76.2824020 -17.3803024 -35.2345772
-90.8689346 -17.3462906 7.5202708
-167.8555756 -17.4149551 24.5274334
146.5473175 -16.1664772 -35.1959724
145.6672821 -16.1565056 -33.8668976
76.9366760 -16.7465153 -35.0974731
-90.8977661 -16.7264500 6.7070441
-167.9595490 -16.8028431 24.0024738
145.8690643 -15.5210047 -35.0261002
76.9949799 -16.1197033 -35.9447517
144.5794525 -14.2558403 -34.9696999
143.6956177 -14.2521925 -33.6766090
142.8540955 -14.2346430 -32.5447006
78.3002853 -14.8345423 -35.8223572
-92.1254044 -14.8599167 7.3037972
-166.7413483 -14.9390593 23.8881092
143.0366058 -13.5921373 -33.6227875
78.3709717 -14.2344036 -36.7747383
77.7657089 -14.2418423 -37.8346252
-92.1695099 -14.2374468 6.4091754
80.7683945 -13.4763727 -34.1061859
79.0343170 -13.6128769 -36.7842369
78.4501877 -13.6172838 -37.8018913
-92.7444534 -13.5978632 7.0576353
-93.2841721 -13.5932093 8.3812704
-165.4224396 -13.6956081 24.2174644
-166.1831360 -13.7105188 23.4807987
141.7071075 -12.3515816 -33.7704010
-93.3372269 -12.9753532 7.5235052
-165.5346680 -13.0874510 23.6035538
-93.4132919 -12.3588762 6.6244564
-165.6448364 -12.4799051 22.9682579
-166.3838043 -12.4995308 22.2440338
-93.5082932 -11.7585583 5.7284799
-165.7862701 -11.8718557 22.2857838
-94.0961380 -11.1209679 6.2596607
-94.6467819 -11.1319447 7.6260371
-164.3709869 -11.2286425 23.1112843
-165.1207428 -11.2493458 22.3879051
-94.7203827 -10.5149555 6.6121812
139.4527588 -9.2332287 -36.2116814
83.5879059 -9.6923885 -36.7100563
83.0022202 -9.7105942 -37.5582314
-94.3017349 -9.9191551 4.1006012
-94.7789993 -9.8839769 5.5596218
-95.3073349 -9.8754110 7.0230055
-95.8166733 -9.8607979 8.2858124
-163.1180725 -9.9680166 23.1149712
83.6590958 -9.0620670 -37.9136353
-95.8759995 -9.2309437 7.3542385
138.1668091 -8.0048065 -36.8998337
134.2526703 -7.9757504 -32.4952316
133.5488739 -7.9540534 -31.9041328
83.7504272 -8.4423609 -39.1674080
-161.8760071 -8.7367916 23.0779552
133.7043610 -7.3579345 -33.1055183
-161.9858856 -8.1413584 22.3471203
-162.7565308 -8.1626215 21.5884781
87.4901810 -7.0922556 -36.6303825
86.9003372 -7.1177402 -37.3909111
-96.2345505 -7.4257665 4.0264173
-162.1580811 -7.5292768 21.5038319
135.5937653 -6.0966053 -37.5112953
87.6083755 -6.4826870 -37.8762054
-162.2937317 -6.9249558 20.6842995
135.0345459 -5.4888654 -38.2732544
134.2347565 -5.5096817 -37.3066330
87.7235870 -5.8797979 -39.1970634
-97.4226227 -6.1595998 4.4989233
-97.9363251 -6.1578798 5.8790708
-98.4620132 -6.1622586 7.1760855
-160.9500885 -6.2772312 21.2580223
-98.5334854 -5.5080452 5.9353452
132.3945770 -4.2222285 -38.0755463
131.6080475 -4.2653666 -37.1168823
129.3266296 -4.2470455 -35.0637360
128.6057739 -4.2403121 -34.5450516
89.1051636 -4.5653548 -40.5616226
88.5260925 -4.5590076 -41.3950462
-99.1574249 -4.8853321 6.0121322
-99.7095413 -4.9089394 7.3121824
-158.3215485 -5.0117989 22.0728455
-159.0578461 -5.0258136 21.4625874
-159.8052521 -5.0339956 20.8093910
-160.5108948 -5.0550547 20.1926708
128.7836914 -3.6427667 -36.0384674
-99.7905807 -4.2583508 6.1100430
-158.4457245 -4.4171362 21.2294960
91.7902679 -3.2858715 -40.4609222
91.1644592 -3.2746899 -41.2855453
-100.4171371 -3.6324985 6.1682267
-100.9420776 -3.6439946 7.3008609
-157.1490784 -3.7805052 21.5338612
-157.8669281 -3.8013270 20.9372578
91.8955688 -2.6013269 -42.2103691
-157.3273468 -3.1708539 20.5958633
128.7135925 -1.7124093 -40.6212654
127.9983292 -1.7257779 -39.9530945
125.7239990 -1.7976803 -37.9866982
124.9739914 -1.7996478 -37.4129562
124.2617645 -1.7918491 -36.9709625
123.5559692 -1.7757142 -36.5457611
94.4170380 -1.9848197 -40.9756317
93.8168793 -1.9573026 -41.6934700
-101.1997299 -2.4032912 4.6291595
-157.4609222 -2.5723529 19.6816425
125.9705811 -1.1128851 -39.8351936
