114.9390106 -43.8045883 -18.9087334
109.7366486 -43.8474731 -18.5931053
104.6009521 -43.9261284 -18.8659401
99.5142212 -44.0386276 -19.6888695
94.4739838 -44.1893997 -21.0893860
89.4721527 -44.3808708 -23.1426506
84.5101089 -44.6157913 -25.8921146
79.5853271 -44.9059715 -29.4990215
-97.9764252 -44.2135239 14.2203979
-102.4274902 -43.9512711 19.1421738
-106.9527740 -43.7568054 23.0095825
-111.5323639 -43.6139145 26.0840340
-116.1611786 -43.5136909 28.5099697
-120.8493118 -43.4498253 30.3721657
-125.5894928 -43.4192429 31.7227707
-130.3858795 -43.4210587 32.5836411
-135.2424927 -43.4540520 32.9769058
-140.1761627 -43.5190697 32.8724442
-145.1910095 -43.6177559 32.2645187
-150.3118286 -43.7544861 31.0857372
-155.5494232 -43.9341812 29.2621288
-160.9545746 -44.1666718 26.6360683
125.9403152 -38.9984055 -24.5491867
120.5316696 -38.9559784 -22.7782021
115.2250595 -38.9562378 -21.7579727
110.0024719 -38.9922981 -21.3820496
104.8509827 -39.0652466 -21.6370583
99.7542648 -39.1712570 -22.4764824
94.7044449 -39.3138504 -23.9534302
89.6985397 -39.4948425 -26.1022243
84.7340698 -39.7220764 -29.0279503
-102.6731644 -39.1343536 16.9845848
-107.1863022 -38.9487076 21.0214958
-111.7639694 -38.8143311 24.2033806
-116.3955536 -38.7201080 26.7082558
-121.0825043 -38.6614838 28.6139889
-125.8254395 -38.6339226 29.9923725
-130.6247253 -38.6379280 30.8654995
-135.5010071 -38.6697998 31.2350769
-140.4453278 -38.7320595 31.1135445
-145.4733887 -38.8271065 30.4629745
-150.6136780 -38.9573174 29.2089081
-155.8844604 -39.1294975 27.2677040
-161.3256836 -39.3539047 24.4648304
120.9439545 -34.1207962 -26.6118774
115.6038437 -34.1153030 -25.4262466
110.3544617 -34.1475220 -24.9744148
105.1819687 -34.2128677 -25.1987972
100.0696640 -34.3135300 -26.0718384
95.0078888 -34.4478302 -27.6414623
90.0028687 -34.6223679 -29.9531479
-107.5047760 -34.1571655 18.3183784
-112.0720978 -34.0283546 21.6778049
-116.7053146 -33.9403381 24.2911968
-121.3928757 -33.8839149 26.2707710
-126.1466217 -33.8605537 27.6882935
-130.9536896 -33.8637428 28.5750427
-135.8415527 -33.8963699 28.9329052
-140.8047180 -33.9569740 28.7694664
-145.8580017 -34.0479927 28.0386715
-151.0268402 -34.1740723 26.6748753
-156.3413391 -34.3414841 24.5495834
116.1053314 -29.2846947 -30.2012348
110.8168488 -29.3086205 -29.6042900
105.6133804 -29.3681870 -29.7814064
100.4844894 -29.4614582 -30.7239456
95.4164352 -29.5916138 -32.4409409
-112.4818649 -29.2506237 18.3608513
-117.1078110 -29.1657276 21.1488400
-121.7989044 -29.1145973 23.2419472
-126.5550613 -29.0910988 24.7142048
-131.3792725 -29.0967484 25.6190948
-136.2814026 -29.1284504 25.9691238
-141.2695007 -29.1880913 25.7329597
-146.3575439 -29.2768421 24.8905602
-151.5708008 -29.4006920 23.3412819
111.4461899 -24.4794159 -35.8096428
106.2079163 -24.5321064 -35.9197540
101.0592804 -24.6222992 -36.9628029
-117.6249237 -24.3941975 17.0808659
-122.3151093 -24.3441162 19.3397675
-127.0792542 -24.3236332 20.9071426
-131.9191284 -24.3286552 21.8396301
-136.8438110 -24.3619289 22.1479073
-141.8659821 -24.4198303 21.8228245
-147.0000610 -24.5092373 20.7976685
-122.9879761 -19.5724373 14.2392998
-127.7575836 -19.5517883 15.9563847
-132.6186218 -19.5582352 16.9313984
-137.5743713 -19.5910149 17.1945763
-142.6452179 -19.6499786 16.6978302
121.1847610 -107.4421539 -35.9813499
118.4296341 -107.3461304 -34.8501892
115.7236481 -107.3060760 -34.1293564
113.0519409 -107.3009644 -33.7008820
110.4085846 -107.3408203 -33.5899734
107.7996521 -107.4171600 -33.7546844
105.2213211 -107.5317688 -34.2016754
102.6667786 -107.6767120 -34.9109383
100.1306686 -107.8669739 -35.9290771
126.2589951 -104.5796967 -34.4836006
123.4400558 -104.4236603 -32.8802528
120.6821289 -104.3335419 -31.7134151
117.9633789 -104.2650909 -30.8262157
115.2837219 -104.2475433 -30.2684097
112.6367188 -104.2603531 -29.9497948
110.0067291 -104.3024292 -29.8848457
107.4107513 -104.3751526 -30.0490322
104.8345261 -104.4901428 -30.4707851
102.2807465 -104.6188202 -31.0858345
99.7434769 -104.7923660 -31.9806786
97.2301941 -104.9894638 -33.1264801
94.7390289 -105.2384644 -34.6046448
92.2656250 -105.5290222 -36.4398842
-133.0790863 -104.5992889 4.9921336
128.6149139 -101.7168198 -32.4151535
125.7951889 -101.5583572 -30.7263565
123.0134354 -101.4389496 -29.4025269
120.2836761 -101.3641891 -28.4073677
96.9154205 -102.0190430 -29.8719292
94.4221191 -102.2335510 -31.1574936
91.9328384 -102.4912491 -32.7497635
89.4772339 -102.7834091 -34.6411247
-127.3478088 -101.3293457 9.8223877
-129.7499237 -101.2716217 10.6737270
-132.1870117 -101.2434845 11.2377758
-134.6601257 -101.2578888 11.5147619
131.0633850 -98.9531784 -31.0405312
128.2003021 -98.7747498 -29.2001724
125.4202271 -98.6425400 -27.7356567
122.6661987 -98.5555420 -26.5931187
119.9614029 -98.4957275 -25.7251835
96.6586075 -99.1372986 -27.2067871
94.1528015 -99.3346100 -28.3836899
91.6659393 -99.5649109 -29.8054276
89.1968155 -99.8278122 -31.5034580
86.7460327 -100.1331329 -33.5371590
-117.4484711 -98.8066406 8.4000063
-119.7210236 -98.5995941 10.3846788
-122.0247192 -98.4435730 11.9718075
-124.3714142 -98.3270111 13.2564697
-126.7351379 -98.2435913 14.2607164
-129.1401672 -98.1954803 15.0201540
-131.5780487 -98.1774445 15.5380249
-134.0343170 -98.1888885 15.8301678
-136.5456696 -98.2333679 15.8711424
-139.0670776 -98.3068237 15.6831818
-141.6523285 -98.4124451 15.2298584
-144.2667694 -98.5549698 14.4824228
136.5092163 -96.5224380 -32.7571411
133.5500946 -96.2637177 -30.2051010
130.6929626 -96.0649796 -28.1946754
127.8538055 -95.9206085 -26.5721245
125.1083450 -95.8140106 -25.2791882
91.4453278 -96.7166901 -27.3852081
88.9636536 -96.9640350 -28.9544640
86.5058746 -97.2350769 -30.7862644
84.0690994 -97.5472336 -32.9550323
81.6400986 -97.9167328 -35.5691910
-112.4511719 -96.2390366 8.0674858
-114.6627121 -95.9738464 10.5506229
-116.9191742 -95.7643890 12.5815353
-119.2198029 -95.5989914 14.2653894
-121.5376740 -95.4739532 15.6511211
-123.8912811 -95.3785095 16.7852287
-141.1102905 -95.4560852 18.8136520
-143.6791077 -95.5774536 18.2459507
-146.3276215 -95.7349548 17.3954468
-149.0121460 -95.9250641 16.2475929
136.1220703 -93.6386185 -29.9069538
133.2091675 -93.4287567 -27.6838684
130.3810730 -93.2645035 -25.8892879
127.5789337 -93.1405182 -24.4136982
124.8468552 -93.0449295 -23.2447090
91.2488098 -93.9376450 -25.3562546
88.7754059 -94.1580505 -26.8105869
86.3085327 -94.4103088 -28.5234051
83.8599396 -94.6974182 -30.5167160
81.4187317 -95.0296021 -32.8749123
-109.7810440 -93.5144501 9.3953028
-111.9819641 -93.2530594 11.9127541
-114.2377243 -93.0354233 14.0534964
-116.5126801 -92.8688278 15.8098164
-118.8304977 -92.7280273 17.3329487
-121.1516495 -92.6149292 18.6040878
-123.5106964 -92.5365143 19.6434326
-140.6702271 -92.6106491 21.7078552
-143.2076721 -92.7104645 21.2530460
-145.8342743 -92.8472672 20.5467796
-148.4665680 -93.0085602 19.6084766
138.7398834 -91.0819321 -30.0954914
135.8083191 -90.8483429 -27.6523552
132.9243164 -90.6609268 -25.6210213
130.1267242 -90.5243835 -23.9879417
86.1383057 -91.6421204 -26.6226425
83.6812897 -91.9100342 -28.4919090
81.2399902 -92.2081909 -30.6524506
78.8111725 -92.5505981 -33.1847878
-107.1878815 -90.8859100 10.0338612
-109.3847504 -90.6173935 12.6794453
-111.6203766 -90.3948517 14.9184837
-113.8896179 -90.2036057 16.8453560
-145.4250031 -90.0467606 23.1267090
-148.0271149 -90.1872559 22.3260574
-150.7003784 -90.3658295 21.2547035
-153.4258728 -90.5764694 19.8952847
141.4490356 -88.5859833 -30.8319836
138.4456787 -88.3120193 -28.0136242
135.5498962 -88.1114578 -25.7849197
132.6807251 -87.9444046 -23.9042912
129.9062805 -87.8207932 -22.3875980
85.9881287 -88.9209366 -25.0367527
83.5364532 -89.1673737 -26.7914600
81.0888748 -89.4451904 -28.8270321
78.6534882 -89.7631149 -31.1930084
76.2366638 -90.1260910 -33.9779167
-104.6579514 -88.3263855 10.1369953
-106.8470230 -88.0438614 12.9445038
-109.0752335 -87.8039856 15.3465033
-111.3201141 -87.6126785 17.3813934
-113.6073456 -87.4493408 19.1539059
-145.0867615 -87.3133926 25.2885952
-147.6664734 -87.4420013 24.5800953
-150.3134918 -87.5985565 23.6281738
-153.0081787 -87.7870865 22.4310551
-155.7239990 -88.0009384 20.9653893
141.1711884 -85.8396759 -28.9024944
138.2062073 -85.6019287 -26.3359451
135.3313751 -85.4213257 -24.2479095
80.9553986 -86.7282028 -27.3121490
78.5156860 -87.0203857 -29.5379105
76.0921860 -87.3565674 -32.1376839
-102.1910858 -85.8188095 9.7736893
-104.3632202 -85.5225830 12.7675533
-106.5719681 -85.2748184 15.3190031
-108.8183517 -85.0693741 17.5285587
-149.9870605 -84.8898163 25.6229954
-152.6625366 -85.0616150 24.5320454
-155.3424225 -85.2555771 23.2167816
-158.1549988 -85.4938202 21.5407715
143.9642029 -83.4108582 -30.2921944
140.9328003 -83.1436462 -27.3473892
138.0077057 -82.9364700 -24.9681931
135.1448364 -82.7651062 -22.9745426
80.8407440 -84.0494080 -26.0600777
78.4000778 -84.3233337 -28.1849422
75.9745560 -84.6324463 -30.6378040
73.5564423 -84.9894562 -33.5170555
-99.7770233 -83.3753510 8.8710632
-101.9262085 -83.0534744 12.1445322
-104.1216812 -82.7907333 14.9058867
-106.3479385 -82.5694809 17.2879581
-108.5988770 -82.3797226 19.3659496
-149.7171326 -82.2301331 27.2995872
-152.3615875 -82.3834229 26.3079643
-155.0210266 -82.5600967 25.1084919
-157.8096619 -82.7793121 23.5727692
-160.5523376 -83.0150375 21.8224068
143.7575989 -80.7383347 -28.8906746
140.7484131 -80.4919357 -26.1182480
116.0519485 -79.7599335 -15.2691841
113.4478455 -79.7768784 -15.0122032
75.8715439 -81.9502106 -29.4353199
73.4488373 -82.2822571 -32.1633987
-99.5358582 -80.6309052 11.0858936
-101.7123413 -80.3457413 14.1055975
-103.9190369 -80.1098633 16.6848011
-160.2272034 -80.3257294 23.6640415
-163.1345520 -80.5990448 21.5651188
146.6281586 -78.3765106 -30.9778328
143.5719757 -78.0926361 -27.7516785
140.5992889 -77.8736496 -25.1358738
115.9625549 -77.1937256 -14.6221266
113.3713379 -77.2154846 -14.3893375
75.7891693 -79.2970657 -28.4524612
73.3657837 -79.6083450 -31.0714645
70.9592819 -79.9633484 -34.1187706
-97.1914749 -78.2510834 9.5641994
-99.3423538 -77.9451599 12.8754330
-101.5404816 -77.6885986 15.7044506
-103.7539520 -77.4753342 18.1501770
-159.9656982 -77.6833496 25.1776981
-162.8420868 -77.9333344 23.2408295
146.4647217 -75.7447891 -29.9749241
143.4373932 -75.4873047 -26.9044342
140.4727173 -75.2797165 -24.3710194
110.7134094 -74.7004166 -13.7874489
108.1449738 -74.7515564 -13.8391132
75.7230759 -76.6710358 -27.6843700
73.2961121 -76.9636078 -30.2104816
70.8780746 -77.2993698 -33.1527443
-94.8907928 -75.9235840 7.4845824
-97.0203705 -75.5819092 11.2187557
-99.1886139 -75.3024139 14.3418398
-101.3948822 -75.0682068 17.0389366
-103.6215973 -74.8660202 19.3961182
-159.7485046 -75.0739899 26.4427013
-162.5965729 -75.3070145 24.6222000
-165.4037018 -75.5579910 22.5550194
149.5287476 -73.4692688 -33.0688171
146.3594055 -73.1519165 -29.2829056
143.3411102 -72.9073257 -26.2846870
140.3864288 -72.7134781 -23.8226795
110.6603928 -72.1773148 -13.4692574
108.0948486 -72.2245636 -13.4931164
75.6667633 -74.0686951 -27.1137314
73.2351761 -74.3489838 -29.5898132
70.8141785 -74.6667786 -32.4461670
-94.7344742 -73.2610168 9.0508423
-96.8847733 -72.9520645 12.5558338
-99.0613022 -72.6976013 15.5326538
-101.2741318 -72.4793854 18.1325912
-103.5062256 -72.2941284 20.3973331
-159.5695038 -72.4978943 27.4752789
-162.3865662 -72.7118683 25.7557526
-165.1824341 -72.9463959 23.7986908
149.4262238 -70.8772583 -32.4681854
146.2722321 -70.5794678 -28.7996635
110.6183014 -69.6630173 -13.2383347
108.0461884 -69.7077713 -13.2740469
105.4951401 -69.7632446 -13.4386377
102.9555664 -69.8287201 -13.7253017
75.6221771 -71.4866180 -26.7230492
73.1869659 -71.7550812 -29.1573505
-94.6116562 -70.6423416 10.2707520
-96.7716217 -70.3615036 13.6051378
-98.9654541 -70.1204834 16.4882965
-165.0116577 -70.3684464 24.7829208
-167.9433594 -70.6339569 22.4458447
149.3612671 -68.3133621 -32.1401749
146.2149353 -68.0317612 -28.5480499
110.5917664 -67.1644745 -13.1618156
108.0256805 -67.2065430 -13.1996851
105.4719391 -67.2585678 -13.3542824
102.9316635 -67.3243408 -13.6358452
75.5972290 -68.9229279 -26.5113525
73.1602097 -69.1795197 -28.9035683
-92.3993530 -68.3764877 7.3812656
-94.5167465 -68.0588837 11.2002544
-96.6927795 -67.7943878 14.4374123
-98.8850021 -67.5718842 17.2233791
-164.8740692 -67.8156281 25.5501289
-167.7865753 -68.0654831 23.3036690
149.3278198 -65.7716675 -32.0476303
146.1939545 -65.5036545 -28.5063057
121.0112305 -64.6288605 -14.4400597
118.3818817 -64.6227264 -13.9254999
115.7568130 -64.6264648 -13.5315504
113.1540985 -64.6435928 -13.2812061
110.5709915 -64.6696625 -13.1567879
105.4669037 -64.7668610 -13.3725758
102.9170837 -64.8296509 -13.6635895
75.5828552 -66.3736877 -26.4515877
73.1386642 -66.6229019 -28.8421402
-92.3173447 -65.7967529 8.2110214
-94.4511871 -65.5001221 11.9086428
-128.9142456 -64.0225220 34.3230515
-131.3097534 -64.0263519 34.6474991
-133.7418518 -64.0483932 34.8352470
-136.1734924 -64.0770493 34.9137077
-138.6467590 -64.1179352 34.8707542
-141.1175385 -64.1685867 34.7070160
-164.7650757 -65.2846832 26.1227665
-167.6678925 -65.5209656 23.9530945
149.3301239 -63.2530670 -32.2220383
146.1967163 -62.9940796 -28.6805153
121.0147858 -62.1504326 -14.5994101
118.3875504 -62.1440849 -14.0833740
110.5782623 -62.1940041 -13.3449802
108.0159683 -62.2338104 -13.3712349
105.4684143 -62.2824554 -13.5083628
102.9125061 -62.3457756 -13.8092003
75.5725861 -63.8400879 -26.5618038
73.1304932 -64.0805054 -28.9451580
70.7083130 -64.3484802 -31.6511879
-90.1755676 -63.5925331 4.3833780
-92.2673187 -63.2458191 8.7731934
-94.4001083 -62.9676437 12.3670139
-128.8758240 -61.5621490 34.5530090
-131.2702026 -61.5689430 34.8697205
-133.7062073 -61.5888100 35.0611992
-136.1488800 -61.6182480 35.1360550
-138.6137695 -61.6570358 35.0930939
-141.0899048 -61.7088013 34.9239464
-164.6968231 -62.7740211 26.5175877
-167.5852356 -62.9992523 24.3960285
149.3865204 -60.7556343 -32.6715279
146.2357330 -60.5016708 -29.0777531
121.0306854 -59.6816406 -14.8946619
118.3978958 -59.6747627 -14.3552732
115.7796173 -59.6806335 -13.9906797
113.1766663 -59.6958466 -13.7203369
110.5986176 -59.7243385 -13.6270466
108.0327682 -59.7631836 -13.6517620
70.7149887 -61.8111763 -31.9306316
-90.1371307 -61.0457687 4.7917905
-128.8564453 -59.1145782 34.6597137
-138.6014557 -59.2084503 35.1971779
-141.0642395 -59.2561493 35.0373917
-164.6577148 -60.2820206 26.7240677
-167.5303650 -60.4953003 24.6521835
-170.4558411 -60.7404709 22.1947861
149.4638824 -58.2731018 -33.3425484
146.3008270 -58.0222282 -29.6636028
121.0693893 -57.2205124 -15.3077002
118.4295044 -57.2143211 -14.7710180
115.8117218 -57.2193909 -14.3852406
113.2152405 -57.2359276 -14.1363211
110.6297836 -57.2630920 -14.0248833
108.0540009 -57.3009491 -14.0651073
70.7336273 -59.2865143 -32.3826981
-90.1268768 -58.5206604 4.9626985
-128.8619690 -56.6778145 34.6446495
-138.5985718 -56.7686234 35.1944199
-141.0696716 -56.8159561 35.0306892
-164.6540680 -57.8055801 26.7610397
-167.5222168 -58.0096092 24.7128372
-170.4380646 -58.2438736 22.2896996
146.4083862 -55.5568542 -30.4912186
115.8570557 -54.7671356 -14.9335518
113.2537689 -54.7813263 -14.6577797
110.6604462 -54.8061104 -14.5218182
108.0962372 -54.8429642 -14.5688534
70.7640228 -56.7752457 -33.0429726
-88.1273346 -56.4076309 -0.5270423
-90.1338806 -56.0189552 4.8523951
-128.8767090 -54.2508621 34.5063324
-131.2916260 -54.2594070 34.8177719
-138.6246033 -54.3404388 35.0504799
-141.0899353 -54.3857231 34.8966408
-170.4567719 -55.7641068 22.1827621
146.5359192 -53.1046257 -31.5559998
115.9085236 -52.3222427 -15.5912523
113.3096542 -52.3357124 -15.3267879
110.7206039 -52.3587379 -15.1957302
108.1502686 -52.3940811 -15.2133331
70.8102112 -54.2749748 -33.9054451
-90.1690979 -53.5343361 4.5109515
-128.9136353 -51.8325882 34.2490082
-131.3240967 -51.8412857 34.5543060
-133.7560120 -51.8581429 34.7558708
-136.1917877 -51.8842545 34.8370514
-138.6643372 -51.9200897 34.7899551
-141.1359558 -51.9644012 34.6354675
-170.5086365 -53.2982788 21.8864326
146.7011719 -50.6666489 -32.8920441
143.6491547 -50.4742966 -29.6830444
140.6625977 -50.3242722 -27.0326080
137.7612915 -50.2039337 -24.8325500
134.9203949 -50.1078377 -22.9913902
115.9780121 -49.8863640 -16.4059906
110.7837372 -49.9173317 -15.9896679
108.2189636 -49.9536896 -15.9984522
75.7197723 -51.3371620 -29.5883045
73.2882080 -51.5484352 -32.1022606
70.8655701 -51.7844925 -34.9876785
-90.2354889 -51.0681152 3.8918972
-92.3200378 -50.7856140 8.2118301
-94.4724197 -50.5578194 11.7914295
-164.8031006 -50.4475784 25.9199104
-167.6675110 -50.6319199 23.8556004
-170.5958862 -50.8454742 21.3914318
143.8202820 -48.0442047 -31.0971775
140.8276825 -47.8910561 -28.3455544
137.9154053 -47.7694206 -26.0686626
135.0479584 -47.6768341 -24.1420441
116.0779114 -47.4456177 -17.3507862
113.4642944 -47.4584198 -17.0631351
110.8639832 -47.4811020 -16.9124756
108.2919159 -47.5138206 -16.9140377
75.7917709 -48.8648300 -30.7296085
73.3543396 -49.0696640 -33.3143730
70.9426117 -49.3052216 -36.3024330
-92.4062958 -48.3375549 7.4566612
-94.5454483 -48.1154556 11.0831623
-164.9086914 -48.0155945 25.3096390
-167.7794342 -48.1944580 23.2100105
144.0482330 -45.6220932 -32.8501816
141.0223083 -45.4658966 -29.9175339
138.0782318 -45.3457336 -27.5034924
135.2088013 -45.2469482 -25.5002174
126.8648682 -45.0665855 -21.2213173
124.1623993 -45.0350647 -20.2530708
75.8675079 -46.3962250 -32.0973053
73.4454269 -46.6019440 -34.7494812
-92.5074768 -45.9019279 6.4364104
-94.6417923 -45.6827202 10.1737127
-165.0403900 -45.5907593 24.5316467
-167.9222870 -45.7677116 22.3736172
144.3301086 -43.2163849 -34.9772568
141.2595215 -43.0514832 -31.7751980
138.2982941 -42.9240532 -29.2057037
135.4023590 -42.8253212 -27.0770359
127.0246735 -42.6426888 -22.6118279
124.3016968 -42.6127930 -21.5844440
75.9704742 -43.9370804 -33.6900558
73.5452423 -44.1409378 -36.4803734
-92.6465836 -43.4785194 5.1641107
-94.7609863 -43.2591248 9.0259094
-165.2140808 -43.1754227 23.5473633
-168.1120148 -43.3483124 21.3175926
141.5453186 -40.6456184 -33.9948807
138.5509491 -40.5117493 -31.2012978
135.6262817 -40.4122581 -28.9214859
132.7725067 -40.3309097 -27.0533276
129.9674377 -40.2687759 -25.4970818
80.9727097 -41.1472778 -30.8429527
78.5259552 -41.3053207 -33.0313339
76.0959320 -41.4849319 -35.5436668
73.6755981 -41.6888428 -38.4989014
-94.9080048 -40.8454933 7.6360292
-97.0669022 -40.6658096 11.0442705
-99.2577972 -40.5169830 13.9571667
-165.4301605 -40.7673111 22.3537178
-168.3399353 -40.9384117 20.0380287
138.8507538 -38.1109924 -33.5695801
135.8945007 -38.0013847 -31.0820465
133.0046844 -37.9190903 -29.0435772
130.1914063 -37.8552208 -27.3915920
81.1011658 -38.7005386 -32.7740440
78.6611023 -38.8606720 -35.0755692
76.2407455 -39.0390244 -37.7462158
-95.0821991 -38.4401894 5.9479976
-97.2292328 -38.2591515 9.5346031
-99.4142303 -38.1111145 12.5594635
-165.6734314 -38.3632393 20.9540520
139.2087708 -35.7252998 -36.4027443
136.2089539 -35.6024170 -33.6106110
133.2962952 -35.5130920 -31.3872414
130.4439240 -35.4445915 -29.5658951
127.6475372 -35.3948784 -28.0785465
124.8991013 -35.3599281 -26.8853626
86.1874847 -35.9981117 -31.0816040
83.7125092 -36.1216202 -32.8932991
81.2587128 -36.2622986 -34.9925079
78.8253021 -36.4218559 -37.4403152
-97.4190674 -35.8609962 7.7384858
-99.5903625 -35.7105484 10.9241343
-101.7908630 -35.5854034 13.6596260
-104.0277100 -35.4812469 16.0580826
-160.2916870 -35.6947327 23.2350693
-163.0886230 -35.8197098 21.4483662
-165.9624329 -35.9677505 19.2901077
136.5848389 -33.2128601 -36.6494751
133.6343994 -33.1132011 -34.1460114
130.7559357 -33.0408630 -32.1224289
127.9347839 -32.9877319 -30.4886055
125.1557388 -32.9482079 -29.1582642
86.3650970 -33.5643539 -33.3948669
83.9004745 -33.6879501 -35.3224106
81.4503860 -33.8279610 -37.5837135
79.0231171 -33.9904404 -40.2629662
-97.6479416 -33.4707565 5.5850458
-99.7959442 -33.3165665 8.9737015
-101.9944153 -33.1920090 11.8814116
-104.2149048 -33.0873337 14.3833923
-160.5859375 -33.3022346 21.5325508
-163.3991547 -33.4293976 19.6443176
134.0429535 -30.7281380 -37.4425278
131.1152039 -30.6449203 -35.1190987
128.2614594 -30.5794106 -33.2817650
125.4574661 -30.5409813 -31.8131218
122.6997910 -30.5087929 -30.6630764
119.9756851 -30.4967976 -29.7330151
91.5332794 -30.9270897 -32.8368073
89.0487366 -31.0275745 -34.3227692
86.5670090 -31.1336937 -36.1158981
84.1149902 -31.2596321 -38.1819916
-100.0512695 -30.9305420 6.6965528
-102.2268372 -30.8006859 9.7931242
-104.4335098 -30.6969795 12.4434223
-106.6735077 -30.6048298 14.7397833
-108.9358521 -30.5330715 16.7688122
-155.4129944 -30.7110577 22.6683598
-158.1344757 -30.8053780 21.2663288
-160.9166565 -30.9143753 19.5714474
131.5527039 -28.2620335 -38.7847214
128.6547089 -28.1861801 -36.6394043
125.8222198 -28.1396751 -34.9449768
123.0316086 -28.1064873 -33.6164017
120.2978210 -28.0861816 -32.5894775
91.7692108 -28.5025520 -35.7208176
89.2888718 -28.5970306 -37.3443375
86.8189316 -28.7110939 -39.2802658
-100.3411560 -28.5507755 3.9287202
-102.4988632 -28.4180374 7.3367090
-104.6901245 -28.3088760 10.1843729
-106.9192047 -28.2202377 12.6299753
-109.1727371 -28.1445293 14.7560253
-155.7424774 -28.3249722 20.6450920
-158.4959106 -28.4210167 19.1235313
-161.3173218 -28.5315628 17.2583122
126.2600708 -25.7467155 -38.7183838
123.4379807 -25.7005291 -37.1594849
120.6754608 -25.6835785 -35.9485168
117.9314117 -25.6682606 -35.0837212
115.2472229 -25.6685867 -34.4406967
97.0754395 -25.9204350 -36.4401245
94.5492096 -25.9946785 -37.6507950
92.0594101 -26.0799961 -39.1421967
89.5748444 -26.1802025 -40.9519539
87.1230927 -26.2995510 -43.1517220
-102.8227539 -26.0397549 4.3790641
-104.9910278 -25.9229851 7.5140500
-107.2097702 -25.8326607 10.1611557
-109.4466705 -25.7588234 12.4423676
-111.7176056 -25.6961956 14.4052048
-114.0055618 -25.6444740 16.1187935
-150.7396698 -25.7873917 20.7604389
-153.4207764 -25.8581676 19.6577988
-156.1394043 -25.9419765 18.2989235
-158.9133148 -26.0384483 16.6285133
123.9376526 -23.3239479 -41.5531311
121.1355057 -23.2888660 -40.0517349
118.3574829 -23.2657604 -38.9883881
115.6451340 -23.2631531 -38.1971436
97.4121475 -23.5037498 -40.2406845
94.8930817 -23.5817699 -41.6146240
92.4141464 -23.6745987 -43.3175011
-105.3547745 -23.5502815 4.3297648
-107.5456467 -23.4515495 7.2646198
-109.7669067 -23.3741760 9.7343521
-112.0232773 -23.3102436 11.8424520
-114.3076477 -23.2622890 13.6810150
-151.1388397 -23.4039841 18.3078156
-153.8397217 -23.4772949 17.0807037
-156.5894775 -23.5616226 15.5571012
-159.4125214 -23.6626930 13.6520233
116.1633911 -20.8727970 -42.9219437
113.4344177 -20.8672543 -42.3152390
110.7684708 -20.8819714 -41.9849548
108.1265411 -20.9013977 -42.0061569
105.5101166 -20.9356003 -42.3022308
102.9317169 -20.9779243 -42.8762550
100.3694458 -21.0339699 -43.7889290
97.8502655 -21.1045456 -45.0148544
-107.9478912 -21.0789757 3.7249804
-110.1417465 -20.9955330 6.5302253
-112.3825684 -20.9252777 8.8407688
-114.6572418 -20.8733234 10.8376245
-116.9539185 -20.8306160 12.5333700
-119.2674866 -20.7997971 13.9804821
-146.2910156 -20.9055138 17.3589306
-148.9220123 -20.9579773 16.5222855
-151.6031952 -21.0226059 15.4299650
-154.3396454 -21.0968075 14.0268383
-112.8186798 -18.5455189 5.2148108
-115.0642090 -18.4907703 7.4666553
-117.3535919 -18.4462128 9.3329592
-119.6631927 -18.4129257 10.9102697
-146.7722321 -18.5229645 14.2670088
-149.4478149 -18.5758209 13.2691193
-152.1551361 -18.6429958 11.9876604
-115.5775986 -16.1198158 3.2832987
-117.8381195 -16.0669041 5.4552603
-120.1318817 -16.0267391 7.2226076
-122.4651337 -16.0015717 8.6904125
-124.8186951 -15.9828091 9.8848209
-127.2049713 -15.9724264 10.8407612
-129.6161194 -15.9673042 11.5619240
-132.0447388 -15.9740791 12.0970001
-134.5169373 -15.9815845 12.3858128
-137.0115204 -16.0001717 12.4746885
-139.5406952 -16.0219021 12.3566561
-142.1013794 -16.0533848 12.0095530
-144.7012939 -16.0931511 11.4231567
-147.3531189 -16.1405354 10.5360231
-150.0645752 -16.1996574 9.3162432
-120.7173233 -13.6549540 2.5997000
-123.0271378 -13.6183777 4.3212357
-125.3717499 -13.5970135 5.6882534
-127.7489777 -13.5880070 6.7634087
-130.1643677 -13.5816689 7.5469704
-132.6106415 -13.5829000 8.0976400
-135.0865326 -13.5972500 8.3929491
-137.5976715 -13.6123657 8.4418278
-140.1452026 -13.6368170 8.2514648
-142.7430267 -13.6683273 7.7570744
-135.8105469 -11.2158661 3.2868032
-138.3398132 -11.2395134 3.2643633
114.9089355 -113.2239075 -44.3137817
113.5121307 -113.2220306 -44.0338821
112.1566925 -113.1848831 -43.8855629
110.8292236 -113.1786957 -43.8018265
108.2114182 -113.3461151 -44.0407677
106.9032898 -113.4174957 -44.3657379
118.5464020 -111.4813232 -41.7890167
117.1621628 -111.4197617 -41.2017784
115.8056641 -111.3967896 -40.7790985
114.4451218 -111.3794479 -40.4220581
113.0916061 -111.3703537 -40.1662636
111.7562637 -111.4013977 -40.0716553
110.4361649 -111.3985977 -39.9940186
109.1221542 -111.4487915 -40.0872879
107.8153534 -111.4934082 -40.2424431
106.5248718 -111.5453262 -40.4981689
105.2335968 -111.6581802 -40.9128952
103.9681702 -111.7464142 -41.3380966
102.7005615 -111.8459930 -41.9265594
101.4400482 -111.9443359 -42.6402512
100.1863251 -112.1204071 -43.4969406
123.8460388 -110.0966263 -41.7467232
122.3946381 -109.9645996 -40.6796837
120.9678650 -109.8723221 -39.7882996
119.5750732 -109.8102036 -39.0697021
118.1811676 -109.7528687 -38.4454498
116.8174210 -109.7169342 -37.9776115
115.4609528 -109.7099533 -37.6432533
114.1099548 -109.6964417 -37.3523636
112.7778320 -109.6943283 -37.1558495
111.4449692 -109.7191086 -37.0815315
110.1279755 -109.7396851 -37.0637245
108.8148270 -109.7880707 -37.1531563
107.5135117 -109.8166428 -37.2726135
106.2217560 -109.8922272 -37.5514183
104.9422836 -109.9652100 -37.8800049
103.6641388 -110.0459518 -38.2845459
102.3882065 -110.1477356 -38.8187485
101.1331482 -110.2332916 -39.3927689
99.8716660 -110.3423386 -40.0898170
98.6374741 -110.4919052 -40.9383087
97.3933792 -110.6646271 -41.9131355
124.8819427 -108.4755936 -39.4279861
123.4342957 -108.3473740 -38.4059143
98.3680878 -108.8245773 -38.0956993
97.1289368 -108.9604492 -38.9371185
95.8982849 -109.1074219 -39.8619614
94.6705704 -109.2838745 -40.9576225
128.9130402 -107.2086716 -40.0847092
127.4342804 -107.0300598 -38.7303047
125.9796906 -106.9086075 -37.5595055
124.5524902 -106.8269043 -36.6197090
123.1279449 -106.7362976 -35.7683372
98.1467133 -107.2510300 -35.7535515
96.8885193 -107.3661270 -36.4873276
95.6475983 -107.4972534 -37.3107986
94.4169006 -107.6470947 -38.2486458
93.1884918 -107.8272705 -39.3208313
91.9779205 -107.9897766 -40.5041809
90.7564621 -108.2133484 -41.8836060
130.0313721 -105.6840820 -38.5640450
128.5551758 -105.5360489 -37.2409439
90.5433807 -106.5549469 -39.1914520
89.3335114 -106.7654419 -40.5218658
88.1196136 -107.0233078 -42.0261917
-130.3159485 -105.5805283 2.0776961
-131.5364380 -105.5429077 2.5159636
-135.2590637 -105.5442123 3.1900039
131.2085724 -104.2115784 -37.3168144
129.7161407 -104.0692749 -35.9847908
128.2670135 -103.9589386 -34.8534698
90.3436432 -104.9785614 -36.9233856
89.1242294 -105.1596069 -38.1341553
87.9226227 -105.3573380 -39.4706993
86.7112656 -105.6031647 -40.9812584
-125.0592270 -104.0149078 3.4380913
-126.2206345 -103.8976059 4.2945714
-127.3817825 -103.8252716 5.0325832
-128.5612183 -103.7606659 5.6598072
-129.7541351 -103.7277985 6.1354399
-130.9598389 -103.6950989 6.5558558
-134.6605225 -103.6796646 7.1930051
-135.9160614 -103.7168732 7.2268863
-137.1957092 -103.7678680 7.1788878
-141.1129761 -103.9586945 6.3613563
-142.4725037 -104.0696182 5.8534756
133.9048767 -102.9488220 -37.8720779
132.4047546 -102.7847443 -36.3327446
130.9145813 -102.6366043 -34.9754601
87.7332306 -103.7868500 -37.2770042
86.5252533 -103.9905396 -38.6602631
85.3221207 -104.2233047 -40.1534271
84.1185455 -104.4989243 -41.8371773
-120.0780029 -102.7255554 2.7795711
-121.1909027 -102.5757294 4.0187144
-122.3030548 -102.4527512 5.1150970
-123.4456024 -102.3575974 6.0648332
-124.5928726 -102.2711182 6.9019623
-125.7610931 -102.2082977 7.6274967
-136.7362061 -102.0808716 10.2973127
-138.0070190 -102.1187134 10.1731911
-139.2994995 -102.1652374 9.9653101
-140.5991211 -102.2187500 9.6891251
-141.9169006 -102.2868881 9.3107567
-143.2810211 -102.3979568 8.8066216
-144.6227570 -102.5385666 8.2383213
135.1028595 -101.5466461 -37.0700722
133.6128540 -101.3853378 -35.5443153
132.1170959 -101.2352295 -34.1713867
130.6733093 -101.1233292 -33.0205994
87.5621796 -102.2712250 -35.3943939
86.3490067 -102.4546280 -36.6481972
85.1421127 -102.6545105 -38.0263672
83.9608917 -102.8557663 -39.4656448
-116.3659058 -101.5176239 1.9770789
-117.4464188 -101.3098526 3.5664632
-118.5307388 -101.1369858 4.9496021
-119.6428070 -101.0216904 6.1275477
-120.7758865 -100.9032669 7.2007942
-121.9069061 -100.8095551 8.1152163
-123.0553360 -100.7297516 8.9338455
-124.2193604 -100.6615219 9.6659288
-125.3973541 -100.5941238 10.3278408
-136.3648376 -100.4889297 12.8270445
-137.6297302 -100.5465240 12.7096891
-138.9000549 -100.5598145 12.6138325
-140.1908264 -100.6174316 12.3834267
-141.5130005 -100.6933212 12.0410013
-142.8235474 -100.7581329 11.6617680
-144.1434631 -100.8349609 11.2065659
-145.4909210 -100.9412842 10.6138382
-146.8699951 -101.0669022 9.9021177
134.8222198 -100.0039902 -34.9174957
133.3440247 -99.8555298 -33.5432358
84.9930878 -101.1301880 -36.1356659
83.7949829 -101.3228760 -37.5151138
82.5834122 -101.5614014 -39.0699883
-113.8164825 -100.1781769 2.0941694
-114.8816147 -99.9513779 3.8202796
-115.9568176 -99.7859344 5.3032155
-146.4429932 -99.4502487 12.5868473
139.2056580 -99.0608063 -38.1644974
137.6416016 -98.8546295 -36.2321243
136.0837708 -98.6494598 -34.5204468
134.5826721 -98.5001221 -33.0780563
133.1226349 -98.3828735 -31.8511734
84.8468094 -99.6555328 -34.5187531
83.6417084 -99.8330917 -35.8004150
82.4431763 -100.0286407 -37.2192841
81.2515564 -100.2444458 -38.7954445
80.0596619 -100.5050430 -40.5549889
-111.3298187 -98.9283905 1.6020749
-112.3760986 -98.6801682 3.5248277
-113.4279099 -98.4968338 5.1724815
-114.5238953 -98.3413696 6.6412978
-115.6189499 -98.1949005 7.9469180
-146.0923767 -97.9162903 14.8526335
-147.4512177 -98.0205841 14.2563038
-148.8047333 -98.1262741 13.5648012
-150.1854553 -98.2491302 12.7602367
-151.6144104 -98.4225082 11.8127251
-153.0742950 -98.6106644 10.6999769
140.4939117 -97.7432938 -38.0385361
138.9156799 -97.5131454 -36.0486031
79.9114685 -98.9721375 -38.6875877
-109.9417725 -97.4651260 2.7768583
-110.9770432 -97.2694550 4.5940952
-151.2125549 -96.8287659 14.1698780
-152.6345520 -96.9787750 13.2293978
140.2028198 -96.2081375 -35.9856873
138.6666870 -96.0215607 -34.2066040
79.7880707 -97.4797668 -37.0117645
78.5752411 -97.7318115 -38.6793251
-108.5700150 -96.0657730 3.6663454
-109.6173172 -95.8703690 5.4815612
-110.6786499 -95.7012863 7.0738435
-150.9051666 -95.3469315 16.1570473
-152.3046875 -95.4760513 15.3340988
141.5234680 -94.9229126 -36.1059647
139.9483185 -94.7124329 -34.1983070
138.4449158 -94.5541077 -32.6015816
79.6781693 -96.0125885 -35.5165672
78.4783707 -96.2258530 -37.0952950
77.2885437 -96.4578705 -38.8157883
-107.2210693 -94.7195892 4.2572289
-108.2705917 -94.5122986 6.1011019
-150.6093903 -93.8705978 17.9352455
-151.9990540 -93.9918747 17.1815262
-153.4017639 -94.1200943 16.3289661
-154.7809296 -94.2489014 15.4121323
-156.2150879 -94.4215164 14.3639860
141.2928925 -93.4594345 -34.4436264
139.7507172 -93.2816238 -32.7079773
138.2741241 -93.1312027 -31.2373962
79.5578918 -94.5832977 -34.2226639
78.3531036 -94.7849121 -35.7162094
77.1776886 -94.9971695 -37.3447189
-105.9166794 -93.3751755 4.6985207
-106.9604111 -93.1771698 6.5327229
-108.0375061 -92.9985199 8.2004213
-150.3459167 -92.4353333 19.5031185
-151.7308350 -92.5407791 18.8217106
-153.1210632 -92.6574478 18.0503883
-154.4832764 -92.7789612 17.2092590
-155.8853455 -92.9148407 16.2619610
-157.3444824 -93.1000519 15.1784344
144.3081818 -92.4439087 -37.0431480
142.6620026 -92.1928711 -34.8214874
141.0854187 -92.0048828 -32.9553871
77.0724182 -93.5439148 -35.9717026
-103.5895996 -92.3103485 2.8201101
-104.6248550 -92.0647430 4.9334717
-105.6748047 -91.8659439 6.8021741
-155.5895386 -91.4635086 17.9407368
-157.0289459 -91.6111526 16.9145241
-158.4985657 -91.7755280 15.7705688
-159.9814453 -91.9730148 14.4964247
144.0492249 -90.9644165 -35.3834000
142.4757843 -90.7732697 -33.4267120
140.8981018 -90.5934448 -31.6717453
76.9693604 -92.1270981 -34.7778931
75.7654953 -92.3451462 -36.4136429
74.5875549 -92.5657196 -38.1740456
-103.3583374 -90.7714081 5.0313044
-104.3935318 -90.5792999 6.8991060
-105.4731140 -90.3884354 8.6269217
-155.3458710 -90.0389175 19.4342976
-156.7819519 -90.1804352 18.4728718
-158.2161255 -90.3197174 17.4305687
-159.6592407 -90.4798431 16.2758293
145.4594421 -89.7589798 -36.1127510
143.8586578 -89.5402603 -34.0177765
74.4911804 -91.1301727 -36.9282646
73.2890778 -91.3778534 -38.7851105
-102.0962830 -89.5100861 4.9112563
-103.1471329 -89.2892990 6.9103160
-157.9785156 -88.9015503 18.9144096
-159.3939209 -89.0462646 17.8551865
-160.8284149 -89.2218933 16.7181492
145.2605286 -88.3276825 -34.7538605
143.6920929 -88.1407242 -32.8141823
74.4090347 -89.7186508 -35.8070984
73.2177200 -89.9435043 -37.5908661
-99.8621063 -88.5017395 2.3208432
-100.8652649 -88.2557220 4.6436868
-101.8962402 -88.0476761 6.6859808
-102.9711533 -87.8445129 8.5528374
-157.7649384 -87.4995422 20.2394943
-159.1522980 -87.6291733 19.2639332
-160.5631256 -87.7796936 18.1837711
-162.0377960 -87.9625397 16.9661942
146.6668243 -87.1260757 -35.6265106
145.0680084 -86.9116364 -33.5145493
143.5287628 -86.7410355 -31.7038631
74.3242416 -88.3288498 -34.8188171
73.1342163 -88.5360260 -36.5200844
71.9388733 -88.7707214 -38.3751297
-99.6577911 -87.0177994 4.2604938
-100.6782684 -86.7997284 6.3777447
-160.3147583 -86.3731537 19.5348320
-161.7759094 -86.5307617 18.3635521
146.5056000 -85.7309952 -34.4697647
144.9273376 -85.5418625 -32.4760513
143.4001160 -85.3782120 -30.7497578
74.2608032 -86.9423447 -33.9010468
73.0539474 -87.1458969 -35.5536461
71.8817825 -87.3560257 -37.3065147
-98.4588852 -85.8004608 3.6988873
-99.4743805 -85.5729904 5.9095397
-100.5128250 -85.3747711 7.8678007
-160.1087341 -84.9876556 20.7517719
-161.5485840 -85.1339798 19.6590328
-163.0692444 -85.3070755 18.3557606
-164.5581818 -85.4771271 16.9648685
147.9966736 -84.5667038 -35.6393051
146.3504639 -84.3443680 -33.4179497
71.8088074 -85.9690781 -36.3870468
70.6073456 -86.2033386 -38.2811928
-97.2592468 -84.6093216 2.9459805
-98.2726440 -84.3726196 5.2543745
-162.8557739 -83.9216614 19.5883160
-164.3310394 -84.0848465 18.2888908
-165.7866821 -84.2635193 16.9273071
147.8378296 -83.1793518 -34.6140213
146.2324219 -82.9850311 -32.5206375
71.7343750 -84.6018066 -35.5773087
70.5371094 -84.8210907 -37.4143677
-97.1052704 -83.1636505 4.5451074
-98.1272125 -82.9559631 6.6924734
-162.6683502 -82.5547028 20.6879101
-164.1173706 -82.7030945 19.4812641
-165.5750732 -82.8737564 18.1726093
149.3692627 -82.0408859 -36.0620575
147.6958771 -81.8110275 -33.7018089
146.1028748 -81.6307526 -31.7098885
71.6821289 -83.2322693 -34.8184967
70.4834366 -83.4437790 -36.6035194
69.2920227 -83.6716614 -38.5144386
-95.9266129 -81.9916382 3.5984569
-96.9564896 -81.7570190 5.9193254
-98.0010910 -81.5571289 7.9642572
-165.3549805 -81.4913330 19.3152809
149.2338867 -80.6735229 -35.1746559
147.5654602 -80.4583054 -32.8875694
145.9873810 -80.2880096 -30.9819088
71.6208572 -81.8840866 -34.1645164
70.4303131 -82.0816193 -35.8788147
69.2436295 -82.2969894 -37.7530785
-94.7732697 -80.8341370 2.4980240
-95.7839279 -80.5942917 4.9147425
-96.8181152 -80.3849564 7.0907507
-97.8766327 -80.1954041 9.0392771
-165.1845398 -80.1366806 20.3177261
-166.6653137 -80.3101883 18.9975967
150.7888031 -79.5577927 -36.8407631
149.0911255 -79.3153915 -34.3508415
69.1822128 -80.9411697 -37.0847855
67.9947357 -81.1704330 -39.0998611
-94.6462021 -79.4301987 3.8123820
-95.6652069 -79.2096252 6.1136470
-165.0346069 -78.7985229 21.2169151
-166.4792786 -78.9500885 19.9583321
-168.0349121 -79.1407623 18.4968128
150.6685638 -78.2049942 -36.0945892
148.9812775 -77.9787292 -33.6661034
69.1450348 -79.5878067 -36.4482994
67.9502716 -79.8113098 -38.4344025
66.7453079 -80.0662231 -40.6145363
-93.5136871 -78.2873230 2.4981461
-94.5281525 -78.0482407 4.9876785
-95.5552750 -77.8452301 7.1653872
-164.8796997 -77.4635086 22.0517921
-166.3144836 -77.6086578 20.8452187
-167.8425598 -77.7795258 19.4386425
-169.4476776 -77.9823685 17.8582554
150.5344238 -76.8546906 -35.3896637
148.9139557 -76.6562195 -33.1134720
69.0844727 -78.2526779 -35.9360657
67.9207230 -78.4576569 -37.8231316
-92.3803864 -77.1797943 0.9631102
-93.4001312 -76.9070206 3.6676984
-167.7030029 -76.4453735 20.2686043
-169.2714233 -76.6267319 18.7497940
152.1406403 -75.7639923 -37.3476410
150.4624786 -75.5354767 -34.8396683
148.8134308 -75.3358307 -32.5833359
69.0525360 -76.9188919 -35.4648705
67.8687820 -77.1219635 -37.3236465
-92.2916107 -75.7781754 2.1734149
-93.2913971 -75.5465927 4.6862168
-167.5670776 -75.1203156 21.0288200
152.0289764 -74.4281845 -36.7740517
69.0218277 -75.5941849 -35.0644913
67.8356476 -75.7882690 -36.8631058
-92.1874847 -74.4210358 3.1633935
-93.1956482 -74.2025375 5.5808773
-167.4407043 -73.8073730 21.7136784
151.9393158 -73.1117401 -36.3276024
69.0045547 -74.2704926 -34.7024841
67.7936859 -74.4671783 -36.5011063
-92.1101990 -73.0709991 4.0746946
-93.1169891 -72.8694077 6.3735957
-167.3338470 -72.5018311 22.3232059
-168.8603821 -72.6594696 20.9467010
-170.3596039 -72.8248672 19.4982071
151.8639984 -71.8038330 -35.9526901
71.3874207 -72.6230469 -31.2772827
70.1695099 -72.7880859 -32.7975655
68.9785080 -72.9600525 -34.4258957
67.7562714 -73.1549149 -36.2296143
-91.0081787 -71.9793854 2.2137704
-92.0280762 -71.7432938 4.8275547
-93.0503082 -71.5486908 7.0613108
-170.2241211 -71.5101318 20.1384487
-171.7682343 -71.6954193 18.6142426
151.8243713 -70.5077209 -35.6768570
71.3679810 -71.3254929 -31.0810928
70.1620712 -71.4844971 -32.5752983
68.9546814 -71.6579590 -34.2251663
67.7689590 -71.8420715 -36.0035706
-90.9471893 -70.6388702 3.0105424
-91.9583130 -70.4267883 5.4854898
-92.9889908 -70.2407303 7.6560488
-170.1306763 -70.2105026 20.6781044
151.7908478 -69.2166901 -35.4753952
71.3476105 -70.0351181 -30.9530392
70.1439743 -70.1902618 -32.4343796
-89.8748703 -69.5644684 0.9178823
-90.8691483 -69.3237152 3.6509924
-170.0376892 -68.9181442 21.1580696
-171.5476990 -69.0807648 19.7047195
151.7725830 -67.9366455 -35.3711777
71.3311310 -68.7494507 -30.8768406
70.1232758 -68.9019241 -32.3481216
-89.8214340 -68.2364120 1.5787202
-90.8207397 -68.0092316 4.2534771
-169.9604950 -67.6334076 21.5744362
-171.4490204 -67.7863998 20.1589737
153.4836121 -66.8751373 -37.9715118
151.7470093 -66.6592560 -35.2981300
108.6567688 -65.3221359 -13.1612988
107.3755798 -65.3467255 -13.1904926
71.3239059 -67.4662857 -30.8321438
70.1188889 -67.6139755 -32.2790337
-89.7712784 -66.9235840 2.1611290
-90.7645645 -66.7122192 4.7200394
-169.8851318 -66.3546448 21.9433880
-171.3671112 -66.5010452 20.5451965
-172.9470215 -66.6754913 18.9756985
153.4952850 -65.6024017 -37.9972267
151.7363892 -65.3880997 -35.2957344
108.6388626 -64.0822601 -13.2171688
107.3665314 -64.1031570 -13.2374153
71.3236847 -66.1864777 -30.8218117
70.1101456 -66.3322906 -32.2706604
68.9348984 -66.4924622 -33.9024734
67.7900848 -66.6986237 -36.0332336
-88.7383499 -65.8666458 -0.2792281
-89.7300568 -65.6193237 2.6590922
-90.7311783 -65.4184570 5.1438980
-169.8381042 -65.0824661 22.2333965
-171.3191528 -65.2265778 20.8449097
153.4967346 -64.3330994 -38.0691376
151.7580872 -64.1274567 -35.4107399
116.4183807 -62.7656670 -13.7296963
115.1022034 -62.7720718 -13.5864763
113.8108215 -62.7788086 -13.4469929
112.4860611 -62.7868004 -13.2966061
68.9301605 -65.2132416 -33.9460144
67.7790451 -65.4121323 -36.0400085
-88.6953278 -64.5619507 0.1912470
-169.8089905 -63.8205338 22.4597950
-171.2657471 -63.9566727 21.1092262
151.7641907 -62.8684883 -35.5545311
116.4080505 -61.5287857 -13.8360071
115.1320038 -61.5404320 -13.7396555
113.7970581 -61.5412788 -13.5448503
112.5150528 -61.5495300 -13.4373369
68.9247513 -63.9377975 -34.0406494
67.7571106 -64.1307526 -36.1013031
-88.6636353 -63.2683868 0.5503187
-169.7565613 -62.5564041 22.6699562
-171.2300720 -62.6930008 21.3123646
-172.7786865 -62.8480377 19.7886238
151.7713928 -61.6140556 -35.7518311
68.9309692 -62.6637077 -34.1504288
67.7829895 -62.8418541 -36.0949326
-88.6258087 -61.9888458 0.7778622
-130.6717224 -59.7348175 34.8955040
-131.8663177 -59.7358665 35.0208740
-133.1047058 -59.7479019 35.1174088
-134.3048706 -59.7576561 35.1872482
-135.5153198 -59.7703857 35.2207985
-136.7620239 -59.7920532 35.2196770
-172.7236938 -61.5804443 19.9749794
151.8203735 -60.3700752 -36.0864487
68.9325943 -61.3947830 -34.3246307
67.7542572 -61.5662766 -36.2094841
-88.6070404 -60.7123413 0.9523962
-130.6534119 -58.5078812 34.9230042
-131.8587952 -58.5140610 35.0509644
-133.0944214 -58.5249825 35.1470718
-134.3096924 -58.5390282 35.2018738
-135.5276642 -58.5523148 35.2231979
-136.7461700 -58.5692863 35.2374153
-172.7106781 -60.3233376 20.0941563
151.8782043 -59.1296120 -36.4968338
68.9222641 -60.1301575 -34.5672836
67.7935181 -60.2768097 -36.2319717
-88.6129913 -59.4409943 1.0758865
-130.6519470 -57.2913933 34.9132957
-135.5364075 -57.3355713 35.2126923
-136.7474823 -57.3481178 35.2425652
-172.7180176 -59.0724182 20.1409111
153.6875610 -58.0880470 -39.7593994
151.9068451 -57.8934021 -36.9246140
68.9177856 -58.8659248 -34.8490868
-87.6219177 -58.4131470 -2.0128496
-88.6051712 -58.1794853 1.0907590
-130.6689758 -56.0758324 34.8706017
-131.8814697 -56.0812416 35.0127678
-136.7392273 -56.1317749 35.2085037
-172.7085571 -57.8230743 20.1534977
151.9976807 -56.6618080 -37.4942894
150.3378906 -56.4954262 -35.0676193
148.7278290 -56.3494949 -32.9405518
68.9419174 -57.6076088 -35.1828804
-133.0983276 -54.8771896 35.0301208
-134.3240662 -54.8893700 35.0824280
-135.5570068 -54.9045067 35.1135902
-136.7465820 -54.9177742 35.1413460
-172.7159729 -56.5791359 20.1022854
152.0950012 -55.4331970 -38.1351929
150.4221802 -55.2682800 -35.6635094
148.7776031 -55.1212616 -33.4365540
68.9692459 -56.3539124 -35.5823669
67.7496872 -56.5031013 -37.3497086
-133.1273499 -53.6668015 34.9194145
-134.3083649 -53.6773643 34.9868507
-135.5648193 -53.6910858 35.0286713
-136.7805176 -53.7061348 35.0449677
-172.7416687 -55.3404770 19.9859753
150.5098724 -54.0446510 -36.3150482
148.8819427 -53.8960800 -34.0705376
68.9975281 -55.1022606 -36.0322418
67.7829590 -55.2517052 -37.8377419
-87.6575012 -54.6418533 -2.3222134
-88.6495209 -54.4236336 0.7687672
-172.7451477 -54.1032867 19.8476219
152.3371277 -52.9850502 -39.6795044
150.5836487 -52.8257713 -37.0068398
148.9599762 -52.6755638 -34.7305374
69.0248260 -53.8528290 -36.5477295
67.8136292 -54.0019913 -38.3844299
-87.6768951 -53.4008369 -2.6689844
-88.6807404 -53.1825104 0.5100391
-172.7911530 -52.8722916 19.6254520
150.6851654 -51.6103668 -37.8155975
149.0381317 -51.4600563 -35.4568939
114.0176926 -50.5086937 -16.0163803
112.7082138 -50.5124893 -15.8741608
69.0447388 -52.6080246 -37.1451416
67.8564148 -52.7555046 -38.9675751
-88.7165604 -51.9474258 0.1591312
-172.8423767 -51.6442795 19.3514805
150.8435364 -50.3939438 -38.7816315
149.1610413 -50.2463379 -36.3271408
114.0446472 -49.2821274 -16.4200401
112.7416458 -49.2967072 -16.2862225
69.0787125 -51.3631058 -37.7877960
67.8919678 -51.5115967 -39.6356468
-88.7456665 -50.7177086 -0.2844034
-172.8907471 -50.4184837 19.0444412
151.0418549 -49.1819992 -39.8822403
149.2547607 -49.0393982 -37.2085190
147.6526031 -48.9049530 -35.0617294
146.0523682 -48.7919998 -33.1229172
69.1370392 -50.1248741 -38.4642372
67.9284286 -50.2722855 -40.4085693
66.7022934 -50.4221420 -42.5406113
-88.8026810 -49.4907532 -0.7839235
-89.7902985 -49.3090439 2.0205057
-90.8076935 -49.1495934 4.4895177
-169.9336700 -48.9562988 21.5860939
-171.4382629 -49.0712776 20.1888351
-172.9657898 -49.1933746 18.6752701
149.4570618 -47.8209076 -38.2888489
147.7858582 -47.6969223 -36.0337448
146.1822205 -47.5809441 -34.0226974
69.1583252 -48.8872604 -39.2869797
67.9659348 -49.0358505 -41.2595596
-89.8446198 -48.0881882 1.4747772
-90.8606796 -47.9277763 4.0035515
-170.0123291 -47.7394829 21.1815872
-171.5213165 -47.8541641 19.7654800
147.9241638 -46.4949760 -37.0717888
146.2975616 -46.3757782 -34.9773178
71.6131744 -47.3902664 -36.6058769
70.4053192 -47.5157166 -38.2981567
69.2137299 -47.6533737 -40.1362114
68.0250397 -47.8006058 -42.1542358
-89.9105759 -46.8704948 0.8500832
-90.9144821 -46.7085228 3.4305043
-170.0905762 -46.5245399 20.7353344
-171.5921783 -46.6365433 19.3140869
148.0859985 -45.2943001 -38.2339478
146.4327698 -45.1756363 -36.0436249
71.6508560 -46.1559410 -37.4677353
70.4570389 -46.2833252 -39.1827393
69.2655106 -46.4199944 -41.0719566
-88.9627991 -45.8340912 -2.9277983
-89.9878845 -45.6565933 0.1691047
-90.9879150 -45.4957619 2.8097124
-170.1657715 -45.3124619 20.2494431
-171.6909485 -45.4236031 18.7903824
148.2585449 -44.0956497 -39.5514107
146.5787048 -43.9788437 -37.2149391
71.7188034 -44.9281769 -38.3679428
70.5314560 -45.0568008 -40.1276932
-90.0653305 -44.4472466 -0.6235488
-91.0695038 -44.2848816 2.0892181
-170.2742920 -44.1023331 19.6803188
-171.8080444 -44.2116203 18.1908360
146.7590027 -42.7860031 -38.5409126
71.7631149 -43.6953850 -39.4027328
70.5839539 -43.8266754 -41.2226868
-91.1470718 -43.0797386 1.2557769
-170.3834381 -42.8943405 19.0555534
146.9866638 -41.5880814 -40.0536652
145.3571320 -41.4783707 -37.8212013
143.7615662 -41.3789139 -35.8280640
71.8448181 -42.4754486 -40.4714699
70.6587830 -42.6026688 -42.3751678
-90.2009430 -42.0236855 -2.5675716
-91.2385406 -41.8772659 0.3398335
-92.2544708 -41.7328033 2.8820863
-93.2676392 -41.6062241 5.0800638
-170.5071564 -41.6900177 18.3632469
-172.0907288 -41.7932014 16.7801609
145.5561218 -40.2896729 -39.3210869
143.9613647 -40.1822662 -37.2360382
71.9306488 -41.2539063 -41.6575317
-91.3257751 -40.6727676 -0.7054040
-92.3486938 -40.5324364 1.9464331
-93.3640289 -40.4030838 4.2471399
-170.6454773 -40.4868240 17.6066914
145.8148651 -39.0985603 -41.0462685
144.1384888 -39.0001450 -38.7189369
142.5723877 -38.8942795 -36.7948608
141.0267029 -38.8064575 -35.0879211
74.3849030 -39.7997627 -39.4109077
73.1971054 -39.9135971 -41.0991364
71.9929123 -40.0300789 -43.0196609
-92.4573669 -39.3366051 0.9538324
-93.4550400 -39.2045517 3.2963057
-167.7823486 -39.0884399 19.5970860
-169.2834167 -39.1841660 18.2501106
-170.7984467 -39.2836342 16.7830925
144.3983154 -37.7934189 -40.4168167
142.7306824 -37.7146606 -38.2668571
141.1848755 -37.6231689 -36.4620552
74.4715118 -38.5823288 -40.6946716
73.2720718 -38.6992722 -42.4856606
-92.5635147 -38.1377716 -0.2429240
-93.5640869 -38.0085449 2.2463155
-167.9242401 -37.8884010 18.7788715
-169.4309387 -37.9820633 17.3910522
142.9664917 -36.5265274 -39.9965172
141.4004211 -36.4349594 -38.0627022
76.9592896 -37.1654015 -38.8665543
75.7609100 -37.2607498 -40.4153061
74.5750885 -37.3705292 -42.0969200
-92.6859283 -36.9452744 -1.5637213
-93.6857681 -36.8176193 1.0851388
-94.7139664 -36.6974869 3.4360142
-95.7605438 -36.5912781 5.5008960
-168.1036835 -36.6919556 17.8654995
141.6034088 -35.2503128 -39.7697296
77.0570908 -35.9448547 -40.2548714
-93.8008652 -35.6153870 -0.1969109
-94.8424988 -35.5083923 2.2597795
-95.8795242 -35.3982277 4.4174423
-168.2683563 -35.4970932 16.8893089
141.8951111 -34.0430756 -41.7272644
140.3045044 -33.9860153 -39.8040810
138.7817688 -33.9031067 -38.0935478
77.1636658 -34.7316360 -41.7593193
-94.9788742 -34.3183746 0.9484047
-96.0046997 -34.2060318 3.2104924
-165.4793091 -34.1318893 18.4768925
-166.9647522 -34.2133942 17.2085133
-168.4595947 -34.3029823 15.8150625
140.5874023 -32.8025627 -41.8744354
138.9944305 -32.7340546 -39.9275017
77.2779541 -33.5252533 -43.4508018
-95.1072540 -33.1203499 -0.5275452
-96.1613846 -33.0264893 1.9452782
-165.6543274 -32.9424744 17.4399376
-167.1645203 -33.0221634 16.0991211
140.9264832 -31.6128387 -44.2798691
139.2693939 -31.5555172 -42.0914536
137.6581421 -31.4762592 -40.1314011
136.1399841 -31.3997726 -38.5232201
82.2158813 -31.9668236 -39.1671371
80.9983597 -32.0445824 -40.4854660
