-111.7797852 -43.8235474 3.2128239
-153.5422363 -43.8099976 11.1970158
-156.2503357 -43.9177322 10.0266171
-159.0151215 -44.0419159 8.5593557
121.0426941 -41.8550720 -50.2307434
118.2276154 -41.7987823 -48.8407059
115.4581451 -41.7690506 -47.8478241
112.7217789 -41.7620544 -47.1792755
110.0360336 -41.7661362 -46.7653008
107.3588943 -41.7891769 -46.6461487
104.7275772 -41.8294220 -46.7316666
102.0998993 -41.8779144 -47.1230583
99.5013504 -41.9451141 -47.7268944
96.9273376 -42.0277023 -48.6024590
94.3712845 -42.1261826 -49.7679443
91.8391113 -42.2431335 -51.2357712
-107.6608276 -41.7518005 -5.0786505
-109.8652649 -41.5953827 -2.1052034
-112.1058350 -41.4737091 0.3984386
-114.3900452 -41.3721161 2.5264239
-116.6916046 -41.2877998 4.3561935
-119.0197449 -41.2211227 5.9402032
-121.3640900 -41.1677246 7.2954984
-153.9611816 -41.4592934 8.5951881
-156.7026520 -41.5689735 7.2872286
-159.5069733 -41.6995163 5.6325989
115.9876556 -39.4658356 -52.7993164
113.2106476 -39.4374237 -51.8956070
110.5034409 -39.4327354 -51.3408432
107.8037109 -39.4528732 -51.1446838
105.1578522 -39.4854393 -51.2230072
102.5172806 -39.5364609 -51.6279221
99.9251099 -39.6041412 -52.3032150
97.3436813 -39.6928329 -53.3220749
-110.2909088 -39.2785034 -5.7911558
-112.5083618 -39.1370697 -2.9586530
-114.7665634 -39.0294838 -0.6007308
-117.0521164 -38.9394836 1.4044483
-119.3739929 -38.8693161 3.1147726
-121.7163391 -38.8102455 4.5576162
-154.4493408 -39.1164017 5.5585675
-157.2364655 -39.2317009 4.0380802
-115.2213364 -36.7032509 -4.3675289
-117.4828949 -36.6043396 -2.1179683
-119.7960052 -36.5247803 -0.2352034
-122.1252594 -36.4687195 1.3626058
-124.4852905 -36.4214554 2.6837564
-126.8791504 -36.3874016 3.7724831
-144.3042603 -36.4698715 5.7229557
-146.9181671 -36.5265579 5.1680803
-149.5719910 -36.5964622 4.3871517
-152.2820129 -36.6818085 3.3079524
-155.0375366 -36.7888222 1.8987428
-118.0266647 -34.3027573 -6.4548774
-120.3019104 -34.2039719 -4.2845640
-122.6172028 -34.1399384 -2.4696298
-124.9724350 -34.0850601 -1.0152010
-127.3582306 -34.0507050 0.1865599
-144.8591614 -34.1341324 2.0873284
-147.4992981 -34.1953888 1.4016514
-150.1894684 -34.2731323 0.4266465
-123.2449875 -31.8450089 -7.3495903
-125.5816650 -31.7773476 -5.6097546
-127.9401321 -31.7340889 -4.2183037
-130.3504028 -31.7021275 -3.1598363
-132.7880096 -31.6925316 -2.3694823
-135.2712860 -31.6882610 -1.8704332
-137.7765808 -31.7037163 -1.6077886
-140.3179016 -31.7295265 -1.5951844
-142.9079132 -31.7658291 -1.8757008
-145.5336151 -31.8233871 -2.4252963
-133.5476227 -29.4158936 -7.8914084
-136.0233765 -29.4129620 -7.2990341
112.9507828 -131.0074463 -50.2187500
111.6033325 -130.9737549 -49.9388466
110.2419434 -130.9718628 -49.7481003
108.9032135 -130.9923706 -49.6765785
107.5682602 -131.0405273 -49.7466583
103.6448975 -131.2527313 -50.5703583
102.3570251 -131.3800354 -51.0607910
101.0787354 -131.5445557 -51.7189789
119.5629578 -129.4630585 -49.6424751
118.1222382 -129.3481598 -48.7845154
116.7223969 -129.2731171 -48.0575562
115.3300018 -129.2094116 -47.4822083
113.9495010 -129.1580963 -47.0253143
112.5774231 -129.1393280 -46.6835289
111.2268982 -129.1462402 -46.4657936
109.8978043 -129.1565857 -46.3313179
108.5626144 -129.1855621 -46.2969704
107.2297058 -129.2243652 -46.3312683
105.9133759 -129.2659607 -46.4334183
104.6096878 -129.3362732 -46.6933136
103.3098984 -129.4226074 -47.0812721
102.0354767 -129.5134583 -47.5275955
100.7423782 -129.6311035 -48.0941696
99.4643784 -129.7666321 -48.7076302
98.2077560 -129.9369507 -49.4398918
96.9508743 -130.1373596 -50.4027748
95.7149734 -130.3348389 -51.4908829
123.5243073 -128.0545502 -49.3654289
122.0570145 -127.8658905 -48.1203117
120.5921173 -127.7237167 -47.0781212
119.1637573 -127.6198273 -46.2126083
117.7543488 -127.5475845 -45.5134048
95.4114990 -128.4556580 -48.0711899
124.5880890 -126.3630447 -47.2011642
123.1315536 -126.2207718 -46.0612221
121.6865540 -126.0865936 -45.0326004
120.2811584 -126.0035782 -44.2129250
118.8662872 -125.9321442 -43.5173798
117.4719849 -125.8786316 -42.9456558
95.1612701 -126.7580261 -45.3609238
93.9154510 -126.9046631 -46.2477837
92.6743317 -127.0916901 -47.2818222
91.4326172 -127.3003159 -48.3978043
90.1917343 -127.5745392 -49.6849556
128.7309875 -125.1832809 -48.3710175
127.2062988 -124.9525909 -46.8029289
125.7127228 -124.7732697 -45.4765244
124.2425766 -124.6287689 -44.3334808
122.8251877 -124.5332031 -43.4049339
89.9838333 -125.8000183 -46.9308968
-135.3442688 -124.7124023 -6.2071514
129.8943787 -123.6370544 -46.9748650
128.3612061 -123.4149857 -45.4400978
126.8985519 -123.2571564 -44.1473122
125.4287567 -123.1284332 -43.0174408
123.9838181 -123.0172043 -42.0558510
122.5554352 -122.9077454 -41.2016563
89.7765350 -124.1712189 -44.6213074
88.5430450 -124.3656235 -45.7431335
-128.6616821 -122.9629135 -4.2425919
-129.8340759 -122.8906250 -3.5014844
-131.0296631 -122.8062515 -2.9093654
-132.2419586 -122.7441406 -2.3932831
-133.4698944 -122.7096024 -2.0252531
-134.7022705 -122.6977081 -1.7489874
-135.9430847 -122.6961365 -1.5273721
-137.2082214 -122.7112808 -1.4334087
-142.4190674 -122.9743958 -2.1440966
-143.7812195 -123.0934372 -2.6298094
131.0513000 -122.1313858 -45.8394699
129.5444031 -121.9374771 -44.3415413
128.0645752 -121.7730789 -43.0361099
89.6037445 -122.5687256 -42.5864487
88.3589325 -122.7521286 -43.6228523
87.1267395 -122.9513168 -44.7851295
85.9182587 -123.1590195 -46.0624847
84.6867828 -123.4169617 -47.5015182
-123.5653763 -121.6113281 -4.3913765
-124.6988754 -121.4343643 -3.2504911
-125.8328552 -121.3071747 -2.2469070
-126.9980087 -121.2130356 -1.3965149
-128.1667175 -121.1368637 -0.6889629
-136.7159576 -120.9501801 1.8370821
-137.9922485 -120.9839478 1.8627977
-139.2700195 -121.0133896 1.8053517
-140.5708466 -121.0639954 1.6281502
-141.8791199 -121.1188354 1.3833643
-143.2034912 -121.1903000 1.0443139
-144.5520477 -121.3069000 0.5894122
133.8409271 -120.9287109 -46.8193970
132.2750549 -120.6763000 -44.9944572
130.7516327 -120.4834061 -43.4565201
129.2734222 -120.3399811 -42.1793823
127.8211975 -120.2105026 -41.0413818
89.4433212 -121.0267868 -40.8596191
88.1960678 -121.2045441 -41.8351021
86.9621277 -121.3792191 -42.8842163
85.7338409 -121.5828247 -44.0596542
84.5193481 -121.7879181 -45.3405991
83.3004990 -122.0336075 -46.7922440
-120.8771973 -120.0991440 -3.3451080
-121.9953156 -119.9390793 -2.1323442
-123.1276245 -119.8157654 -1.0738266
-124.2657547 -119.6901932 -0.0915560
-125.4208603 -119.6063309 0.7301397
-126.6027679 -119.5199890 1.4754232
-127.7828827 -119.4446411 2.1301379
-136.3439789 -119.2960739 4.4408298
-137.6147156 -119.3212814 4.4849072
-138.8815002 -119.3472519 4.4689665
-140.1547546 -119.3827362 4.3725615
-141.4515991 -119.4419937 4.1738892
-142.7732544 -119.5097809 3.8895273
-144.1017151 -119.5878601 3.5207279
-145.4378967 -119.6786957 3.0679133
-146.7952423 -119.7973251 2.4916210
-148.1771698 -119.9465790 1.8358955
133.5352478 -119.2815094 -44.4088516
84.3614120 -120.2141266 -43.4469490
83.1383057 -120.4448013 -44.7983017
81.9230347 -120.6965027 -46.2959366
80.7051392 -120.9894180 -47.8867798
-117.1846466 -118.9188385 -4.4639754
-118.2704010 -118.7005005 -2.9221859
-119.3760300 -118.5338287 -1.5894325
-120.4952850 -118.3884125 -0.3970149
-146.3781128 -118.1325226 5.1345549
-147.7204742 -118.2293854 4.5960140
-149.1144867 -118.3694534 3.8974180
136.3450623 -118.1422424 -45.8058815
134.7913666 -117.8953705 -43.9612198
133.2886963 -117.7155762 -42.4017944
84.2148743 -118.6967163 -41.8172607
82.9899979 -118.8982239 -43.0487900
81.7713394 -119.1212311 -44.4179878
80.5620193 -119.3620300 -45.8655510
-114.6435547 -117.6202850 -4.6866269
-115.7286606 -117.3783569 -2.9632735
-116.8118591 -117.1929779 -1.4913063
-117.9105759 -117.0363541 -0.2007506
-119.0370178 -116.8845596 0.9847227
-120.1772842 -116.7589264 2.0413132
-146.0333405 -116.5463486 7.3540225
-147.3734436 -116.6402283 6.8772726
-148.7394562 -116.7531967 6.3123803
-150.1001587 -116.8793030 5.6675763
-151.4964447 -117.0179596 4.8811297
-152.8969269 -117.1772308 4.0013762
136.0540466 -116.5423584 -43.6737213
81.6384888 -117.5969620 -42.7789993
80.4287567 -117.8129807 -44.1543503
79.2040558 -118.0711060 -45.6774864
-112.1890717 -116.3964539 -5.3996825
-113.2366257 -116.1435852 -3.5345449
-114.2959290 -115.9192047 -1.8610383
-115.3926697 -115.7323074 -0.3754753
-151.1147919 -115.4132233 7.1430211
-152.5132141 -115.5543365 6.3590307
-153.9373627 -115.7183533 5.4476042
-155.3981476 -115.9229279 4.3952932
137.3862915 -115.2160568 -43.6129570
135.7946777 -114.9944305 -41.8203316
81.5236511 -116.0906525 -41.3238068
80.3056870 -116.3037415 -42.6264038
79.0857773 -116.5285263 -44.0524864
77.8664246 -116.7891846 -45.6096191
-110.8032303 -114.9471588 -4.4862185
-111.8483429 -114.7110291 -2.6363437
-112.9255524 -114.5131836 -1.0072176
-114.0120087 -114.3147507 0.4760956
-115.1317596 -114.1546707 1.7927442
-150.8177032 -113.8794632 9.0486631
-152.1935425 -114.0001373 8.3717604
-153.6025391 -114.1434174 7.5656710
-155.0125732 -114.2972107 6.6627216
-156.4451447 -114.4930725 5.6555343
140.3356628 -114.1983185 -45.8889999
138.7405701 -113.9295197 -43.7763214
137.1417694 -113.6854935 -41.8683205
135.5952606 -113.4937057 -40.2589989
78.9765549 -115.0276489 -42.5798950
77.7611084 -115.2662048 -44.0654259
76.5465317 -115.5168915 -45.6848679
75.3497238 -115.8035812 -47.4856682
-109.4429626 -113.5614929 -3.8481531
-110.4963760 -113.3153000 -1.9599488
-156.0926208 -112.9112854 7.6999969
-157.5243225 -113.0966034 6.6759415
140.0745850 -112.6348267 -43.9961739
138.5221252 -112.4144135 -42.1012878
136.9315338 -112.1947708 -40.3544464
135.4100189 -112.0256424 -38.8813477
78.8595657 -113.5616150 -41.2900658
77.6527328 -113.7716827 -42.6638451
76.4321213 -114.0106735 -44.2024841
75.2309036 -114.2775955 -45.9137726
74.0192719 -114.5823669 -47.8249588
-107.0632172 -112.5021210 -5.5810375
-108.1129990 -112.1948318 -3.4075942
-109.1756134 -111.9565430 -1.5186594
-110.2435760 -111.7504044 0.1343866
-155.7938385 -111.3944473 9.4887857
-157.2137909 -111.5536728 8.5453777
-158.6687164 -111.7379990 7.4918294
-160.1803131 -111.9689789 6.2609625
141.4355774 -111.3810272 -44.3874664
139.8364868 -111.1219711 -42.3444939
138.3174744 -110.9290543 -40.6387367
73.9321136 -113.0450287 -46.2396507
72.6859818 -113.3836746 -48.2442398
-105.7789612 -111.1425018 -5.3098974
-106.8035355 -110.8673248 -3.1767478
-107.8587952 -110.6297607 -1.2763003
-158.3490601 -110.2107620 9.2645969
142.8427429 -110.1501770 -44.9851608
141.2164612 -109.8801651 -42.8210907
139.6802521 -109.6703110 -41.0087547
138.1419525 -109.4781036 -39.3701515
73.8293533 -111.5592194 -44.8684158
72.6177826 -111.8461075 -46.7225647
-104.4974747 -109.8501129 -5.3054123
-105.5275421 -109.5444336 -3.0484109
-106.5712128 -109.3083420 -1.1359081
-107.6496658 -109.0980148 0.5737998
-158.0957336 -108.7343903 10.8224964
-159.5463104 -108.9033356 9.7992249
142.6105347 -108.6518478 -43.4645386
141.0224152 -108.4153137 -41.4619064
73.7303925 -110.1043091 -43.6700439
72.5302277 -110.3581009 -45.4066086
-104.2628784 -108.2647400 -3.1528952
-105.2996521 -108.0246582 -1.1822941
-157.8829803 -107.2911072 12.1858025
-159.3277740 -107.4510651 11.2340164
-160.7266235 -107.6060410 10.2352142
-162.1533813 -107.7960052 9.1243954
144.0900116 -107.4704895 -44.3866959
142.4088440 -107.1891861 -42.1201744
140.8504181 -106.9748306 -40.2562332
73.6429138 -108.6637726 -42.5986710
72.4425659 -108.9052811 -44.2483368
71.2237091 -109.1850433 -46.0560074
-101.9932938 -107.3174286 -5.8014665
-103.0146179 -107.0104523 -3.4395499
-104.0580521 -106.7534790 -1.3663350
-105.1208344 -106.5283432 0.4484542
-157.6627655 -105.8632736 13.4380255
-159.0942688 -106.0094070 12.5584545
-160.4808044 -106.1531906 11.6346922
-161.8920746 -106.3167572 10.5947647
-163.3788910 -106.5226746 9.3863869
143.8828735 -106.0001373 -43.0580177
71.1453094 -107.7329102 -44.9702530
69.9364471 -108.0192490 -46.8694305
-101.7898560 -105.7717133 -3.8688216
-102.8253784 -105.5070877 -1.7070094
-163.1315308 -105.0617599 10.7638607
-164.6591492 -105.2766418 9.4649649
145.3718719 -104.8443832 -44.1997375
143.7188416 -104.5694199 -41.9033966
71.0774918 -106.2989883 -43.9574280
69.8595123 -106.5722809 -45.8122826
-100.5712433 -104.5547104 -4.4473867
-101.6058350 -104.2690887 -2.1738267
-102.6588364 -104.0343475 -0.1993808
-162.9214478 -103.6385803 12.0038233
-164.4321899 -103.8280716 10.7708158
-165.9345398 -104.0372925 9.4438820
146.8589935 -103.6955795 -45.4758377
145.1718445 -103.3913879 -42.9799232
143.5833130 -103.1655045 -40.8997917
71.0141983 -104.8818665 -43.0384560
69.8086243 -105.1362686 -44.8142967
68.5773926 -105.4311981 -46.7648125
-99.3811646 -103.3513565 -5.1814294
-100.3998337 -103.0611725 -2.8119013
-165.6842957 -102.5929718 10.7419081
-167.1818390 -102.8115005 9.3781548
146.6725769 -102.2534485 -44.2740440
145.0219727 -101.9788971 -41.9557114
143.4350586 -101.7592697 -39.9871216
70.9542923 -103.4812927 -42.2259750
69.7501907 -103.7255707 -43.9398346
68.5420074 -103.9928894 -45.8301392
67.3116989 -104.2994537 -47.9276123
-99.2047577 -101.8809662 -3.6247354
-100.2484436 -101.6046677 -1.3916280
-165.5096893 -101.1938248 11.8522463
-166.9346466 -101.3745651 10.6201859
-168.4544067 -101.6096802 9.2250032
146.5262451 -100.8365784 -43.2743225
68.4828110 -102.5839996 -44.9978638
67.2659988 -102.8700638 -47.0172844
-98.0427856 -100.6902390 -4.5223441
-99.0694504 -100.4173279 -2.1892309
-100.1092148 -100.1908340 -0.1839769
-168.2312927 -100.1785126 10.3741026
148.0686035 -99.7308655 -44.8182144
146.3889771 -99.4454651 -42.4066734
68.4216003 -101.1964874 -44.2512131
67.2214966 -101.4585648 -46.1730156
-97.8972168 -99.2494583 -3.1662366
-98.9350128 -99.0001526 -0.9980912
-99.9876251 -98.7836914 0.9082164
-168.0477295 -98.7778625 11.4024963
-169.6189728 -99.0116730 9.9306440
147.9021301 -98.3271484 -43.9442825
146.2793274 -98.0765762 -41.6688652
68.3766251 -99.8077240 -43.5597038
67.1714935 -100.0625305 -45.4421692
65.9552689 -100.3542938 -47.5309219
-96.7413483 -98.1036301 -4.3385758
-97.7660828 -97.8341064 -1.9914379
-167.8742218 -97.3946915 12.3442612
-169.4060516 -97.5987015 10.9255753
147.7959290 -96.9550476 -43.2279053
146.1739197 -96.7131042 -41.0113029
68.3301544 -98.4407120 -42.9793091
67.1238556 -98.6883698 -44.8142738
65.9166565 -98.9607544 -46.8468170
-95.5957336 -96.9860840 -5.6788878
-96.6181030 -96.6901245 -3.1724968
-97.6575470 -96.4324951 -0.9377578
-167.7333679 -96.0363159 13.1867580
-169.2443542 -96.2254028 11.8415012
149.4220581 -95.8787537 -45.1065483
147.6958008 -95.5935211 -42.5797386
146.1121063 -95.3730698 -40.4779091
65.8820038 -97.5814056 -46.2341309
64.6593857 -97.8788376 -48.4314880
-95.4850922 -95.5589142 -4.5048308
-167.5740051 -94.6736603 13.9771547
-169.0842285 -94.8598557 12.6795568
149.2982483 -94.5103683 -44.4702301
147.6144867 -94.2475281 -42.0417252
146.0270233 -94.0329742 -39.9942322
65.8395081 -96.2161255 -45.6985550
-94.3594284 -94.4597321 -6.0460978
-95.3739929 -94.1662369 -3.5029864
-167.4508667 -93.3368378 14.6518173
-168.9593353 -93.5154114 13.3926868
149.2166595 -93.1658325 -43.9786072
65.7906494 -94.8663788 -45.2591858
-93.2534027 -93.3874664 -7.8868356
-94.2696533 -93.0577774 -5.0558691
-95.2818222 -92.7959366 -2.6301179
-167.3529358 -92.0079117 15.2497549
-168.8490601 -92.1788406 14.0340958
-170.3911438 -92.3719177 12.6637554
149.1378174 -91.8289261 -43.5422516
65.7612457 -93.5167236 -44.8507805
-93.1615906 -91.9884872 -6.8855572
-94.1772003 -91.6859894 -4.1907830
-95.2156219 -91.4260864 -1.8233215
-167.2575378 -90.6861115 15.7934999
-168.7514038 -90.8517456 14.6069794
-170.2689056 -91.0341034 13.2961864
-171.7568207 -91.2221985 11.9053955
149.0823517 -90.5103455 -43.2148972
68.1584091 -91.7403870 -41.1002960
66.9569092 -91.9496536 -42.7444534
65.7278595 -92.1851425 -44.5568085
-93.0544586 -90.6214752 -6.0209355
-170.1719055 -89.7115097 13.8449936
-171.6603394 -89.8939438 12.4871216
-173.1535950 -90.0928421 11.0309544
150.7833252 -89.4705124 -45.5654182
149.0555115 -89.2036057 -42.9941254
68.1451111 -90.4202347 -40.8945274
66.9305801 -90.6299973 -42.5451660
65.7116089 -90.8559723 -44.3108063
-91.9833908 -89.5640945 -8.1299191
-93.0095978 -89.2480087 -5.2461238
-170.0843506 -88.3972244 14.3302279
-171.5536804 -88.5713806 13.0203495
-173.0570679 -88.7657089 11.5772514
68.1447830 -89.1044693 -40.7214165
66.9131012 -89.3144684 -42.3772354
-91.9488449 -88.1959839 -7.3823171
-92.9498901 -87.8987122 -4.5846810
-172.9570618 -87.4458466 12.0608063
-174.5519409 -87.6660919 10.4750366
68.1153107 -87.8034668 -40.6436577
66.9007339 -88.0032959 -42.2486382
-91.8745041 -86.8518982 -6.7464094
-92.8900299 -86.5665283 -4.0280328
-172.8959198 -86.1431732 12.4518242
150.7016602 -85.5668640 -45.1828995
148.9662323 -85.3156509 -42.6455307
68.1107635 -86.5021591 -40.5816765
66.8936310 -86.6977386 -42.1721420
-91.8341522 -85.5123291 -6.1664953
-92.8439941 -85.2437439 -3.5513494
-172.8199615 -84.8402710 12.8161192
-174.3867188 -85.0416946 11.2692451
150.6617126 -84.2818375 -45.1988144
148.9565430 -84.0357666 -42.6717377
68.1122894 -85.2074661 -40.5753937
66.8862686 -85.4014969 -42.1690063
-90.8038559 -84.4907379 -8.6399832
-91.7824554 -84.1912537 -5.7217064
-92.8013687 -83.9331894 -3.1782475
-172.7630310 -83.5488892 13.1137266
-174.2993927 -83.7393265 11.5989742
150.6592712 -83.0059967 -45.3052559
148.9763031 -82.7660217 -42.7898178
110.9404449 -81.1688690 -21.7961407
109.6619720 -81.1893616 -21.7832775
68.1038361 -83.9204865 -40.6403961
66.8754196 -84.1112366 -42.2264404
-90.7581863 -83.1701813 -8.2368670
-172.7245331 -82.2650146 13.3433762
-174.2687225 -82.4535828 11.8308401
-175.8932800 -82.6674347 10.1399469
150.7108765 -81.7385559 -45.4873924
148.9649353 -81.4961548 -42.9123573
110.9585114 -79.9252472 -21.9343910
109.6393204 -79.9389648 -21.8559799
68.0859985 -82.6389389 -40.7556534
66.8764801 -82.8235168 -42.3104248
-90.7182159 -81.8569336 -7.8735409
-172.6935730 -80.9880981 13.5177612
-174.2178497 -81.1680450 12.0430222
-175.8303070 -81.3744736 10.3828068
150.7341766 -80.4754105 -45.7193413
148.9982452 -80.2385941 -43.1617546
103.1923981 -78.8202362 -22.1553879
101.9098358 -78.8546295 -22.2906246
100.6276398 -78.8899841 -22.4277954
99.3610764 -78.9282913 -22.6071320
68.1134949 -81.3543854 -40.8513031
66.8736877 -81.5406342 -42.4432678
-90.6790924 -80.5607681 -7.6499991
-175.7919006 -80.0914230 10.5624008
150.7562256 -79.2230225 -46.0527115
149.0216827 -78.9866180 -43.4607086
103.1996689 -77.5779724 -22.3731995
101.9070511 -77.6199875 -22.5364685
100.6401672 -77.6475067 -22.6279945
99.3526840 -77.6871490 -22.8119850
68.1006317 -80.0819168 -41.0649490
66.8594437 -80.2641068 -42.6512222
-90.6694641 -79.2651749 -7.4519114
-175.7685852 -78.8174820 10.6664705
150.8222656 -77.9775391 -46.4909859
149.0752563 -77.7416229 -43.8464241
68.1130447 -78.8110657 -41.3002396
66.8738022 -78.9900360 -42.8780899
-90.6687698 -77.9808350 -7.3514142
-175.7647552 -77.5505066 10.7045164
149.1304474 -76.5019226 -44.2985115
68.1292038 -77.5451279 -41.5775909
66.8828125 -77.7224503 -43.1789398
-90.6541290 -76.7102661 -7.3837647
-175.7530518 -76.2872620 10.7035370
149.1923828 -75.2660141 -44.8116570
68.1297913 -76.2833252 -41.9406052
66.8982849 -76.4591599 -43.5405273
-90.6770172 -75.4435272 -7.4541640
-175.7692719 -75.0324860 10.6255836
149.2708893 -74.0351715 -45.3969574
68.1633148 -75.0235825 -42.3075714
66.9377823 -75.2001877 -43.9249458
65.7044373 -75.3872833 -45.6885643
-90.7027664 -74.1828842 -7.5841241
-175.7902679 -73.7822571 10.4971695
149.3872223 -72.8199768 -46.1807518
147.6686859 -72.6178970 -43.7227478
146.1066895 -72.4435196 -41.7016029
65.7533646 -74.1336212 -46.1609421
-90.7236938 -72.9288025 -7.7852383
-172.7085571 -72.1988983 13.3557997
-174.2423096 -72.3614578 11.9041758
-175.8170471 -72.5365295 10.3210182
149.4942322 -71.6045837 -46.9780655
147.7688293 -71.3993530 -44.4479523
146.1784515 -71.2229919 -42.3499374
65.7619247 -72.8855743 -46.7527466
64.5387268 -73.0845871 -48.7230911
-90.7542801 -71.6826019 -8.0762005
-172.7510376 -70.9634399 13.1230946
-174.2557526 -71.1212387 11.7000828
-175.8334656 -71.2944794 10.1051979
147.8916931 -70.1866379 -45.2754974
146.2705078 -70.0085983 -43.0950317
65.8115311 -71.6390686 -47.3376389
64.5690460 -71.8377991 -49.3767014
-90.7882767 -70.4464417 -8.4754534
-172.8116913 -69.7323303 12.8324528
-174.3362579 -69.8903656 11.3834972
147.9968262 -68.9849701 -46.1827164
146.3879089 -68.7999268 -43.9367943
65.8401031 -70.3953400 -48.0257492
-90.8268127 -69.2117996 -8.9299641
-172.8527374 -68.5028687 12.5232916
-174.3771667 -68.6595764 11.0645161
148.1177673 -67.7877884 -47.1807098
146.4838562 -67.5979538 -44.8232269
65.8788910 -69.1574860 -48.7783394
64.6428833 -69.3561172 -50.9279823
-90.8679657 -67.9804153 -9.4277868
-91.8962173 -67.7461777 -6.6095428
-92.9057999 -67.5391388 -4.1623378
-172.9179077 -67.2790527 12.1527357
-174.4615021 -67.4353638 10.6580458
-176.0550995 -67.6025391 9.0156498
148.2950745 -66.5897446 -48.3445091
146.6074829 -66.3999557 -45.8464088
65.9263153 -67.9221802 -49.5943298
-90.9105835 -66.7609711 -10.1118765
-91.9485474 -66.5272369 -7.2073574
-92.9657059 -66.3165512 -4.6726656
-173.0068512 -66.0590668 11.7096920
-174.5400696 -66.2140884 10.2111187
146.7674561 -65.2174606 -47.0115433
145.1431427 -65.0360336 -44.7534218
143.5284424 -64.8897247 -42.7609024
68.3833923 -66.3250809 -46.6695099
67.1713791 -66.5035477 -48.5082626
65.9666977 -66.6945801 -50.5193062
-92.0084534 -65.3116684 -7.8628697
-93.0388489 -65.0991211 -5.2447658
-173.0956421 -64.8426819 11.2146025
-174.6322784 -64.9963989 9.7004023
146.9571075 -64.0227356 -48.3012466
145.2930298 -63.8508568 -45.9170456
143.6666870 -63.6966209 -43.8263016
68.4392395 -65.0973358 -47.5541916
67.2200775 -65.2787704 -49.4727936
-92.0742111 -64.0994949 -8.5836973
-93.1007233 -63.8895111 -5.9389935
-173.1826477 -63.6326675 10.6727066
145.4607239 -62.6641693 -47.1891212
143.8216248 -62.5063477 -45.0092506
68.4991760 -63.8781815 -48.5326195
67.2799225 -64.0569611 -50.5060425
-92.1306000 -62.8892136 -9.4377861
-93.1816559 -62.6843414 -6.6898060
-173.3047333 -62.4229202 10.0402431
-174.8796082 -62.5698662 8.4692049
145.6559753 -61.4857063 -48.6028900
143.9956207 -61.3290291 -46.3017998
68.5556793 -62.6593895 -49.6231270
-92.2146072 -61.6872063 -10.3834820
-93.2740784 -61.4820099 -7.5375319
-173.4370270 -61.2190208 9.3500729
144.1665497 -60.1472702 -47.6666565
142.5370331 -59.9988289 -45.5703430
140.9761353 -59.8710022 -43.7377090
71.0314789 -61.1195641 -47.1992073
69.8297119 -61.2759285 -48.9012718
68.6332169 -61.4449501 -50.7737465
-93.3746796 -60.2888184 -8.4835510
-94.3744354 -60.0971451 -6.0040584
-95.4121323 -59.9272690 -3.7498116
-170.5225677 -59.7434616 11.4623690
-172.0290222 -59.8740158 10.1091957
-173.5439453 -60.0170135 8.6371746
142.7334137 -58.8237839 -47.0352669
141.1548157 -58.6876411 -45.0768089
71.1057129 -59.9075928 -48.3313904
69.8942642 -60.0656586 -50.1199112
68.6987915 -60.2381821 -52.0819550
-93.4503326 -59.0919151 -9.5655384
-94.4679794 -58.9046364 -6.9669938
-95.5031281 -58.7285614 -4.6114321
-170.6466370 -58.5457802 10.7334623
-172.1815796 -58.6777878 9.3129835
-173.7497253 -58.8153801 7.7530246
142.9273987 -57.6553917 -48.5859756
141.3159637 -57.5217438 -46.5050163
73.6232986 -58.4142151 -46.3303261
72.3877258 -58.5522156 -47.8910446
71.1745987 -58.6948586 -49.5730972
-94.5909271 -57.7187576 -8.0022926
-95.6140594 -57.5375557 -5.5774217
-167.8398743 -57.1164093 12.3615265
-169.2920227 -57.2271729 11.2122202
-170.8026428 -57.3484573 9.9011898
-172.3158722 -57.4829063 8.4668608
141.5448303 -56.3535690 -48.1927948
73.7046967 -57.2016525 -47.5479126
72.4745865 -57.3440819 -49.1622772
71.2666855 -57.4996033 -50.9347115
-94.6909332 -56.5348854 -9.2676849
-95.7289658 -56.3546448 -6.6722622
-167.9783630 -55.9202156 11.5582867
-169.4606018 -56.0321426 10.3449841
-170.9714966 -56.1570053 8.9967394
-172.5054626 -56.2889137 7.5121126
141.7814941 -55.1912193 -50.0193291
140.1746216 -55.0643234 -47.9182816
138.6025391 -54.9355316 -46.0662537
73.7947311 -56.0043640 -48.8732300
72.5633392 -56.1456909 -50.5802612
-94.8009872 -55.3450890 -10.5708122
-95.8544235 -55.1763229 -7.8751607
-96.8784256 -55.0076523 -5.5307436
-97.9394836 -54.8648224 -3.4353318
-168.1302185 -54.7307854 10.6882935
-169.6090851 -54.8428001 9.4451733
140.4115143 -53.9099655 -49.7836647
138.7972870 -53.7775459 -47.7537689
73.8723907 -54.8025818 -50.3720322
72.6575851 -54.9503708 -52.1632118
-95.9863129 -54.0050964 -9.2633371
-97.0040283 -53.8279343 -6.7685204
-98.0508118 -53.6780853 -4.5872612
-168.3003845 -53.5416679 9.7383270
-169.7796478 -53.6582184 8.4547882
140.7416992 -52.7460594 -52.0281372
139.0455322 -52.6196899 -49.6804657
137.4456787 -52.5027847 -47.7461853
135.9223022 -52.3959923 -46.1359329
76.4076538 -53.3456955 -48.7397461
75.1982422 -53.4729996 -50.2436790
73.9808807 -53.6129913 -51.9520378
-97.1581879 -52.6620560 -8.1020613
-98.1887589 -52.5064888 -5.8221679
-168.4834290 -52.3552742 8.6987858
-169.9929199 -52.4740601 7.3349991
137.6714478 -51.3576012 -49.6470566
136.1399536 -51.2426338 -47.9448090
76.5135651 -52.1515808 -50.3050461
-97.2787018 -51.4804001 -9.5937891
-98.3284683 -51.3296623 -7.2071095
-168.6702881 -51.1787720 7.5812120
-170.1871948 -51.2961578 6.1596661
137.9911957 -50.1792297 -51.9230804
136.3970795 -50.0899353 -50.0133438
134.8787537 -49.9917831 -48.3361893
133.3495483 -49.8910904 -46.8054581
79.0689392 -50.7230225 -49.0846405
77.8535767 -50.8453522 -50.4854813
76.6256027 -50.9663124 -52.0685196
-98.4811630 -50.1582336 -8.7074461
-99.5270691 -50.0257187 -6.4629717
-100.5782623 -49.8891335 -4.4479175
-165.9190063 -49.7831078 8.8802490
-167.3934479 -49.8858566 7.6793108
-168.9049683 -49.9988632 6.3244834
-170.4186401 -50.1179657 4.8576646
136.7063599 -48.9208031 -52.3204651
135.1268768 -48.8453979 -50.4682007
133.5860443 -48.7445869 -48.7773590
79.1935043 -49.5424652 -50.7948990
77.9841843 -49.6658325 -52.3006477
-98.6399155 -48.9872360 -10.4357910
-99.7042770 -48.8640404 -7.9999657
-100.7359161 -48.7222404 -5.8927727
-166.1262665 -48.6078377 7.6795073
-167.5944519 -48.7140045 6.4286156
135.4694672 -47.6942673 -52.9705582
133.8506622 -47.6080627 -51.0151215
132.2765198 -47.5148544 -49.2904205
130.7744904 -47.4251366 -47.9130478
84.2552414 -47.9605865 -47.5943413
83.0114059 -48.0462990 -48.7131729
81.7708435 -48.1425896 -49.9322433
80.5629349 -48.2537880 -51.2209015
79.3404388 -48.3707428 -52.6962280
78.1186981 -48.4878960 -54.3879204
-99.8473358 -47.6777573 -9.7539396
-100.9071198 -47.5660019 -7.4693499
-101.9728088 -47.4392433 -5.3980093
-103.0372314 -47.3209496 -3.5967965
-163.4317017 -47.2479172 8.6339855
-164.8755646 -47.3366203 7.5646706
-166.3490601 -47.4334183 6.3639503
-167.8520050 -47.5405655 5.0126657
134.2023621 -46.4428329 -53.6267548
132.5625610 -46.3776970 -51.6845589
131.0427399 -46.2807503 -50.1455803
84.3933563 -46.7785645 -49.3572617
83.1511536 -46.8680649 -50.5524902
81.9169617 -46.9712868 -51.8591385
80.7004013 -47.0784264 -53.2946014
79.4865265 -47.1957397 -54.9068604
78.2723160 -47.3042564 -56.7061920
-101.0931320 -46.4013901 -9.2339306
-102.1502686 -46.2805672 -7.0589676
-103.2162781 -46.1608810 -5.0868683
-163.6495972 -46.0721664 7.3355284
-165.1269531 -46.1593399 6.1788912
-166.5980988 -46.2637787 4.9216461
131.3602600 -45.1426697 -52.6691704
129.8473969 -45.0693283 -51.1733932
128.3712616 -44.9934845 -49.8326645
84.5409012 -45.5981102 -51.3222466
83.3060608 -45.6940155 -52.6107635
-102.3577194 -45.1265335 -8.8463516
-103.4027863 -44.9993401 -6.7945204
-161.0258179 -44.7315521 7.9501696
-162.4460297 -44.8107986 6.9935217
-163.8867493 -44.8973885 5.9199872
-165.3659363 -44.9926949 4.7061124
130.1755676 -43.9334221 -53.8744164
128.6670227 -43.8672562 -52.3577042
84.7141418 -44.4304504 -53.5241737
83.4700317 -44.5190887 -54.9656639
-103.6141205 -43.8534317 -8.6669455
-161.2431793 -43.5650902 6.5586920
-162.6914978 -43.6469231 5.5240641
-164.1646576 -43.7335892 4.3539424
-165.6692505 -43.8240662 3.0381603
129.0536652 -42.6884460 -55.3400841
127.4656372 -42.6580696 -53.7036133
125.9302216 -42.6020126 -52.3219910
124.5062103 -42.5275307 -51.2461281
123.0663376 -42.4829254 -50.2345047
89.8590088 -42.9246979 -51.3876190
88.6038742 -43.0030594 -52.3622360
87.3635406 -43.0864639 -53.4485931
86.1281357 -43.1839180 -54.6756287
84.8974152 -43.2743149 -56.0816727
-103.8344193 -42.6973076 -10.7989407
-104.8860245 -42.5823097 -8.6506128
-105.9243774 -42.4694366 -6.7323198
-161.5133972 -42.3944321 4.9970722
-162.9790192 -42.4789200 3.8734865
126.3024979 -41.4567032 -55.3818283
124.8002853 -41.4156532 -54.0416031
123.3729248 -41.3553429 -52.9030113
90.0447998 -41.7596703 -53.7904892
88.8024292 -41.8462372 -54.8568954
87.5859833 -41.9268646 -56.1369553
86.3518219 -42.0075607 -57.5460892
-104.0225677 -41.5409203 -13.2298813
-105.1289368 -41.4533920 -10.8904867
-106.1665039 -41.3348579 -8.7538586
-161.7994385 -41.2301941 3.2882848
-163.2951355 -41.3138771 2.0648372
125.2326355 -40.2518921 -57.4756393
123.7267532 -40.2205009 -56.0300751
122.2326660 -40.1937180 -54.8555908
120.7598724 -40.1482086 -53.8406296
119.3283081 -40.0896263 -52.9948959
117.9408798 -40.0630112 -52.2291603
95.3042221 -40.3407211 -52.9423370
94.0362396 -40.4081383 -53.6431007
92.7818375 -40.4664536 -54.4929695
91.5227737 -40.5307426 -55.4776497
90.2773895 -40.6090431 -56.5585785
-105.3986359 -40.2959900 -13.5374813
-106.4306564 -40.1918602 -11.0867186
-107.4771729 -40.0872269 -8.9904766
-108.5498352 -39.9832993 -7.1338420
-159.2025757 -39.9150162 3.6113408
-160.6460571 -39.9918518 2.5779753
-162.1134796 -40.0737495 1.4073555
121.1488190 -38.9988251 -57.1891708
119.6786957 -38.9746399 -56.1553307
118.2551804 -38.9489746 -55.2525444
95.5539093 -39.1982346 -55.7201805
94.2943497 -39.2762909 -56.5385742
-107.7436600 -38.9426880 -11.5217104
-108.8116913 -38.8500175 -9.4413614
-159.5033875 -38.7617416 1.7270986
118.6639023 -37.8550873 -58.9979782
117.2292786 -37.8180542 -58.0914192
115.7872162 -37.7854729 -57.2886047
114.3713074 -37.7644424 -56.7006989
112.9924774 -37.7473373 -56.1996536
111.6307755 -37.7347221 -55.7805138
110.2545700 -37.7350464 -55.5055237
108.8928833 -37.7222633 -55.4400101
107.5511932 -37.7404633 -55.3669357
106.2215271 -37.7593689 -55.3438568
104.9075241 -37.7785416 -55.4568138
103.5792847 -37.8054123 -55.6985168
102.2598190 -37.8307915 -56.0441666
100.9583664 -37.8709831 -56.4137650
99.6760025 -37.9214325 -56.8471832
98.3922424 -37.9635162 -57.4791183
97.1166687 -38.0222588 -58.1903763
95.8477402 -38.0737000 -59.0525970
-109.1016312 -37.7019310 -12.0753460
-110.1649933 -37.6199532 -10.0224895
-111.2181625 -37.5235596 -8.2673359
-112.3085022 -37.4422417 -6.6420670
-113.4164047 -37.3694077 -5.1981230
-156.9820862 -37.4598007 1.6641996
-158.4288940 -37.5300179 0.6661141
-159.8676453 -37.6112251 -0.4357736
113.4070663 -36.6746979 -60.2039413
112.0353546 -36.6537247 -59.6557159
110.6492767 -36.6396675 -59.2986832
109.2594604 -36.6446381 -59.0831337
107.9013977 -36.6419983 -58.9832344
106.5778961 -36.6589851 -58.9125977
105.2530823 -36.6809425 -59.0110130
103.9170380 -36.6982613 -59.2942467
102.6089935 -36.7328682 -59.6562462
101.3174973 -36.7705994 -60.0988045
100.0267181 -36.7782173 -60.6637802
98.7500610 -36.8109818 -61.3892632
-110.4627533 -36.4538155 -12.9017344
-111.5280075 -36.3983727 -10.8711720
-112.5962143 -36.3114395 -9.0687675
-113.6887817 -36.2291069 -7.4621410
-157.3364563 -36.3132133 -0.5169455
-158.7994537 -36.3854370 -1.6218492
-112.9150543 -35.1727028 -11.9446335
-114.0058441 -35.1045761 -10.0954828
-115.0839539 -35.0246658 -8.5200787
-116.1912003 -34.9519196 -7.0930891
-152.0615234 -34.9221420 0.6467018
-153.4503326 -34.9724693 -0.0839569
-154.8454285 -35.0378990 -0.9078045
-156.2834625 -35.0987549 -1.8912427
-157.7512817 -35.1548386 -3.0007730
-114.3464966 -33.9399986 -13.1914053
-115.4255066 -33.8916245 -11.3955650
-116.5204926 -33.8351021 -9.7609854
-152.4324341 -33.7713814 -1.6965048
-153.8370667 -33.8313217 -2.5326476
-155.2776489 -33.8837357 -3.5090966
-116.8845062 -32.6687546 -12.9991798
-117.9796143 -32.6372337 -11.3487339
-119.0965805 -32.5882416 -9.8714275
-120.2154846 -32.5296173 -8.5717964
-121.3451996 -32.4697189 -7.4340053
-147.3413849 -32.4442978 -1.7344843
-148.6880493 -32.4856415 -2.2418363
-150.0657196 -32.5295143 -2.8541653
-151.4465332 -32.5824966 -3.5604193
-152.8634338 -32.6324387 -4.4046674
-119.4955826 -31.4297771 -13.3039370
-120.6004562 -31.3886261 -11.7658129
-121.7263565 -31.3575859 -10.4465761
-147.7580719 -31.3057442 -4.4252148
-149.1261139 -31.3532791 -5.0362229
-150.5186157 -31.3961086 -5.7517519
-151.9375458 -31.4223251 -6.6006680
-122.1840210 -30.2446442 -14.2137566
-123.3075790 -30.2136612 -12.7784920
-124.4255066 -30.1562614 -11.5470238
-125.5812302 -30.1309299 -10.4575138
-126.7422256 -30.0912151 -9.5590363
-127.9040985 -30.0574474 -8.7260027
-129.0812988 -30.0263653 -7.9891553
-130.2826233 -30.0009785 -7.3747406
-131.4936523 -29.9811192 -6.8775787
-137.6891479 -29.9746666 -5.5010872
-138.9676514 -29.9818211 -5.4610648
-140.2331848 -29.9994144 -5.4717407
-141.5324554 -30.0117741 -5.5924067
-142.8386230 -30.0414848 -5.7774434
-144.1669006 -30.0727234 -6.0842052
-145.5001678 -30.1081600 -6.4808702
-146.8576965 -30.1480103 -6.9759207
-148.2334595 -30.1801395 -7.6095176
-128.3760071 -28.9400978 -12.3413115
-129.5520935 -28.9224815 -11.5006943
-130.7438660 -28.8906136 -10.7986727
-131.9506226 -28.8848648 -10.1911421
-138.1371460 -28.8638115 -8.7009420
-139.4241180 -28.8709373 -8.6943617
-140.7106171 -28.8815937 -8.7417498
-142.0133057 -28.8938465 -8.9189415
-143.3386536 -28.9337902 -9.2040367
-144.6834717 -28.9419537 -9.6136894
-132.5181580 -27.7323666 -14.5505524
-133.7271423 -27.7226353 -13.9532986
-134.9379883 -27.7120361 -13.4270229
-136.1780548 -27.7066612 -13.0923014
-137.4391022 -27.7102089 -12.8836889
-138.7079163 -27.7208118 -12.8044319
111.6112137 -132.5602264 -53.2062492
110.9342728 -132.5707245 -53.1146011
110.2313385 -132.5583649 -52.9521294
109.5746384 -132.5652313 -52.8812943
108.9268723 -132.5812683 -52.8817024
108.2473297 -132.5659637 -52.8546181
107.5670395 -132.5850372 -52.9606094
103.6329193 -132.8905640 -54.1651535
102.9921036 -132.9743500 -54.4715538
114.0908432 -131.5409698 -51.5935516
106.6524200 -131.5721893 -50.8369522
100.2147675 -132.2163696 -53.4315033
118.8374710 -130.9107971 -52.1058502
118.1138687 -130.8363647 -51.5662460
117.3974075 -130.7708282 -51.0784607
116.7022095 -130.7251892 -50.6716957
115.9964066 -130.6431732 -50.2450142
115.2707748 -130.6212463 -50.0067520
114.5782928 -130.5401611 -49.7619705
113.8683548 -130.5109558 -49.5011787
106.4705811 -130.5767670 -48.7839470
105.8203430 -130.6366119 -48.9178391
105.1651382 -130.6750031 -49.0521507
104.5197144 -130.6926422 -49.1980019
100.0312119 -131.1606140 -51.2457085
99.3917084 -131.2994080 -51.6411896
121.2977753 -129.2309418 -50.0570488
120.5423355 -129.1140747 -49.4602051
92.7484283 -129.4867554 -51.6715622
124.5453415 -127.7334290 -49.4597626
94.4023514 -128.1759491 -48.0555344
93.7942963 -128.2186127 -48.5577698
93.2002029 -128.2950287 -49.0954552
92.5669174 -128.4571075 -49.7308884
91.9392548 -128.6274872 -50.3800049
91.3019028 -128.7800903 -51.0652313
125.8256989 -127.0094986 -49.0364380
126.3677673 -126.1473083 -48.0209351
125.6165390 -126.0439606 -47.3541985
89.2027664 -127.3368530 -49.9952049
88.5982208 -127.4810104 -50.7315636
89.1103745 -126.4060745 -48.5531425
89.0053635 -125.5590973 -47.2569695
-131.7856140 -124.3368683 -6.0119691
-132.3807526 -124.3086090 -5.7045226
-132.9860840 -124.2733078 -5.4387240
-133.5950012 -124.2213669 -5.2121854
-134.2182465 -124.1522522 -5.0361490
-136.0857849 -124.2011642 -4.6552844
-136.7055359 -124.2324371 -4.5747137
-137.3283081 -124.2377548 -4.5100365
-137.9708557 -124.2420959 -4.5004563
-138.6313934 -124.2626419 -4.5776381
-127.3970184 -123.6314850 -6.5999660
-138.3109741 -123.2036362 -2.3782344
-141.5888672 -123.3851166 -2.8995616
130.9433441 -123.3685303 -47.4598083
87.5521622 -124.1260376 -46.1040039
86.9471359 -124.2360077 -46.7511826
86.3587341 -124.3358078 -47.4194489
85.7467422 -124.4730377 -48.1595764
85.1172943 -124.6497803 -48.9635239
84.5062408 -124.8096619 -49.7675476
-124.8087463 -122.9797058 -6.5613666
-125.3639984 -122.8827286 -5.9201603
-125.9267197 -122.7877045 -5.3358054
-126.5034866 -122.6840134 -4.7950096
-127.0814896 -122.5851135 -4.2508979
-127.6574020 -122.5444641 -3.8307481
-138.0260620 -122.2664871 -0.4682064
-138.6699066 -122.2978821 -0.4906960
-139.3171082 -122.3305969 -0.5657518
-139.9739838 -122.3414383 -0.6386660
-140.6193848 -122.3637009 -0.7513813
-141.2562103 -122.3845978 -0.8574778
-144.6506653 -122.7116318 -1.9884942
-145.3420410 -122.8017044 -2.3118618
132.3714142 -122.7966003 -47.9461365
83.7961884 -124.0990601 -49.2857971
-145.7190247 -121.9173431 -0.6558714
133.7762604 -122.2165604 -48.5464096
132.9441986 -122.0308304 -47.4457245
132.1334991 -121.8807602 -46.4630356
83.7051697 -123.2397614 -48.1011581
83.0922394 -123.3838577 -48.8709335
-121.4872284 -121.5050507 -5.7255435
-122.0330124 -121.3932571 -5.0308123
-122.5971680 -121.2565155 -4.3212962
-145.4579620 -120.9851837 0.9909431
-146.1273041 -121.0602112 0.7115600
-146.8239441 -121.1391754 0.3741552
-147.5317535 -121.2170486 -0.0029752
-148.2395630 -121.3002930 -0.4233909
-120.1423874 -120.7560272 -5.2765946
-149.3702545 -120.5628433 0.4641590
-117.7682571 -120.2884674 -6.7296681
-118.2982407 -120.1420670 -5.8235464
-118.8376160 -120.0266953 -5.0150547
-119.3846817 -119.9066544 -4.2463546
-119.9416122 -119.7893295 -3.5150497
-149.0919495 -119.6139679 2.0426931
-149.8109131 -119.7153625 1.5865499
134.7959137 -119.8864212 -46.3583565
135.4329834 -119.2028427 -46.1347733
134.6015778 -119.0196304 -45.0964127
-115.1953354 -118.9565582 -6.7370157
-115.7339249 -118.7887650 -5.7485409
-116.2812576 -118.6362610 -4.8297391
79.6506042 -120.0137177 -47.5423965
-154.1057281 -117.7704697 2.5476213
137.5073090 -117.9739380 -46.8312111
79.5954590 -119.1721420 -46.5738335
78.9540634 -119.3662415 -47.4673653
-113.2301865 -117.5460510 -6.2708592
-113.7499619 -117.3708496 -5.2662063
-153.8800201 -116.8990860 3.8902948
-155.3389893 -117.0932541 2.8107414
138.1719360 -117.3133011 -46.7612915
137.3084259 -117.1233368 -45.6161346
78.2922287 -118.7127304 -47.3603516
-111.4976196 -117.1269913 -7.9165511
-156.6146698 -116.5360031 2.9198296
137.1513672 -116.3128662 -44.5220718
78.2583466 -117.8931503 -46.4404793
77.6302338 -118.0670471 -47.3065033
-110.8007660 -116.3694534 -7.3463936
-111.3245926 -116.1554642 -6.1416311
-156.4055328 -115.6817856 4.1681600
-157.1392365 -115.8102722 3.6062443
76.9649429 -117.4121780 -47.2781181
-110.0884323 -115.6481476 -6.9175014
140.2101593 -115.3589401 -46.9587936
139.3271790 -115.1581650 -45.6988106
138.5267029 -115.0176926 -44.6291046
76.9232330 -116.6115341 -46.4460716
76.3183517 -116.7653961 -47.3409653
75.6992035 -116.9335327 -48.3359718
75.1134491 -117.1009598 -49.3350449
-108.8855057 -115.1161880 -7.6851788
-109.4184952 -114.8858948 -6.4033613
-109.9325485 -114.7291336 -5.3208027
-157.4319000 -114.2512741 5.4168243
-158.1981354 -114.3905411 4.8000650
74.4401627 -116.4827194 -49.4583054
-108.7386856 -114.2075424 -6.1117349
-158.7615967 -113.7011566 5.2654905
141.5428314 -114.0663300 -47.1864319
74.4156036 -115.6586456 -48.5283890
73.7918930 -115.8570175 -49.6160355
73.1893463 -116.0357361 -50.7341270
-108.5917130 -113.3283997 -4.6635180
-158.5478363 -112.8665466 6.3430772
-159.3135986 -112.9953613 5.7534666
141.3467865 -113.2366791 -46.0867157
142.0197754 -112.6011810 -46.2485390
141.2182159 -112.4498901 -45.1415749
73.0487747 -114.4753647 -48.9319878
-106.2256699 -112.3299866 -6.6592698
-159.5459900 -110.7383957 7.9775696
142.6664886 -111.2602463 -45.7506104
71.7629623 -113.2584152 -49.3839912
-104.9418564 -110.9904327 -6.4828792
-159.3775177 -109.9714737 8.8700609
71.6683807 -111.7239304 -47.8557129
71.0458069 -111.9023590 -48.9470024
-103.6552429 -109.7077866 -6.5671678
-160.5685577 -108.6654282 9.3745184
-161.2882385 -108.7651062 8.8004379
-162.0186005 -108.8719254 8.2082462
-162.7916718 -109.0144501 7.5718083
143.9163666 -109.2296295 -45.5426865
71.6339188 -110.9569168 -47.1548004
-103.5392990 -108.8856735 -5.3852553
-163.3855896 -108.3731308 7.7729473
144.7065887 -108.6852646 -46.1111259
143.8105927 -108.5013809 -44.8290367
71.5943680 -110.2080994 -46.4762421
70.9484863 -110.3982925 -47.4822807
-103.4312744 -108.0900574 -4.2983637
-163.2106781 -107.5913467 8.5891809
-164.0090942 -107.7292252 7.9072065
-164.6486359 -107.1040573 7.9741797
145.3403625 -107.3445816 -45.8774681
70.2796860 -109.0528030 -47.1968613
-101.1738815 -107.1912308 -7.2152257
-164.4942322 -106.3376007 8.7281179
-165.2761993 -106.4727249 8.0317221
-100.5376816 -106.5901947 -7.5361929
-101.0793686 -106.3816299 -6.1354737
-165.9100037 -105.8523483 8.0475311
145.0615387 -105.8459473 -44.4565392
-100.9598236 -105.6234055 -5.2087665
-165.7532196 -105.0832901 8.7805300
-166.5214691 -105.2182312 8.0649309
146.6775055 -105.4447708 -46.4238777
68.9368210 -107.1798630 -47.5518112
-167.1380157 -104.5859299 8.0024853
147.4614410 -104.8878708 -47.1494522
146.5988617 -104.7122192 -45.8054962
68.9114532 -106.4422302 -47.0188751
-99.7629776 -104.4079819 -5.8341627
-166.9784088 -103.8292160 8.7364578
-98.6389160 -104.0141525 -7.6633501
148.1275482 -103.6037064 -47.2210350
67.6661606 -105.2935791 -48.0545807
67.0424347 -105.4696274 -49.1781044
-98.0474777 -103.4372330 -8.1409988
-98.5793686 -103.2218781 -6.6859431
-168.2587891 -102.6393661 8.6625080
-98.5021591 -102.4630585 -5.8124418
66.3635559 -104.1985016 -49.3636780
-97.3758240 -102.0873871 -7.7989864
-97.9115295 -101.8817520 -6.3224702
-98.4175873 -101.7188797 -5.0156150
147.8262634 -101.4128036 -45.3443146
66.3535995 -103.4669647 -48.8479652
-96.7817383 -101.5292511 -8.4125328
-97.3002701 -101.3231430 -6.9411726
-169.5081329 -100.7397079 8.9395533
147.7329559 -100.6978607 -44.8327141
-97.2224960 -100.5749054 -6.1232471
66.3004303 -102.0438690 -47.9618683
65.6657257 -102.2167358 -49.1274490
-97.1501541 -99.8371124 -5.3707604
66.2861633 -101.3320389 -47.5526695
-96.5555038 -99.2871399 -6.0279908
-97.0928192 -99.1031265 -4.6582794
-170.7821960 -98.8516235 8.9606972
65.0268021 -100.9592209 -49.4406624
-95.9958344 -98.7115860 -6.6242976
149.2381897 -98.2350693 -45.7826042
65.0079117 -100.2515182 -49.0522041
-95.9214172 -97.9937439 -6.0103989
149.1292725 -97.5232391 -45.3220978
149.0526581 -96.8225021 -44.9321442
64.9817429 -98.8457336 -48.3495865
64.3672256 -99.0125351 -49.5330048
63.7529793 -99.1830750 -50.7860260
-94.7377930 -96.1498718 -6.7557406
-94.6882706 -95.4343262 -6.1720943
-170.2219543 -94.6767502 11.7740793
-170.9812622 -94.7744598 11.0369568
64.9363937 -96.7674789 -47.3946838
-170.1513824 -93.9956284 12.1599245
64.8868484 -96.0926056 -47.1521683
-170.0731506 -93.3191147 12.5329809
150.6248016 -93.7478409 -46.2236443
64.8420181 -95.4204178 -46.9361115
-171.5221558 -92.8449249 11.4464769
150.5529022 -93.0634003 -45.9135590
64.8460236 -94.7289581 -46.6584320
-171.4816895 -92.1781311 11.7758465
-172.2374115 -92.2836075 11.0390148
-172.9937897 -92.3930588 10.2908926
-173.8151550 -92.5229492 9.4645643
150.5183411 -92.3932953 -45.6813812
-92.4076004 -92.6200409 -9.4653082
-172.9454346 -91.7228546 10.6062746
-173.7324982 -91.8411026 9.8187771
150.5033417 -91.7282486 -45.4982948
-92.3463135 -91.9202957 -8.9611053
-172.8652344 -91.0432587 10.9544630
150.4301453 -91.0508270 -45.2519188
-174.4387817 -90.6201782 9.5985756
150.3908234 -90.3868866 -45.0933800
-92.2405014 -90.4585419 -7.7467523
-174.3327484 -89.9358063 9.9556484
64.7565384 -90.7071152 -45.6424599
66.0229721 -89.8014374 -43.6853828
65.3977127 -89.9181519 -44.5892754
-91.1729507 -88.8199081 -9.9994020
65.9956970 -89.1473160 -43.6175880
-91.1679077 -88.1210632 -9.5819778
65.9577866 -88.4962234 -43.5727768
-174.0681152 -86.6182022 11.2231445
65.9609909 -87.8356400 -43.4945412
-174.0493927 -85.9680634 11.4078093
65.9552536 -87.1819153 -43.4530792
-91.1052322 -86.0792084 -8.5331354
-175.6295929 -85.5370560 9.9330091
65.9439087 -86.5317764 -43.4416924
-90.5925140 -85.5787277 -9.8547573
-91.0832977 -85.4080048 -8.2485399
-175.5737305 -84.8782120 10.1157961
65.9547882 -85.8788528 -43.4179420
-175.5558014 -84.2297592 10.2583876
65.9561996 -85.2294540 -43.4213295
65.9474640 -84.5833511 -43.4516525
-89.9848022 -83.7774734 -10.9023943
65.9471359 -83.9372101 -43.4823685
-89.9947815 -83.1042786 -10.6435452
65.9554596 -83.2905731 -43.5114288
65.9361191 -82.6492920 -43.5871086
65.9318466 -82.0067902 -43.6539497
152.1723785 -78.4857483 -48.5869370
-89.9448853 -78.5248260 -9.6883335
152.2100372 -77.8675308 -48.8677444
-89.9316559 -77.8871384 -9.6997633
150.4114075 -76.9730911 -46.0506287
150.4335785 -76.3545380 -46.2906876
150.4986115 -75.7402344 -46.6364212
-89.9333954 -75.9762802 -9.7433529
151.4599915 -75.2487106 -48.4112129
150.5595093 -75.1247101 -46.9547844
65.9721222 -76.2803879 -44.9157677
-89.9486084 -75.3434830 -9.8027887
64.7788010 -75.8492203 -46.9496536
-89.9625702 -74.7115555 -9.8677807
64.7818375 -75.2198715 -47.2224236
-89.9671249 -74.0790329 -9.9318657
64.8149567 -74.5930710 -47.4584389
-89.9551697 -73.4472656 -10.0150909
150.7290344 -72.6736679 -48.3404770
64.8310623 -73.9670486 -47.7405624
-89.9381943 -72.8232651 -10.1794538
150.7798462 -72.0685959 -48.7814751
-89.9548721 -72.1960144 -10.3037128
150.8984985 -71.4681091 -49.3442230
-89.9744644 -71.5719833 -10.4659777
-177.1040192 -71.1246185 8.7147427
150.0087433 -70.7486420 -48.1822548
149.1271973 -70.6328201 -46.8583832
-89.9801025 -70.9540329 -10.7058506
-175.4856873 -70.3256836 10.2881432
-176.3226929 -70.4158783 9.4146051
-177.1141815 -70.5043869 8.5758457
149.2021484 -70.0214996 -47.3054352
-89.9949188 -70.3355484 -10.9490757
-175.5109253 -69.7079010 10.1368017
150.1596375 -69.5521011 -49.0291862
149.2944489 -69.4156647 -47.8497620
64.9247818 -70.8533783 -49.3330269
-90.0196457 -69.7170792 -11.1938381
-175.5488892 -69.0912704 9.9646368
149.4261169 -68.8249969 -48.5176659
64.9333649 -70.2331696 -49.7206039
-90.0489044 -69.0991592 -11.4246063
-175.5904694 -68.4773178 9.7689161
149.4243622 -68.2354355 -49.0019073
150.4445343 -67.7654953 -51.1997299
149.4777985 -67.6408768 -49.5253220
-175.6883850 -66.6416779 9.1231976
-176.5563049 -66.7280273 8.2058458
64.9827271 -67.7564545 -51.4563980
148.0064697 -65.6495285 -48.6199760
64.9937820 -67.1406631 -51.9564590
-90.6838074 -65.9119797 -11.4993906
-91.2391052 -65.7852173 -9.8001356
-175.7908936 -65.4185333 8.6310616
149.0006561 -65.1512680 -50.7171898
148.0652466 -65.0627441 -49.2389870
-91.2400055 -65.1743469 -10.1956453
-175.8541107 -64.8106003 8.3333635
149.1241608 -64.5634232 -51.4918671
148.1890869 -64.4670715 -49.9520721
66.3076935 -65.7259827 -50.7311554
65.6990433 -65.8147125 -51.7836838
-91.2683716 -64.5648956 -10.5679770
-174.3272858 -64.0468063 9.6662445
-175.1073914 -64.1241455 8.8703165
-175.9459381 -64.2014694 8.0008173
148.3395538 -63.8586731 -50.7103653
66.3284454 -65.1142426 -51.2477417
-91.2793045 -63.9597282 -11.0402393
-174.3751984 -63.4413757 9.3779278
147.5927734 -63.1645164 -50.0073090
146.6340179 -63.0822601 -48.5582848
66.3326416 -64.4914169 -51.8215179
146.9211273 -61.8921242 -50.1498413
67.6221313 -63.0974197 -50.8337517
67.0065536 -63.1800003 -51.8695374
-174.5681305 -61.6287766 8.3649330
67.6755524 -62.4856186 -51.3693123
-174.6699982 -61.0247421 7.9674473
146.2963715 -60.6299667 -50.4740524
145.4314880 -60.5512810 -49.1568985
67.6674728 -61.8679657 -52.0486031
-92.5349731 -60.7338676 -10.3859272
-174.7586060 -60.4186478 7.5659528
145.5529785 -59.9469948 -49.8839378
-92.5661011 -60.1336975 -10.9858780
144.7989197 -59.2691536 -49.4479523
143.9476318 -59.2116966 -48.3028717
67.7584686 -60.6645584 -53.3450584
-92.6194077 -59.5385437 -11.5828218
144.0502777 -58.6231003 -49.1133537
67.7833710 -60.0593605 -54.1183434
144.1354218 -58.0592079 -49.9348793
70.2378159 -59.1159210 -50.6271515
-93.2306824 -58.2332344 -11.1770439
-93.7707977 -58.1498718 -9.7337999
-173.4653778 -57.8842812 7.5050454
145.1422119 -57.5529480 -52.2348022
