-169.9607697 -76.2114410 4.1541328
134.8830872 -74.3128967 -52.6300201
131.8544617 -74.1021805 -49.9381905
128.9386902 -73.9403000 -47.7959137
126.0513611 -73.8200378 -46.0275726
123.2308121 -73.7246552 -44.5927696
120.4482651 -73.6520920 -43.4032211
81.0698853 -74.6882935 -47.6945572
78.5461655 -74.9039459 -49.5198059
76.0264435 -75.1437759 -51.6281357
73.5375900 -75.4214096 -54.0644302
71.0572052 -75.7383575 -56.9854164
-100.6417160 -74.0404129 -11.0985775
-102.8406982 -73.7418594 -7.6399069
-105.0705109 -73.4942551 -4.6996632
-107.3279572 -73.2854309 -2.1605949
-109.6163788 -73.1077805 0.0798679
-111.9151154 -72.9532166 2.0503588
-164.5075378 -73.3715820 6.3253202
-167.3406372 -73.5849609 4.5896063
-170.2605591 -73.8327484 2.4852023
132.1833191 -71.7658691 -52.7427979
129.2380371 -71.5913086 -50.4093857
126.3301849 -71.4578400 -48.4619942
123.4805832 -71.3532715 -46.8825035
120.6792297 -71.2786865 -45.6028061
81.2157898 -72.2910004 -49.9230270
78.7002792 -72.5072708 -51.8486061
76.1923599 -72.7576141 -54.0968590
73.7061691 -73.0415344 -56.7309875
-100.8871765 -71.6951752 -13.3666763
-103.0587616 -71.3806686 -9.6440916
-105.2735138 -71.1252441 -6.5524316
-107.5273438 -70.9137726 -3.8845286
-109.8063812 -70.7297821 -1.5575271
-112.1020050 -70.5746307 0.4929913
-164.7821045 -71.0018234 4.6557550
-167.6448059 -71.2183456 2.8047874
129.5978394 -69.2685089 -53.4899979
126.6478729 -69.1186523 -51.2906799
123.7785339 -69.0011444 -49.5470390
120.9472122 -68.9181900 -48.1209335
118.1587677 -68.8568802 -47.0074158
115.4057465 -68.8207474 -46.1268234
86.4730072 -69.5408478 -49.2691307
83.9237061 -69.7126694 -50.7514076
81.3968811 -69.9065094 -52.4894409
78.8768158 -70.1346588 -54.5457306
76.3796997 -70.3912888 -56.9991760
-103.3170090 -69.0412979 -12.0194693
-105.5107727 -68.7744980 -8.6935654
-107.7501678 -68.5516357 -5.8879681
-110.0224075 -68.3671188 -3.4276996
-112.3185577 -68.2083282 -1.3041320
-159.5375977 -68.2887421 5.6829987
-162.2988586 -68.4540253 4.3373599
-165.1215973 -68.6423492 2.6958549
-168.0156555 -68.8674622 0.6996657
130.0348663 -66.9948120 -57.2069740
127.0300903 -66.8092804 -54.6324768
124.1218414 -66.6751709 -52.6412468
121.2699509 -66.5799637 -51.0522156
118.4498444 -66.5090485 -49.7976761
115.6862030 -66.4677734 -48.8174095
86.6765900 -67.1718674 -52.0003586
84.1349335 -67.3479614 -53.5854073
81.6034698 -67.5503769 -55.4951553
-105.7938538 -66.4432220 -11.2477980
-108.0189209 -66.2113571 -8.2075577
-110.2777939 -66.0186996 -5.6129460
-112.5629425 -65.8558197 -3.3622503
-159.8645630 -65.9390106 3.6745279
-162.6654053 -66.1053925 2.2034326
-165.5051880 -66.3031082 0.4376398
121.6497040 -64.2670822 -54.5360107
118.7988739 -64.1856842 -53.0778122
116.0155869 -64.1325836 -51.9698639
113.2471542 -64.1008224 -51.1445885
110.5353088 -64.0907135 -50.5550842
92.0471115 -64.5289154 -52.5804024
89.4717789 -64.6655121 -53.7472687
86.9223785 -64.8222885 -55.1846123
84.3825989 -65.0093307 -56.9152298
81.8634491 -65.2208405 -59.0277214
-106.1350937 -64.1477966 -14.2719183
-108.3207397 -63.8903160 -10.9531517
-110.5689163 -63.6867638 -8.1291828
-112.8400040 -63.5167618 -5.7342734
-115.1403961 -63.3731346 -3.6605737
-117.4661560 -63.2537689 -1.8490995
-154.7907715 -63.3244858 3.6684504
-157.5003204 -63.4504242 2.6298070
-160.2514648 -63.6003532 1.3482864
-163.0717468 -63.7760353 -0.2475429
-165.9653625 -63.9831467 -2.2291701
122.1100159 -62.0068741 -58.7756958
119.2215576 -61.8950500 -57.0084114
116.4087524 -61.8282013 -55.6886139
113.6075058 -61.7890472 -54.7183342
110.8792877 -61.7719269 -54.0212898
92.3328705 -62.1977234 -56.0675964
89.7581329 -62.3374634 -57.3755913
87.2131729 -62.5072670 -58.9749069
-108.7016754 -61.6055069 -14.2187214
-110.9087219 -61.3772202 -11.0969019
-113.1602020 -61.1947784 -8.4789858
-115.4588776 -61.0447273 -6.2513952
-117.7678528 -60.9203568 -4.3294649
-155.1787415 -60.9927483 1.2433819
-157.9156494 -61.1245766 0.0909109
-160.7050476 -61.2802849 -1.3516804
-163.5633850 -61.4669113 -3.1398311
116.8953629 -59.5782318 -60.3307648
114.0558014 -59.5130997 -59.0907898
111.2958145 -59.4843369 -58.2168732
108.5485992 -59.4759979 -57.7167816
105.8499069 -59.4975700 -57.4334755
103.1569672 -59.5372810 -57.4824982
100.5083694 -59.5934448 -57.7749329
97.8720932 -59.6782951 -58.3357658
95.2646484 -59.7786674 -59.2006760
92.6835327 -59.9044113 -60.3334885
-111.3287659 -59.1041527 -14.6857548
-113.5508499 -58.9011841 -11.7378111
-115.8224640 -58.7385826 -9.2849035
-118.1199265 -58.6055984 -7.1843848
-120.4556046 -58.4961853 -5.4079466
-122.8096771 -58.4089508 -3.8923464
-150.2533569 -58.4619370 0.1840674
-152.9240723 -58.5584335 -0.5837804
-155.6373138 -58.6756554 -1.5935957
-158.4065704 -58.8174057 -2.8908420
109.0511475 -57.2511978 -62.8837242
106.3375778 -57.2538910 -62.4983749
103.6244507 -57.2835693 -62.5214081
100.9614944 -57.3443184 -62.7851334
98.3258057 -57.4272919 -63.4438019
-114.0286255 -56.6494179 -15.7495050
-116.2610931 -56.4563446 -12.9427624
-118.5429153 -56.3102341 -10.5908918
-120.8600922 -56.1932144 -8.6267910
-123.2102890 -56.0988312 -6.9654913
-150.7312622 -56.1558304 -2.8583412
-153.4244690 -56.2574997 -3.7483423
-156.1721191 -56.3830414 -4.9195232
-158.9908447 -56.5358505 -6.4518728
104.2993469 -55.1613083 -69.6397552
-119.0497971 -54.0546227 -14.7410164
-121.3423157 -53.9205475 -12.4836578
-123.6750793 -53.8139267 -10.6148930
-126.0443497 -53.7310638 -9.0767050
-128.4349060 -53.6701279 -7.8111968
-140.8143768 -53.6174507 -4.8765903
-143.3827820 -53.6522827 -4.9331236
-145.9766846 -53.7113266 -5.1966510
-148.6109924 -53.7777977 -5.7085066
-151.2953033 -53.8697472 -6.4688463
-154.0233917 -53.9844437 -7.5331192
-156.8266907 -54.1263161 -8.9803982
-124.2525787 -51.5731277 -15.1465969
-126.6010895 -51.4757233 -13.3434954
-128.9797668 -51.4031944 -11.9142809
-141.3819427 -51.3410606 -8.7807102
-143.9669952 -51.3828163 -8.8952847
-146.5937042 -51.4402771 -9.2818012
-149.2561951 -51.5229034 -9.9287510
-129.6844330 -49.2086258 -17.1925049
-132.0893555 -49.1344681 -15.8462429
-134.5320435 -49.0958328 -14.8495560
-137.0103760 -49.0818710 -14.1628246
-139.5358582 -49.0857391 -13.7816496
-142.1035309 -49.1115952 -13.6888075
113.9211960 -149.3668976 -58.3392143
112.5206299 -149.2334900 -57.6630745
109.7390060 -149.2108917 -56.8279228
108.3662186 -149.1658630 -56.6310043
107.0107651 -149.1916046 -56.5550308
105.6691742 -149.2327118 -56.5686378
104.3388977 -149.2762451 -56.6690865
103.0290985 -149.3587799 -56.9269638
101.7150879 -149.4560852 -57.2940521
100.4191666 -149.5465851 -57.7214203
99.1231613 -149.6891479 -58.3162308
97.8379211 -149.9030151 -59.0403099
96.5720367 -150.1021576 -59.9366684
117.8060074 -147.7124634 -56.9242439
116.3670197 -147.5705109 -56.0159187
114.9407654 -147.4583588 -55.2786446
113.5136566 -147.3736267 -54.6449738
112.1367645 -147.3419647 -54.1994667
110.7699661 -147.2921448 -53.8022995
109.4086838 -147.3005066 -53.5664215
108.0467987 -147.3266907 -53.4310379
106.6914978 -147.3295593 -53.3280182
105.3578339 -147.3745575 -53.3617935
104.0364532 -147.4262085 -53.4777832
102.7244797 -147.4981689 -53.6871376
101.3937531 -147.5752106 -53.9709740
100.0927963 -147.7000885 -54.4172440
98.8046951 -147.7957611 -54.8847237
97.5185394 -147.9303589 -55.4997177
96.2439728 -148.0818787 -56.2250214
94.9770432 -148.2650452 -57.0510483
93.7067719 -148.5260315 -58.0690155
121.8220215 -146.2673187 -56.8121567
120.3154297 -146.0550232 -55.5343475
118.8690491 -145.9181061 -54.5133591
117.4281158 -145.7897491 -53.6095924
116.0146790 -145.7081909 -52.8931656
93.4353333 -146.6154480 -54.8901443
92.1808472 -146.8138275 -55.8532524
90.9355774 -147.0330963 -56.9374695
89.6789246 -147.3304138 -58.2232361
122.9211426 -144.5739441 -54.8049850
121.4379120 -144.3824768 -53.5804672
119.9912415 -144.2575378 -52.5841522
118.5645370 -144.1392212 -51.7223930
117.1555099 -144.0622711 -51.0162163
115.7367401 -143.9713898 -50.3608360
93.2033691 -144.8907318 -52.3305359
91.9306793 -145.0570831 -53.1672592
90.6801376 -145.2515869 -54.1213837
89.4303894 -145.4494781 -55.1804123
88.2011719 -145.6976776 -56.4002037
125.5454407 -143.1405029 -54.5432510
124.0659561 -142.9444885 -53.1905136
122.5980225 -142.7987061 -52.0438461
121.1416321 -142.6479340 -51.0133133
87.9889297 -143.9447327 -53.7829208
86.7372513 -144.1983032 -55.0028038
85.4836121 -144.5023956 -56.3519516
-133.6944885 -142.4129791 -12.5287228
-134.9259644 -142.3138580 -12.0299416
-136.1474915 -142.2987213 -11.5937262
-137.3848267 -142.3102722 -11.2784557
-138.6479797 -142.2981567 -11.1030903
126.7670593 -141.6112976 -53.3254471
125.2414474 -141.3944397 -51.9075165
123.7785950 -141.2399445 -50.7493057
122.3454132 -141.1108246 -49.7693062
120.9092102 -141.0014954 -48.9020386
87.7881393 -142.2790527 -51.6017685
86.5370941 -142.4870605 -52.6818237
85.3051529 -142.7131805 -53.8755798
84.0698624 -142.9837341 -55.2356720
82.8229141 -143.3221436 -56.7844162
-126.1615906 -141.2155304 -14.0337839
-127.2696533 -141.0107574 -12.7431736
-128.4151001 -140.8153687 -11.6210117
-129.5649567 -140.6729126 -10.6634293
-130.7565613 -140.5800934 -9.8901901
-131.9428558 -140.4891357 -9.2060518
-133.1419983 -140.4209900 -8.6368055
-134.3628998 -140.3746796 -8.1860142
-135.6008301 -140.3468781 -7.8283739
-136.8384705 -140.3278046 -7.5532417
-138.0952606 -140.3294373 -7.3727646
-139.3858032 -140.3663635 -7.2900882
-140.6678009 -140.4012299 -7.2994194
-141.9637756 -140.4175415 -7.3714848
-143.2720032 -140.4830627 -7.5794067
-144.6078644 -140.5716858 -7.9079370
-145.9668427 -140.7092285 -8.3427563
129.4970093 -140.3293610 -53.9285698
127.9585190 -140.0851746 -52.2876816
126.4820099 -139.9159393 -50.9558296
82.6586075 -141.5573578 -54.3879929
81.4338303 -141.8363953 -55.9109039
-123.3834076 -139.6192932 -12.6902208
-124.5020523 -139.3850250 -11.3438797
-125.6387558 -139.2090149 -10.1602421
-126.7872086 -139.0751343 -9.1409578
-145.4623871 -138.8439636 -5.1340914
-146.8003845 -138.9509583 -5.5295258
-148.1764374 -139.1067505 -6.0543652
-149.5733795 -139.2655945 -6.7256889
130.7370911 -138.8848877 -53.2076263
129.2202454 -138.6461792 -51.5734940
127.7020035 -138.4387512 -50.1364059
126.2294006 -138.2824860 -48.9413528
82.4767609 -139.9225006 -52.3562241
81.2588882 -140.1746674 -53.7301559
80.0287933 -140.4779816 -55.2763481
-121.8468018 -137.9132996 -10.6349945
-122.9677582 -137.7372742 -9.3715439
-124.0930176 -137.5757294 -8.2255497
-125.2387924 -137.4347229 -7.2151742
-126.4016190 -137.3191376 -6.3408356
-145.0850830 -137.1492310 -2.5760241
-146.3991394 -137.2192841 -2.8891199
-147.7413177 -137.3247833 -3.3137980
-149.0958099 -137.4360809 -3.8266575
131.9789886 -137.4373474 -52.5959740
130.4537964 -137.2153931 -50.9711456
128.9528809 -137.0054932 -49.5280571
79.8876724 -138.7987671 -53.2001534
78.6543884 -139.1032867 -54.8241119
77.4133148 -139.4703064 -56.6070404
-118.1618195 -136.7919006 -12.1103230
-119.2446823 -136.5476532 -10.5148306
-120.3528061 -136.3471985 -9.1117420
-121.4766693 -136.1784210 -7.8677292
-147.3699341 -135.6523438 -0.9787773
-148.7153931 -135.7601929 -1.4220860
-150.0906677 -135.8843536 -1.9673640
-151.4788971 -136.0316467 -2.6188078
-152.8551636 -136.1661530 -3.3399415
-154.2744446 -136.3602905 -4.1847076
-155.7492218 -136.5932159 -5.2198601
134.9103088 -136.3626251 -54.3016396
133.3114471 -136.0663757 -52.3144646
131.7268982 -135.8128052 -50.5557556
130.2042084 -135.6061096 -49.0757828
128.7500153 -135.4439240 -47.8352966
79.7334824 -137.2219696 -51.4690704
78.5097275 -137.4832306 -52.9295807
77.2742691 -137.7846069 -54.5553856
-115.6277008 -135.5567017 -12.6607590
-116.7159042 -135.2619019 -10.8476200
-117.8032684 -135.0318604 -9.2740030
-118.9079437 -134.8313599 -7.8901577
-120.0264053 -134.6639862 -6.6628442
-121.1757507 -134.4931946 -5.5112233
-147.0607605 -134.0536957 0.9844911
-148.3988800 -134.1436920 0.6073660
-149.7603912 -134.2531433 0.1457716
-151.1148987 -134.3678284 -0.3854898
-152.4786682 -134.4991455 -1.0141721
-153.8876038 -134.6543732 -1.7720985
-155.2959595 -134.8217621 -2.6359780
-156.7614441 -135.0447845 -3.6505113
136.2144318 -135.0137329 -54.2009048
134.6255798 -134.7083893 -52.1668053
77.1351929 -136.1919250 -52.7675858
-114.2342072 -134.0547333 -11.6554947
-115.3044128 -133.7919159 -9.8925772
-116.3992462 -133.5495148 -8.2893696
-154.9670715 -133.1957092 -0.4764867
-156.3863068 -133.3645325 -1.3498363
-157.8098145 -133.5705872 -2.3234816
135.9324341 -133.3721924 -52.1389008
134.3839264 -133.1143951 -50.3295670
77.0210114 -134.6254120 -51.1701698
75.8048401 -134.8818970 -52.6659546
74.5847244 -135.1919708 -54.4042053
73.3474274 -135.5715637 -56.3332253
-111.7953033 -132.9307556 -12.9136047
-112.8648300 -132.5971985 -10.8854847
-113.9273453 -132.3528748 -9.1567459
-115.0121231 -132.1288147 -7.5920501
-116.1411438 -131.9281921 -6.1832581
-154.6580505 -131.6160583 1.4047606
-156.0650024 -131.7696075 0.6276171
-157.4626312 -131.9358063 -0.2355909
-158.9025879 -132.1440735 -1.2323272
137.2552338 -132.0629578 -52.2909927
135.7068481 -131.7982788 -50.4105644
134.1901093 -131.5796814 -48.7821503
74.4747314 -133.6219788 -52.8125610
73.2427826 -133.9505310 -54.5985909
-110.4628296 -131.5128021 -12.3750887
-111.5177460 -131.2144470 -10.3951321
-157.1547089 -130.3596802 1.5895422
-158.5859222 -130.5471802 0.6733013
-160.0396729 -130.7468872 -0.3384702
138.6810608 -130.8177490 -52.7632904
137.0387573 -130.5065155 -50.6419296
135.4960480 -130.2639008 -48.8883705
133.9904480 -130.0622406 -47.3807983
74.3657227 -132.1010132 -51.4207687
73.1457443 -132.3872986 -53.0722771
71.8968658 -132.7336731 -54.8968735
-109.1281509 -130.1597443 -12.1274052
-110.1900635 -129.8506775 -10.0827351
-111.2615738 -129.5919647 -8.3022423
-156.8945618 -128.8423767 3.1685381
-158.2964630 -128.9996948 2.3646154
-159.7392120 -129.1820068 1.4245739
-161.2038269 -129.3752441 0.3549852
140.1219177 -129.5897217 -53.3926773
71.8231659 -131.1669617 -53.4579849
-107.8433685 -128.8127747 -12.0075588
-108.8786469 -128.5182648 -9.9650717
-159.4656372 -127.6479492 2.9978776
-160.9293213 -127.8394241 2.0143106
-162.3701935 -128.0395813 0.9571210
-163.8485718 -128.2852478 -0.2262373
139.8688965 -128.0165863 -51.7507935
71.7442627 -129.6459351 -52.1425362
70.5190430 -129.9578400 -53.9402924
-106.5598602 -127.5146255 -12.1079464
-107.6004715 -127.2151642 -9.9966564
-108.6639557 -126.9569244 -8.1482391
-159.2519226 -126.1754227 4.3558974
-160.6884460 -126.3402710 3.4714956
-162.0855713 -126.5086060 2.5269144
-163.5346985 -126.7130432 1.4350812
-165.0510406 -126.9714050 0.1984736
141.3050232 -126.8177567 -52.5821571
139.6911316 -126.5203400 -50.3807259
71.6484985 -128.1646729 -50.9935226
70.4238586 -128.4561768 -52.7008972
69.1770401 -128.7989044 -54.5850677
-105.3100204 -126.2378845 -12.3435078
-106.3354187 -125.9268341 -10.1634636
-164.7530823 -125.4197769 1.7320155
-166.3115845 -125.6882706 0.4005859
142.7467041 -125.6369476 -53.5468483
141.1093445 -125.3035583 -51.1953201
139.5198517 -125.0348282 -49.1711426
71.5581665 -126.7109756 -49.9861221
70.3409195 -126.9815826 -51.5986328
69.1223755 -127.2829895 -53.3906441
67.8870697 -127.6306458 -55.3764267
-104.0553131 -125.0028381 -12.8179197
-105.0967331 -124.6673126 -10.4968815
-106.1477661 -124.3854446 -8.5008583
-164.5124207 -123.9283295 3.0999885
-166.0404053 -124.1620026 1.8451800
142.5504913 -124.1276398 -52.1865005
69.0477142 -125.8069458 -52.3245430
67.8283463 -126.1226349 -54.2112007
-102.8383484 -123.7756958 -13.3904800
-103.8598328 -123.4426956 -11.0292931
-164.3061829 -122.4687805 4.3269320
-165.8180084 -122.6819077 3.1533258
142.3734131 -122.6510315 -51.0005264
68.9685593 -124.3604584 -51.3830261
67.7670746 -124.6472244 -53.1543884
66.5288620 -124.9883118 -55.1461792
-101.6205368 -122.5907822 -14.1621590
-102.6498566 -122.2199554 -11.6548758
-103.6801987 -121.9277267 -9.5079641
-164.1154633 -121.0333786 5.4325371
-165.6068420 -121.2272873 4.3381252
-167.1022186 -121.4410248 3.1338820
-168.5768738 -121.6729813 1.8488872
-170.0838776 -121.9326019 0.4153914
143.8920746 -121.5205002 -52.2516975
142.2233887 -121.2060165 -49.9812279
66.4781494 -123.5140686 -54.1538773
-101.4418335 -121.0413437 -12.4863281
-169.8341217 -120.4380188 1.6817172
143.7489929 -120.0698242 -51.2520256
142.1038971 -119.7882080 -49.1139832
66.4198303 -122.0728836 -53.2855759
65.1721268 -122.4140549 -55.3478355
-100.2656708 -119.8762741 -13.4544544
-101.2954254 -119.5365906 -11.0298929
-169.6122894 -118.9807739 2.8710315
-171.2071533 -119.2530670 1.3246188
143.5961151 -118.6456604 -50.3849182
142.0028534 -118.3876190 -48.3576012
66.3609543 -120.6452789 -52.5014381
-99.0939102 -118.7431335 -14.6452732
-100.1170197 -118.3772888 -12.0607414
-101.1502304 -118.0693970 -9.7789640
-169.4339752 -117.5609207 3.8955164
-170.9858551 -117.8002167 2.4339964
145.1818085 -117.5522308 -51.9672470
143.5019836 -117.2506409 -49.6626511
141.9058533 -116.9998093 -47.6789780
66.2962494 -119.2418976 -51.8249779
-98.9567719 -117.2464142 -13.2662067
-99.9883652 -116.9100342 -10.8007307
-101.0354691 -116.6234970 -8.6505375
-169.2849426 -116.1574936 4.7974949
-170.8159027 -116.3842621 3.4270353
145.0368042 -116.1335907 -51.1844101
66.2644730 -117.8350296 -51.1811790
65.0302429 -118.1290741 -53.0464478
63.8220749 -118.4481125 -55.0977097
-97.7983475 -116.1412277 -14.6355162
-98.8283768 -115.7769165 -12.0233240
-169.1399841 -114.7656708 5.6166382
-170.6700745 -114.9857788 4.3081789
146.6586151 -115.0763016 -53.0120392
144.9599915 -114.7570572 -50.5790024
66.2231750 -116.4504623 -50.6464577
64.9792175 -116.7370758 -52.4782791
63.7776566 -117.0420532 -54.4639931
62.5503540 -117.3902130 -56.6717873
-97.6782150 -114.6729431 -13.4336243
-98.7134552 -114.3442230 -10.9458027
-168.9973450 -113.3868561 6.3646083
-170.5116119 -113.5915833 5.1149054
146.5252686 -113.6820526 -52.3770332
144.8745117 -113.3891144 -50.0332985
63.7369728 -115.6481934 -53.8931961
-96.5434494 -113.5994263 -15.0510759
-97.5723877 -113.2341156 -12.3649044
-98.6186218 -112.9225311 -9.9887753
-168.8706970 -112.0207748 7.0331988
-170.3757629 -112.2209778 5.8298116
-171.9254761 -112.4446411 4.4777541
-173.4354553 -112.6766968 3.0542099
146.4799805 -112.3268280 -51.9428368
144.7802124 -112.0249252 -49.5494385
63.7065964 -114.2665558 -53.4089050
-96.4584351 -112.1534576 -14.0009365
-97.4813461 -111.8163986 -11.4253130
-98.5297241 -111.5269165 -9.1679249
-168.7673340 -110.6699066 7.6156406
-170.2779083 -110.8680115 6.4338737
-171.8031311 -111.0778580 5.1426849
-173.3061066 -111.2978821 3.7689102
146.3851776 -110.9649429 -51.4859695
144.7498474 -110.6918869 -49.2373962
63.6771393 -112.8989716 -53.0194550
62.4352417 -113.2102966 -55.0517731
-95.3406448 -111.1194153 -15.9127388
-96.3651428 -110.7438278 -13.1035223
-171.6794434 -109.7175980 5.7557464
-173.1783447 -109.9299774 4.4202719
-174.7044373 -110.1678772 2.9581709
146.3239594 -109.6226349 -51.1439171
144.7049713 -109.3637695 -48.9565735
63.6516953 -111.5416870 -52.6855011
62.4041138 -111.8394165 -54.6653671
-95.2664642 -109.6968689 -14.9931889
-96.2833633 -109.3491287 -12.3006516
-171.6111298 -108.3850250 6.2559738
-173.0732269 -108.5835266 4.9860687
-174.5699768 -108.8046722 3.5727057
147.9783325 -108.5953903 -53.3507996
146.2749634 -108.2907181 -50.8704147
144.6603546 -108.0351868 -48.7138901
63.6206284 -110.1926270 -52.4148903
-95.1962280 -108.2947235 -14.1814308
-96.2165298 -107.9697723 -11.5962763
-174.4694366 -107.4564209 4.1116662
-176.0556793 -107.7067261 2.5303900
147.9434204 -107.2690582 -53.1383247
146.2436981 -106.9735641 -50.6925926
144.6190186 -106.7213364 -48.5516548
63.6083336 -108.8505783 -52.1942902
-94.0981903 -107.2884674 -16.3682880
-95.1200714 -106.9247360 -13.5262022
-96.1444626 -106.6156464 -11.0346260
-174.3885193 -106.1216583 4.5696759
-175.9488831 -106.3581009 3.0349898
147.8930969 -105.9471512 -52.9737854
106.7104492 -103.7416077 -29.9606171
105.4224548 -103.7659760 -29.9357624
66.0615692 -107.0283813 -48.6970520
64.8096848 -107.2697906 -50.3311958
63.5716362 -107.5268936 -52.0881081
-94.0479889 -105.9057846 -15.6913261
-174.3152466 -104.7989120 4.9663239
-175.8521423 -105.0220108 3.4800508
-177.4983215 -105.2873383 1.7896446
147.8632660 -104.6388550 -52.9028893
106.7206116 -102.4795456 -30.0071106
105.3940887 -102.4959717 -29.9437523
66.0423660 -105.7179565 -48.6580772
64.8040466 -105.9510040 -50.2606812
63.5820885 -106.2009201 -51.9817886
-94.0087738 -104.5398102 -15.1208200
-174.2464905 -103.4787750 5.3129387
-175.7835846 -103.6990280 3.8538165
147.8426666 -103.3410339 -52.9156647
111.9867401 -101.1549683 -30.4426460
110.6670532 -101.1684113 -30.3202000
66.0361099 -104.4098358 -48.6485291
64.7979584 -104.6395264 -50.2442093
-93.9658203 -103.1924286 -14.6637135
-174.2028351 -102.1748734 5.5785069
-175.7153320 -102.3831711 4.1632266
-177.3495026 -102.6336517 2.5133486
147.8754272 -102.0576477 -53.0272827
111.9885101 -99.9032059 -30.5945511
110.6577454 -99.9085083 -30.4452515
66.0354767 -103.1076431 -48.6834259
64.7859879 -103.3362885 -50.2837830
-92.9072418 -102.2327194 -17.3381310
-93.9235077 -101.8629227 -14.3123579
-174.1652069 -100.8784714 5.7797537
-175.6852570 -101.0856094 4.3731956
-177.2806396 -101.3217087 2.7692406
147.8686066 -100.7732773 -53.1397591
66.0272446 -101.8132477 -48.7790680
64.7880707 -102.0350952 -50.3513031
-92.8569183 -100.8960876 -16.9576149
-93.8926392 -100.5419922 -14.0275211
-177.2472076 -100.0210648 2.9752004
147.9268951 -99.5087585 -53.4305725
66.0213165 -100.5244370 -48.9222984
64.7805023 -100.7440033 -50.4946175
-93.8726196 -99.2304535 -13.8167496
-177.2069397 -98.7241058 3.1412654
147.9321899 -98.2450409 -53.7162132
66.0295715 -99.2394562 -49.1045380
64.7911682 -99.4596558 -50.6940155
-93.8575287 -97.9311600 -13.6877232
-177.1847382 -97.4411087 3.2112455
-178.7978516 -97.6829910 1.5086552
147.9896851 -96.9973221 -54.1494637
66.0408859 -97.9608231 -49.3379326
64.8134155 -98.1812286 -50.9427223
-92.8297729 -96.9644928 -16.4575768
-93.8471985 -96.6418228 -13.6409264
-177.1748352 -96.1628494 3.2383497
-178.7787781 -96.4002457 1.5380545
148.0566864 -95.7530975 -54.6400681
146.3314819 -95.4847794 -52.1067276
144.7091675 -95.2554779 -49.9577980
66.0423279 -96.6873627 -49.6301880
64.8113861 -96.9044342 -51.2276917
-92.8364258 -95.6771545 -16.4612122
-93.8623352 -95.3531723 -13.6059990
-177.1709900 -94.8913651 3.2185183
-178.7701721 -95.1245499 1.5262656
146.3888855 -94.2481766 -52.6162720
144.7715149 -94.0177078 -50.4459801
66.0451889 -95.4188232 -49.9633789
64.8108292 -95.6298981 -51.5365067
-92.8418884 -94.3952026 -16.5103016
-93.8590927 -94.0827103 -13.7153540
-177.1835938 -93.6279602 3.1320851
-178.7762756 -93.8572998 1.4472656
148.2198944 -93.2858810 -55.8465805
146.4889069 -93.0221100 -53.2567062
144.8357544 -92.7866135 -51.0005226
66.0809708 -94.1531448 -50.3194542
64.8188629 -94.3648987 -51.9428329
-92.8296585 -93.1229553 -16.6412010
-93.8706055 -92.8191986 -13.8890800
-177.2214203 -92.3727875 2.9752104
-178.8077698 -92.5982513 1.2999070
146.5621490 -91.7991486 -53.9105530
144.9008331 -91.5626831 -51.6109695
66.0922394 -92.8947067 -50.7731667
64.8467941 -93.1065292 -52.3963280
63.6155472 -93.3325806 -54.1664314
-92.8395920 -91.8536301 -16.7979507
-93.8909912 -91.5624008 -14.1236906
-177.2328796 -91.1185760 2.8046594
146.6817627 -90.5853958 -54.7176285
144.9883270 -90.3433380 -52.3083191
63.6447105 -92.0783386 -54.6903496
-92.8819580 -90.6067352 -17.1750889
-93.9350204 -90.3076706 -14.3697357
-177.2825012 -89.8735123 2.5519361
146.7732849 -89.3769989 -55.5325851
145.0756683 -89.1343307 -53.0839043
63.6676674 -90.8299255 -55.2900887
62.4426193 -91.0707703 -57.2506943
-92.9575043 -89.3674088 -17.5746059
-93.9742889 -89.0641785 -14.7272882
-177.3339844 -88.6345367 2.2472670
146.9308624 -88.1721191 -56.5215530
145.1923981 -87.9288635 -53.9716759
63.7089386 -89.5865479 -55.9337196
62.4753265 -89.8318024 -57.9721375
-92.9866486 -88.1334305 -18.0847149
-94.0199127 -87.8280258 -15.1584730
-177.3814697 -87.3999023 1.8974426
-179.0284424 -87.6165619 0.1696966
145.2984619 -86.7363510 -54.9130707
63.7444077 -88.3515015 -56.6720047
62.5133743 -88.5997620 -58.7637711
-94.0693970 -86.5998917 -15.6630707
-177.4766235 -86.1721802 1.4559981
145.4685974 -85.5536804 -56.0679626
143.7696533 -85.3231583 -53.6575699
142.1762848 -85.1246643 -51.6311035
63.7887383 -87.1207352 -57.4945297
62.5413666 -87.3657532 -59.6457901
-94.1289368 -85.3809891 -16.2724133
-177.5758057 -84.9524612 0.9448179
143.9039612 -84.1389618 -54.7291832
142.2981720 -83.9361954 -52.6225395
63.8218231 -85.8966217 -58.4163704
-94.1831589 -84.1672058 -16.9647827
-177.6691132 -83.7363434 0.3960818
144.0821838 -82.9614487 -55.9795761
142.4240112 -82.7551575 -53.7169609
66.3390808 -84.2238998 -55.4913101
65.1056824 -84.4427338 -57.3429565
63.8731194 -84.6732864 -59.3681641
-94.2563477 -82.9611969 -17.7502670
-95.2779007 -82.6946945 -15.0484200
-96.3260803 -82.4570313 -12.6310129
-174.6561737 -82.1437607 2.8965447
-176.2040253 -82.3268433 1.4146785
-177.7807617 -82.5240936 -0.2151067
144.2394104 -81.7897491 -57.2771072
142.5821533 -81.5809402 -54.9501610
66.3933640 -83.0096283 -56.4424438
65.1500092 -83.2279663 -58.3642845
-95.3683472 -81.4944916 -15.8214445
-96.3948669 -81.2544403 -13.3924704
-174.7558289 -80.9356842 2.2905855
-176.3237305 -81.1204910 0.7637208
142.7505341 -80.4186707 -56.3014450
141.1291504 -80.2225113 -54.1400070
139.5652161 -80.0476685 -52.2863197
66.4460678 -81.7978745 -57.4947662
65.2042236 -82.0126190 -59.4600143
-94.4192123 -80.5646591 -19.5876999
-95.4574585 -80.3012848 -16.7266216
-96.4805374 -80.0552521 -14.2197037
-174.8988953 -79.7335892 1.5894659
-176.4437256 -79.9172287 0.0648366
142.9475250 -79.2625961 -57.8255310
141.3207245 -79.0599670 -55.5602646
139.7257080 -78.8751831 -53.5524864
66.5182343 -80.5959015 -58.6140747
-95.5463867 -79.1145782 -17.7383957
-96.5806351 -78.8667374 -15.0897512
-175.0118713 -78.5352402 0.8613476
-176.5982666 -78.7153931 -0.7266621
141.5063629 -77.9078140 -57.0684586
139.8621979 -77.7177200 -54.8884888
69.0258026 -78.9946899 -56.2442169
67.7875519 -79.1874924 -57.9993553
66.5545044 -79.3908844 -59.9109573
-96.6897430 -77.6815796 -16.0709419
-172.1179810 -77.0148544 2.8130207
-173.6292877 -77.1715927 1.4974045
-175.1731873 -77.3439713 0.0258167
141.7553864 -76.7542114 -58.8215599
140.0473633 -76.5698547 -56.4231491
69.0961151 -77.7959900 -57.4599304
67.8569641 -77.9934921 -59.2920151
-96.7915955 -76.5051575 -17.2024002
-172.2614441 -75.8233185 1.9991466
-173.7626648 -75.9814758 0.6581278
-175.3380280 -76.1522369 -0.8702033
140.2961121 -75.4149780 -58.1750031
138.6518860 -75.2456741 -56.0295258
137.0749359 -75.0845261 -54.1968460
69.1806641 -76.6047897 -58.7711792
67.9515839 -76.8088150 -60.6690407
-96.9348831 -75.3449707 -18.4443169
-97.9428101 -75.1013489 -15.8185930
-98.9807587 -74.8910675 -13.5214596
-172.4084778 -74.6380157 1.1200782
-173.9386902 -74.7994919 -0.2863380
138.8715210 -74.0970840 -57.7555122
137.2619934 -73.9364471 -55.8020554
69.2640610 -75.4221268 -60.2257004
-97.0537949 -74.1809921 -19.8506184
-98.0792770 -73.9393311 -17.0436058
-99.1009521 -73.7203598 -14.6794500
-172.5923767 -73.4564362 0.1438352
-174.1206360 -73.6211700 -1.3057182
139.1264801 -72.9491043 -59.6863480
137.4924316 -72.8032990 -57.5984268
135.9240570 -72.6523819 -55.7379227
134.3791809 -72.5132599 -54.1002502
71.7900085 -73.8709564 -58.2833710
70.5686951 -74.0545502 -59.9582214
69.3590469 -74.2508621 -61.8177872
-98.2258606 -72.7849808 -18.4531422
-99.2451248 -72.5609055 -15.9621983
-169.7620850 -71.9922028 1.6819594
-171.2497253 -72.1294708 0.4686083
-172.7601776 -72.2833099 -0.8837764
-174.3227081 -72.4480515 -2.4105835
137.7453156 -71.6509857 -59.5489464
136.1521912 -71.5184174 -57.5946960
134.5906067 -71.3649292 -55.8144760
71.8868408 -72.7010956 -59.8394356
70.6790314 -72.8878250 -61.6154633
-99.4010925 -71.4087219 -17.3417912
-169.9365387 -70.8144226 0.6596366
-171.4303436 -70.9553223 -0.6043308
-172.9824219 -71.1084824 -2.0487509
136.4261627 -70.3833313 -59.7033920
134.7837830 -70.2441406 -57.6419373
133.2329712 -70.1000748 -55.9251022
131.7073212 -69.9850769 -54.4775620
74.4559784 -71.1927032 -58.2851257
73.2356720 -71.3588104 -59.8128815
72.0062103 -71.5403519 -61.5778580
-99.5395126 -70.2530823 -18.9130268
-100.5824356 -70.0532074 -16.4252071
-101.6323471 -69.8603210 -14.2257481
-170.1413727 -69.6435852 -0.4680204
-171.6270905 -69.7910233 -1.7716777
135.0850525 -69.1087189 -59.8347321
133.4623413 -68.9808578 -57.9153519
131.9215088 -68.8546677 -56.3116684
74.5728989 -70.0291443 -59.9542198
73.3381958 -70.1966400 -61.6405182
72.1348572 -70.3851013 -63.4672737
-99.7014923 -69.1070023 -20.6591206
-100.7506332 -68.9103699 -18.0083923
-101.7822495 -68.7134247 -15.6894798
-170.3587494 -68.4790573 -1.6900253
-171.8683472 -68.6286087 -3.0741215
133.7359467 -67.8517456 -60.1472473
132.1563721 -67.7262878 -58.3612823
79.6571198 -68.3059082 -56.2830505
78.4070587 -68.4261246 -57.4931793
77.1637878 -68.5685501 -58.7838745
75.9206696 -68.7072601 -60.2385941
74.7095871 -68.8719635 -61.8131142
73.4755402 -69.0452957 -63.6316414
-100.8990784 -67.7522888 -19.7721062
-101.9605560 -67.5708313 -17.2938557
-103.0184021 -67.3875198 -15.0757771
-104.0772705 -67.2227478 -13.1353712
-167.5847778 -67.0535202 -0.4961860
-169.0722351 -67.1795883 -1.6844321
-170.5867004 -67.3227692 -3.0131450
-172.1212616 -67.4698181 -4.4750166
132.4373779 -66.6209183 -60.6632309
79.7837372 -67.1383972 -57.9752083
78.5379639 -67.2630157 -59.2496605
77.2919006 -67.4122238 -60.6266212
76.0759506 -67.5698395 -62.1722641
74.8445358 -67.7413330 -63.9298439
-102.1570435 -66.4440002 -19.0613327
-103.1986847 -66.2566757 -16.7267342
-104.2415390 -66.0815277 -14.6659021
-167.8058319 -65.8950348 -1.7932006
-169.3047485 -66.0267334 -3.0479410
-170.8486938 -66.1657791 -4.4682837
132.7689972 -65.5066376 -63.3388252
131.1950684 -65.4039459 -61.4640427
129.6773071 -65.2665863 -59.8289490
128.1220856 -65.1555099 -58.2734184
126.6127396 -65.0613098 -56.9551315
125.1430740 -64.9885101 -55.8296661
123.7153015 -64.9175491 -54.8756943
79.9207001 -65.9835968 -59.8272896
78.6631546 -66.1112442 -61.2215729
-103.3793182 -65.1175156 -18.5598507
-104.4381485 -64.9470444 -16.3120346
-168.0540466 -64.7405396 -3.2194111
-169.5673523 -64.8752060 -4.5412946
129.9686890 -64.1811523 -62.4427223
128.3687592 -64.0650177 -60.6186028
126.8654099 -63.9436760 -59.1759796
125.3818665 -63.8564224 -57.9575310
123.9478989 -63.7811241 -56.8915863
80.0519638 -64.8299255 -61.9555817
78.8286133 -64.9676437 -63.3907204
-104.6378021 -63.8110809 -18.1841564
-168.3281555 -63.5922852 -4.7764673
125.6434937 -62.7578964 -60.3294792
124.1811676 -62.6736794 -59.1242905
85.2305298 -63.2181244 -59.3190193
83.9584579 -63.3289795 -60.3697052
82.7137222 -63.4420357 -61.5417671
81.4767838 -63.5692749 -62.8289795
80.2175598 -63.6900330 -64.3075714
-104.8434525 -62.6758041 -20.3211288
-105.9123840 -62.5320396 -18.0079403
-106.9657593 -62.3778343 -15.9839764
-165.6064911 -62.2006607 -3.9103954
-167.1010284 -62.3234138 -5.1300783
-168.6223907 -62.4498978 -6.4902034
125.9672775 -61.6685600 -63.1363602
124.4869537 -61.5682259 -61.8120575
85.3870468 -62.0774345 -61.5297699
84.1373291 -62.1961021 -62.6660156
82.9080811 -62.3212547 -63.9706650
-106.1234436 -61.3876495 -20.2234116
-107.1954041 -61.2605667 -18.0231686
-165.9042664 -61.0619812 -5.6172290
-167.4145813 -61.1886253 -6.9327030
126.3768387 -60.5802193 -66.5177307
124.8172073 -60.5137253 -64.8345032
123.2829819 -60.4085922 -63.3495941
121.7878265 -60.3198013 -62.0736732
120.3210144 -60.2469406 -61.0578308
118.8999557 -60.1918106 -60.1555901
90.6572723 -60.5776901 -60.1931267
89.3716431 -60.6560936 -61.0197144
88.1059723 -60.7507172 -61.8880386
86.8429260 -60.8537064 -62.8800926
85.5841141 -60.9610558 -64.0273361
84.3341904 -61.0750847 -65.3068390
-107.4223251 -60.1311188 -20.3412476
-108.5058365 -59.9982414 -18.1170444
-109.5814743 -59.8554802 -16.1690655
-160.3795166 -59.5064125 -3.2375331
-161.8069458 -59.5981407 -4.1181612
-163.2495422 -59.6999016 -5.0992093
-164.7331543 -59.8084641 -6.2391319
-166.2273407 -59.9304581 -7.5146275
122.1744690 -59.2044449 -65.1696320
120.6442108 -59.1729317 -64.0049744
119.1944733 -59.1130333 -62.9587898
90.8530960 -59.4533081 -62.6728897
89.5776367 -59.5414429 -63.5539970
88.3302689 -59.6407967 -64.5144653
87.0654984 -59.7452087 -65.6588821
85.8091049 -59.8567162 -66.9445038
-108.7527237 -58.8729897 -20.5147018
-109.8420563 -58.7502823 -18.3810387
-160.6471405 -58.3706932 -4.9149737
-162.1020355 -58.4591179 -5.8920093
-163.5619354 -58.5675354 -6.9669628
-165.0639038 -58.6844902 -8.2060452
121.0753021 -58.0830917 -67.6485672
119.5461349 -58.0578613 -66.3031921
118.0980759 -57.9887466 -65.2124100
116.6139069 -57.9422264 -64.2349701
115.1913605 -57.8814621 -63.5189400
113.7662048 -57.8506622 -62.8161469
112.3825531 -57.8194046 -62.2723083
110.9873047 -57.7965775 -61.8543167
96.2319336 -58.0603638 -62.6556396
94.9304047 -58.1177521 -63.2109032
93.6580582 -58.1854057 -63.8617554
92.3715210 -58.2682381 -64.6301193
91.0960999 -58.3560257 -65.5025024
-110.1147385 -57.6412964 -20.9435959
-111.1698990 -57.5052795 -18.8596096
-112.2385559 -57.3736992 -17.0241470
-160.9657288 -57.2319183 -6.8004804
-162.4381256 -57.3303642 -7.8727837
117.0286407 -56.8356018 -67.9419022
115.5615540 -56.8090630 -66.9871750
114.1213913 -56.7967834 -66.1676254
112.7097168 -56.7726936 -65.4726181
111.2921906 -56.7385063 -64.9296951
96.4905548 -56.9668808 -65.6759720
95.2035217 -57.0460129 -66.2624664
93.9242477 -57.1233597 -67.0104065
92.6436081 -57.1903839 -67.9394608
-112.5286179 -56.2691727 -19.4660301
-161.3109131 -56.1121330 -8.9009762
113.1409912 -55.6849861 -69.5073090
111.6985092 -55.6435661 -68.8175125
110.2651062 -55.6500549 -68.2851944
108.8721390 -55.6698151 -67.8601379
107.4991608 -55.6656380 -67.5332565
106.1355133 -55.6758347 -67.3569641
102.0770645 -55.7258415 -67.5504074
100.7645340 -55.7619934 -67.7751541
99.4405670 -55.8116188 -68.1807327
98.1127243 -55.8596344 -68.7333908
96.8208771 -55.9082832 -69.3129120
95.5568237 -55.9648895 -70.1133728
-112.8537750 -55.1646233 -22.4184494
-113.9368820 -55.0799942 -20.3409882
-115.0165939 -54.9469032 -18.5287781
-116.0964966 -54.8299408 -16.9311485
-117.2119293 -54.7320633 -15.4634914
-158.7879944 -54.8091278 -9.1336012
-160.2411957 -54.9035759 -10.1574564
-161.7075043 -55.0020523 -11.3065863
106.5802307 -54.6260033 -71.9031830
102.4929047 -54.6725578 -72.0200729
101.1901398 -54.7119522 -72.2765427
-114.2861252 -53.9811783 -23.6006813
-115.3534851 -53.8747177 -21.4303532
-116.4311218 -53.7547417 -19.5901070
-117.5285797 -53.6414566 -17.9625340
-159.1743469 -53.6929092 -11.5532703
-116.7902222 -52.6562958 -22.8621750
-117.8934937 -52.5847244 -20.9086666
-118.9736176 -52.4687462 -19.2839737
-120.0828247 -52.3672638 -17.8315907
-121.2121582 -52.2751465 -16.5633621
-122.3507004 -52.2049332 -15.4041481
-151.1175079 -52.1465034 -9.4130745
-152.4685669 -52.2069550 -9.9341068
-153.8668365 -52.2720337 -10.5840931
-155.2743378 -52.3455811 -11.3457251
-156.6988220 -52.4305611 -12.2019110
-158.1483459 -52.4964447 -13.1881447
-120.4665680 -51.3064079 -20.9114647
-121.5741272 -51.2141418 -19.4307938
-122.7065735 -51.1328354 -18.1053047
-151.4898224 -51.0442429 -11.8621721
-152.8684845 -51.1109467 -12.4850044
-154.2887268 -51.1826401 -13.2527046
-155.7245026 -51.2431221 -14.1392574
-122.0044708 -50.1282272 -22.9827728
-123.1208038 -50.0711212 -21.3844490
-124.2346802 -49.9951057 -20.0478096
-125.3761368 -49.9311523 -18.8286800
-126.5279083 -49.8585587 -17.8139267
-127.7024384 -49.8016891 -16.8643265
-143.8382416 -49.6925583 -12.3798103
-145.1525574 -49.7179184 -12.5639219
-146.4704590 -49.7564163 -12.7998543
-147.8157654 -49.7946396 -13.1335545
-149.1816864 -49.8364334 -13.5847378
-150.5292969 -49.9001694 -14.0951290
-151.9300079 -49.9579353 -14.7406101
-153.3432312 -50.0153465 -15.4878006
-125.8326340 -48.8604202 -22.4276581
-126.9830399 -48.8201523 -21.2049942
-128.1326141 -48.7601814 -20.1015015
-144.2618561 -48.6058044 -15.2360325
-145.5923157 -48.6345139 -15.4875650
-146.9228973 -48.6733932 -15.7946844
-148.2851257 -48.7089424 -16.2107010
-149.6594849 -48.7599869 -16.7599907
-128.6457825 -47.6847801 -24.2633305
-129.8051300 -47.6271286 -23.0672188
-130.9750061 -47.6244812 -22.0606194
-132.1687775 -47.5805435 -21.2447662
-133.3693542 -47.5459747 -20.4901924
-134.5806885 -47.5179176 -19.8959923
-135.8050232 -47.4962959 -19.4049225
-137.0332947 -47.4867363 -19.0161247
-138.3066711 -47.4754677 -18.7596741
-139.5603638 -47.4839096 -18.5360165
-140.8548126 -47.4935532 -18.4083958
-142.1472168 -47.5065384 -18.4128914
-143.4407043 -47.5284996 -18.5004272
-144.7643127 -47.5576096 -18.7023392
-146.1095886 -47.5818329 -19.0409145
-133.9743500 -46.5023422 -25.2129974
-135.1763306 -46.4730988 -24.4357986
-136.3831482 -46.4387207 -23.8176880
-137.6349335 -46.4292221 -23.3303719
-138.8938904 -46.4175453 -23.0069008
-140.1591492 -46.4173927 -22.7997570
-141.4451294 -46.4258461 -22.6934052
108.6032028 -151.9533997 -62.4855881
108.3407745 -150.7200623 -59.6687737
107.6429596 -150.7614899 -59.5873222
106.9820251 -150.8021240 -59.5642052
106.3161469 -150.8274536 -59.5580330
105.6308517 -150.8526917 -59.5945778
104.9748993 -150.8656006 -59.6161728
104.2976990 -150.9196320 -59.7700691
103.6325378 -150.9526672 -59.8680382
102.9745865 -151.0064850 -60.0620346
102.3433456 -151.0603180 -60.2760658
101.7030029 -151.1287689 -60.5618019
101.0447845 -151.2046814 -60.8874474
100.3928070 -151.2697144 -61.1594315
99.7455978 -151.3520660 -61.5455551
99.1037292 -151.4433746 -62.0121727
115.6186447 -149.0323639 -58.2344704
114.8781204 -148.9035034 -57.7815781
111.3758316 -148.7359161 -56.3830719
110.6712952 -148.6851349 -56.1177826
95.5188751 -149.7308197 -59.5533905
94.8724594 -149.8947449 -60.1636124
119.0037308 -148.3697815 -58.7042847
92.8449707 -149.2446899 -59.8515892
121.8700485 -147.7418823 -59.3584404
120.9963379 -147.6298065 -58.5894356
120.2652893 -147.5440979 -57.9853592
119.5164032 -147.4151611 -57.3379288
118.7825546 -147.3119812 -56.7627831
92.7021255 -148.1750946 -57.9380875
92.0721741 -148.3235779 -58.5086136
91.4423981 -148.4894409 -59.1934509
90.8161774 -148.6451263 -59.9375572
88.8208084 -148.0939789 -60.2409019
122.8406525 -145.9462280 -56.9102936
88.6767654 -147.0593719 -58.4304695
88.0611725 -147.2400360 -59.1589241
87.4578934 -147.4136505 -59.9330368
124.1146622 -145.1647491 -56.4964676
87.3038712 -146.4313660 -58.2414551
126.2732010 -144.6863403 -57.4783707
125.4623413 -144.5039825 -56.5064545
124.6944275 -144.3677979 -55.7093124
123.9634171 -144.2686310 -55.0411186
87.2004318 -145.4674683 -56.6486053
86.5479736 -145.6776886 -57.4082069
-135.8311768 -144.0915680 -15.9673176
-136.4298553 -144.0561066 -15.7048798
-132.9718628 -143.0895538 -14.2604589
-139.7881622 -142.7963257 -12.1185274
-143.7476501 -143.0948944 -12.7594204
127.4165344 -143.0503540 -55.8158112
126.6099777 -142.8729553 -54.9503326
84.4986649 -144.2579498 -56.7483673
83.8744202 -144.4557037 -57.5945206
-129.1504822 -142.4012756 -14.6177120
-129.7161713 -142.3240814 -14.0477085
-130.2823944 -142.2352142 -13.5013847
-130.8679352 -142.1629791 -13.0312157
-131.4475250 -142.0873718 -12.6140184
-132.0337067 -141.9974670 -12.2276878
-132.6248016 -141.9151917 -11.8457184
-139.4551392 -141.7591248 -9.9470854
-142.6903534 -141.8808289 -10.1891651
-143.3821716 -141.9664001 -10.3648510
-144.0647583 -142.0630188 -10.5418854
-144.7330170 -142.1290131 -10.7288332
-145.4152527 -142.1764221 -10.9348612
-146.1254578 -142.2518921 -11.2482500
-147.1614990 -141.3637848 -9.6844301
130.2081909 -141.8137207 -56.5794258
129.3905945 -141.6195374 -55.5361633
128.5878906 -141.4548187 -54.5816689
127.8085632 -141.3229065 -53.7476654
81.8573608 -143.1332092 -57.3898315
81.2423401 -143.3193359 -58.3067970
80.6364594 -143.5024109 -59.2754593
-125.1641464 -140.8393402 -13.9259281
-146.8310547 -140.3227234 -7.7811093
-147.5442810 -140.4531555 -8.0869761
130.7418976 -140.9938812 -55.9675636
80.5532913 -142.5597839 -57.8219986
-150.7825470 -139.9033966 -8.1647663
-151.4854889 -139.9987946 -8.6269979
132.1914825 -140.4661713 -56.6406441
131.3556366 -140.2655792 -55.5739059
130.6023560 -140.1246338 -54.6775093
80.4600449 -141.6662140 -56.5405312
79.8211365 -141.8964691 -57.4585075
-121.8644791 -139.4609985 -13.6000271
-122.4216690 -139.2846680 -12.8005953
-150.4825134 -138.8807526 -6.4724202
131.9986572 -139.5256805 -55.2094650
79.1202164 -141.1991119 -57.1324005
-121.0999680 -138.5885468 -12.5677967
-150.2292328 -137.9607239 -4.9526167
132.6420441 -138.8289185 -54.9192390
131.8175659 -138.6460724 -53.9086342
79.0626831 -140.3094025 -55.9795418
78.4533539 -140.4754639 -56.8517838
77.8236465 -140.6931152 -57.8658104
-118.7342224 -138.2119598 -14.2897625
-119.2766190 -138.0254059 -13.2898035
-119.8090439 -137.8958435 -12.4626036
-120.3615189 -137.7463074 -11.6382761
-120.9113159 -137.6172180 -10.8917341
-150.0265350 -137.1145172 -3.6208198
-150.7504578 -137.1986389 -3.9717143
-154.2939758 -137.6846161 -6.0649676
133.2721252 -138.0995789 -54.6254005
-117.4422684 -137.5436859 -14.3450251
134.7978668 -137.5937805 -55.5945892
133.9231262 -137.3486023 -54.3901596
133.1154480 -137.2361298 -53.4451180
76.4574203 -139.3327942 -57.4217758
-116.7161560 -136.7141113 -13.5604343
-117.2575684 -136.5349884 -12.6069632
-156.7180023 -136.3162537 -5.3320522
-157.5141296 -136.4879456 -6.0187788
76.4149704 -138.4411621 -56.3000298
136.0380859 -136.2104340 -55.3547783
-114.7420883 -135.3200226 -13.3027086
-157.7559357 -134.8091278 -3.8133001
-158.5099945 -134.9604950 -4.4138432
-113.5067902 -134.7855682 -13.9030962
-159.0407410 -134.2178955 -3.7493534
137.3626099 -134.8769531 -55.3192863
76.1995850 -135.9980469 -53.4739990
75.6042480 -136.1370697 -54.3000755
74.9738770 -136.3140564 -55.2684135
74.3437805 -136.5104828 -56.2537537
73.7386093 -136.7026825 -57.1847572
-112.8062744 -134.0472412 -13.5035200
-113.3519592 -133.8589020 -12.4412069
-158.8256836 -133.3419952 -2.5583630
-160.1224365 -132.7473450 -2.6359050
137.0532227 -133.2001495 -53.1552811
72.3809738 -135.4718170 -57.4515724
-110.9438629 -132.7384338 -13.7830744
-159.8910522 -131.8761902 -1.5102140
-162.0166168 -131.4501801 -2.3780639
-162.7852783 -131.6173096 -3.0403671
139.3191223 -132.1322021 -54.7291145
138.4333496 -131.9156952 -53.4862213
72.2526855 -133.8595428 -55.6144753
-109.5791168 -131.3565674 -13.4134779
-161.0939178 -130.5229492 -0.7589147
-161.8203430 -130.6205902 -1.3355587
-162.5784607 -130.7639313 -1.9756159
70.9373627 -132.6211243 -55.9998131
70.3296356 -132.8098297 -57.0300560
-107.7474899 -130.2120972 -14.4393530
-108.2874908 -129.9872131 -13.1677046
70.9255676 -131.7987518 -55.2060852
-107.1168365 -129.5409698 -14.4060707
70.8672714 -131.0452881 -54.5447693
70.2584763 -131.2497864 -55.5578041
-106.4750748 -128.8742981 -14.4230251
-107.0065231 -128.6572876 -13.1490870
-164.8956757 -128.0934143 -0.7063760
141.1699677 -128.6623688 -53.8996658
69.5703735 -130.6485596 -55.7613602
-105.8554993 -128.2103271 -14.4401579
141.8916473 -128.0691223 -54.3401985
141.0578461 -127.8807602 -53.1135864
69.5359421 -129.8577576 -55.0515327
-105.2223129 -127.5726089 -14.5668201
-105.7390747 -127.3710632 -13.3099737
-166.1611023 -126.8032913 -0.4285208
142.6211853 -127.4881592 -54.8231316
-104.5726318 -126.9619904 -14.8091688
142.4897003 -126.6920395 -54.0173302
68.2134933 -128.7033386 -55.7855453
-103.9517288 -126.3231201 -14.9871931
-104.4656677 -126.1170044 -13.7032347
-167.4281921 -125.5104599 -0.3027311
-168.1845856 -125.6595306 -1.0497339
-167.2650604 -124.7358246 0.4594426
144.0415802 -125.5789337 -55.2416916
-102.7068024 -125.1290131 -15.6236000
-103.2414398 -124.8747559 -14.1784639
143.8746033 -124.7736206 -54.4128342
66.9154129 -126.7700577 -56.0108643
66.2871475 -126.9682007 -57.1147156
144.6880646 -124.2431259 -55.1472664
143.7331238 -123.9996948 -53.6534348
66.8805084 -126.0137634 -55.4463768
-101.9988251 -123.6964798 -14.9382935
-166.8766174 -122.4753265 2.5575802
-167.6259460 -122.5948868 1.9130249
-168.3812714 -122.7229004 1.2293367
143.6625824 -123.2655640 -53.0406647
144.4298706 -122.6973190 -53.6739769
143.5942688 -122.5335159 -52.4810562
65.5412292 -124.1597519 -55.9759827
64.9085007 -124.3553009 -57.1054649
-100.6995087 -121.7267227 -14.8460169
145.1900177 -121.4387054 -53.8913040
65.5411606 -123.4102936 -55.4598312
-170.9910126 -120.2927017 0.8193291
-171.8364258 -120.4661484 -0.0253743
145.0332336 -120.6476822 -53.1971664
-172.5293427 -119.8708191 -0.2827420
-173.3678741 -120.0351105 -1.1973449
144.9575195 -119.9079361 -52.6727142
-99.4522552 -119.7905502 -15.0838165
-172.3650513 -119.1019287 0.3495220
145.8092804 -119.3564224 -53.4275398
144.9549408 -119.2598419 -52.3781281
65.4551468 -121.2379150 -54.1690941
145.7585907 -118.7143936 -53.2431030
144.8448334 -118.5287628 -51.9402237
65.4254990 -120.5238953 -53.7791100
65.4100342 -119.8059235 -53.3852806
-98.1888046 -117.9406662 -15.7223997
146.4249420 -117.4415207 -53.5923424
65.3774948 -119.1076279 -53.0462570
63.5216599 -119.5791855 -56.2236214
62.9022903 -119.8044205 -57.3591003
-98.1508560 -117.1529465 -14.9298229
146.4192200 -116.7599106 -53.2999268
62.9057465 -119.0706482 -56.9421806
-171.8689728 -115.5133209 3.0177040
-172.6567535 -115.6502151 2.2292681
146.2932129 -116.0294342 -52.8436203
62.8775673 -118.3655319 -56.6227531
62.2411118 -118.5664291 -57.8396339
61.6268044 -118.7616348 -59.0756607
-171.7922516 -114.8152161 3.4416940
-96.9391174 -115.2703171 -15.6865320
-171.6849213 -114.1006622 3.8934107
-96.8767929 -114.5875626 -15.1706705
-171.6602173 -113.4220657 4.2608938
-172.4050140 -113.5358429 3.5801668
-173.1671600 -113.6566544 2.8468909
-173.9002380 -113.7708588 2.1175876
62.8311272 -116.2376251 -55.5908318
-174.6448669 -113.2275238 1.7089059
-175.4640808 -113.3778152 0.8640327
62.8081245 -115.5373306 -55.2812843
-174.5300751 -112.5152435 2.1397858
147.8230286 -112.9331512 -54.0498505
62.7889977 -114.8434143 -55.0253639
-95.6821442 -112.8315964 -16.4714470
-174.4746094 -111.8226318 2.5109117
147.7681732 -112.2397919 -53.7730255
62.7894096 -114.1490936 -54.7870483
62.1068306 -114.3396378 -55.9532967
61.4883499 -114.5097885 -57.0547142
-95.6611023 -112.0894775 -15.8986320
-174.4123535 -111.1336670 2.8583684
-175.2242737 -111.2777939 2.0582879
-176.0287933 -111.4178085 1.2440560
147.7340851 -111.5581436 -53.5475388
147.6627045 -110.8679733 -53.2851753
-175.8824921 -110.0314941 1.8976581
-176.7308197 -110.1854477 1.0112305
147.5984039 -110.1856537 -53.0596886
-175.7944031 -109.3397675 2.2289085
-176.6443787 -109.4878082 1.3596444
148.4912109 -109.6946259 -54.2772255
147.5917816 -109.5187454 -52.9335060
-94.4588776 -109.6537094 -17.0174809
-175.7113495 -108.6488724 2.5588789
62.6890564 -110.7485580 -53.9339409
62.0675087 -110.8959274 -54.9107590
-94.4239197 -108.9410934 -16.5872440
-177.3714600 -108.2726746 1.0493280
62.6675072 -110.0741959 -53.8015900
-94.4132385 -108.2300262 -16.1326008
-177.3102264 -107.5900726 1.3323108
62.6546555 -109.4014359 -53.6749840
62.6459579 -108.7300186 -53.5711861
-177.1708832 -106.2290039 1.8758003
-178.0238800 -106.3779068 0.9705108
62.6484947 -108.0572052 -53.4701385
62.6304779 -107.3935699 -53.4168930
62.6383286 -106.7252045 -53.3461418
-93.2047577 -105.1941223 -17.6426373
-177.0118408 -104.2172241 2.5479119
-93.1799393 -104.5099182 -17.3646355
-177.0125427 -103.5624237 2.7009382
149.1361084 -103.8988571 -54.8998947
63.8893471 -105.1551895 -51.5325089
-93.1972961 -103.8107681 -17.0145988
-178.6289520 -103.1708374 1.1144818
150.0650482 -103.4322433 -56.4620819
149.1512146 -103.2542496 -54.9475784
63.9088860 -104.4927216 -51.5145340
-93.2036514 -103.1283035 -16.7605286
-178.5592041 -102.5016022 1.2905622
149.1806183 -102.6108932 -54.9977150
63.8955002 -103.8383789 -51.5238800
-92.1540833 -102.9007187 -20.0766525
-178.5225983 -101.8417358 1.4310179
63.8981819 -103.1799469 -51.5085487
-92.1203003 -102.2212677 -19.8208427
-178.4636688 -101.1781235 1.5947618
63.8736458 -102.5290833 -51.5371666
-178.4744568 -100.5316467 1.6811041
63.8401985 -101.8843765 -51.6149254
63.8418274 -101.2368088 -51.6800919
