-158.7091980 -118.0765915 7.4406900
-164.1368561 -118.5058594 5.3442841
-169.7586365 -119.0761871 2.3248682
135.6835632 -115.0637054 -51.3295822
129.8047791 -114.5807953 -47.0406876
124.1205521 -114.2682266 -43.9829025
118.5654831 -114.0783997 -41.8084869
91.9823761 -114.4592056 -40.4904137
86.8178864 -114.7690277 -41.8934822
81.6834564 -115.1640320 -43.9039803
76.5781555 -115.6535873 -46.5850945
71.4968491 -116.2595901 -50.0883102
-104.7982178 -114.0508270 -7.9786015
-109.3762360 -113.4803543 -3.2704620
-114.0292206 -113.0507889 0.4567503
-118.7387924 -112.7329483 3.4061174
-123.5017853 -112.5036316 5.7384901
-128.3224640 -112.3548584 7.5129480
-133.1960297 -112.2802658 8.7712860
-148.2282410 -112.4867783 9.5787449
-153.4062042 -112.7053146 8.8217258
-158.6887054 -113.0085602 7.4783602
-164.1077728 -113.4145813 5.4345613
-169.7105713 -113.9499969 2.5055377
135.8496094 -110.0887756 -52.9700546
129.9451599 -109.6057739 -48.5238037
124.2399750 -109.2932129 -45.3586884
118.6754456 -109.1044464 -43.1304207
113.2132263 -109.0166626 -41.6510277
107.8350906 -109.0107803 -40.7938118
92.0548553 -109.4576721 -41.6791916
86.8812637 -109.7568207 -43.0964432
81.7443848 -110.1375122 -45.1072350
76.6334534 -110.6110840 -47.8130417
71.5503540 -111.1971512 -51.3483849
-100.3723221 -109.7487030 -14.6064472
-104.8516769 -109.0093384 -8.4942169
-109.4331207 -108.4645844 -3.7972035
-114.0882187 -108.0547028 -0.0787528
-118.7981262 -107.7492371 2.8808315
-123.5655518 -107.5321121 5.1996078
-133.2655945 -107.3212128 8.2218285
-148.2989197 -107.5188904 9.0516548
-153.4769440 -107.7277145 8.3028297
-158.7605896 -108.0192032 6.9637523
-164.1823883 -108.4089355 4.9240427
-169.7820740 -108.9198990 2.0198531
130.1708679 -104.7059555 -50.7210350
124.4380798 -104.3862457 -47.3906441
113.3731079 -104.0993576 -43.4931335
107.9849854 -104.0915146 -42.6042747
102.6572723 -104.1583328 -42.3016586
97.3901138 -104.2993240 -42.5750732
92.1686401 -104.5138245 -43.4279556
86.9853210 -104.8022003 -44.8400040
81.8414612 -105.1716537 -46.8953781
76.7301865 -105.6336517 -49.6558609
71.6444016 -106.2078552 -53.2872581
-104.9828491 -104.0539017 -9.7023535
-109.5625839 -103.5249023 -4.9374447
-114.2161179 -103.1265259 -1.1677282
-118.9273300 -102.8315659 1.8154089
-123.6957016 -102.6201630 4.1714048
-128.5223389 -102.4848557 5.9490271
-133.4041290 -102.4183960 7.2060795
-138.3440704 -102.4163437 7.9783382
-143.3579712 -102.4804611 8.2531281
-148.4481354 -102.6115952 8.0253239
-153.6332855 -102.8145981 7.2623181
-158.9280701 -103.0980988 5.8976040
-164.3628235 -103.4768524 3.8217950
-169.9767151 -103.9748077 0.8610886
124.7205429 -99.5452271 -50.1415176
119.0976410 -99.3388138 -47.6180344
113.5939713 -99.2372513 -45.9463158
108.1823273 -99.2222137 -44.9838638
102.8460312 -99.2817535 -44.6503143
97.5625458 -99.4146042 -44.9003410
87.1443634 -99.9018478 -47.2009125
81.9919510 -100.2656479 -49.3223763
76.8772430 -100.7201309 -52.1851196
-105.1928558 -99.1762390 -11.6301003
-109.7612762 -98.6514587 -6.7099895
-114.4147263 -98.2604370 -2.8452239
-119.1244049 -97.9713287 0.2068295
-123.8981476 -97.7659531 2.5885653
-128.7239380 -97.6332703 4.4041677
-133.6112061 -97.5684280 5.6810532
-138.5633240 -97.5671082 6.4559021
-143.5813904 -97.6309814 6.7224560
-148.6808777 -97.7589951 6.4805188
-153.8781738 -97.9584961 5.6814098
-159.1892548 -98.2373047 4.2618065
-164.6436920 -98.6107864 2.1058402
-170.2881622 -99.1043396 -0.9875849
119.4326172 -94.5456619 -50.9545670
113.8975220 -94.4304657 -49.1201935
108.4607849 -94.4036255 -48.0458565
103.0989685 -94.4553986 -47.6392899
97.8001709 -94.5824356 -47.8744736
92.5568619 -94.7799377 -48.7366905
87.3590317 -95.0579758 -50.2570305
82.2017288 -95.4162903 -52.4798737
77.0820770 -95.8733521 -55.5195961
-110.0504532 -93.8454514 -9.2025051
-114.6901016 -93.4537201 -5.1661263
-119.3992996 -93.1646347 -2.0030355
-124.1734314 -92.9613113 0.4594363
-129.0021667 -92.8301468 2.3137612
-133.8949585 -92.7663727 3.6194177
-138.8552246 -92.7654419 4.3998938
-143.8845825 -92.8292923 4.6572456
-149.0051270 -92.9573593 4.3728333
-154.2193451 -93.1555481 3.5152268
-159.5553894 -93.4344940 1.9978631
-165.0444946 -93.8085556 -0.2991095
108.8195419 -89.6439819 -51.9417229
103.4298096 -89.6854095 -51.4515991
98.1121902 -89.8041153 -51.6551628
92.8499985 -89.9985809 -52.5446625
87.6406174 -90.2715988 -54.1481552
82.4772797 -90.6356125 -56.5498619
-119.7616348 -88.4110031 -4.8905001
-124.5327530 -88.2054138 -2.3079891
-129.3671875 -88.0752106 -0.3879569
-134.2702332 -88.0110931 0.9493467
-139.2403870 -88.0102081 1.7381430
-144.2895355 -88.0746918 1.9707817
-149.4252014 -88.2043076 1.6288905
-154.6700439 -88.4049225 0.6824902
-160.0470886 -88.6888885 -0.9844891
109.2905121 -84.9573898 -56.9339294
103.8655396 -84.9827728 -56.2980156
98.5197678 -85.0913849 -56.4653664
93.2396851 -85.2821732 -57.4131813
88.0165863 -85.5596619 -59.1713829
-120.2238770 -83.7130203 -8.5998955
-124.9911499 -83.5014420 -5.8543625
-129.8290558 -83.3658142 -3.8126848
-134.7416229 -83.3020935 -2.4301326
-139.7259674 -83.3018494 -1.6307664
-144.7958221 -83.3670578 -1.4340464
-149.9624634 -83.5004730 -1.8477176
-155.2457123 -83.7082138 -2.9510212
104.4518204 -80.3777542 -62.7172928
99.0634537 -80.4762573 -62.8120613
-125.5779953 -78.8573303 -10.3791380
-130.4160004 -78.7142487 -8.1771641
-135.3409424 -78.6458054 -6.7049932
-140.3453979 -78.6467896 -5.8952599
-145.4448395 -78.7146454 -5.7453752
-150.6530762 -78.8565674 -6.3035793
-131.1832581 -74.1382675 -13.8330879
-136.1116333 -74.0604706 -12.2134790
-141.1425781 -74.0608902 -11.3922319
-146.2820282 -74.1375732 -11.3377409
100.8853531 -166.0929413 -61.4987602
114.0632935 -162.5276794 -58.5169678
111.2656708 -162.4030609 -57.4852409
108.5097046 -162.3500824 -56.8333740
105.7883682 -162.3609161 -56.4815063
103.0904083 -162.4237061 -56.4341469
100.4282227 -162.5491791 -56.6834793
97.7837372 -162.7188110 -57.2129517
95.1715240 -162.9539185 -58.0463333
92.5820236 -163.2505493 -59.2237968
119.2842560 -159.5005798 -57.1865845
116.4422226 -159.2903900 -55.6640015
113.6194000 -159.1388702 -54.4903755
110.8575287 -159.0645447 -53.6929855
108.1149368 -159.0390930 -53.1582870
94.8254089 -159.6239319 -54.3229103
92.2311935 -159.8764496 -55.2919579
89.6526489 -160.1923218 -56.5835381
87.0930786 -160.5702820 -58.2139320
121.7602692 -156.4639282 -55.3245316
118.8694763 -156.2363892 -53.6740379
116.0626831 -156.0637665 -52.3785858
113.2693634 -155.9647675 -51.4220619
110.5261917 -155.9016113 -50.7147484
107.8090515 -155.8971100 -50.2761421
94.5441971 -156.4528961 -51.3649750
91.9511185 -156.6880493 -52.2465363
89.3654175 -156.9698944 -53.3927879
86.8025818 -157.3104401 -54.8198929
84.2573853 -157.6987915 -56.5434189
81.7289658 -158.1546631 -58.6477051
-127.4977798 -155.4882355 -14.3050251
-129.8627014 -155.2459259 -12.6666269
-132.2626190 -155.0697174 -11.3807602
-134.7068787 -154.9535828 -10.4073992
-137.1873779 -154.8960724 -9.7370262
-139.7129059 -154.8867645 -9.3214960
-142.2584229 -154.9260559 -9.1679268
-144.8518677 -155.0151062 -9.2902508
-147.4961548 -155.1642761 -9.7317343
127.2217255 -153.9084167 -56.4433823
124.2707520 -153.5612488 -54.1291122
121.3902817 -153.2925720 -52.2947121
118.5303497 -153.1097107 -50.8632736
89.1361313 -153.8781433 -50.8071365
86.5656509 -154.1828766 -52.0885544
84.0134201 -154.5402832 -53.6505051
81.4685669 -154.9495850 -55.5196953
-122.2630844 -152.6745758 -13.8303862
-124.5733337 -152.3587799 -11.7581520
-126.9243622 -152.0985565 -10.0400505
-144.2823792 -151.7339172 -5.5316262
-146.8864594 -151.8553162 -5.8217316
-149.5413818 -152.0206451 -6.3491225
-152.2496185 -152.2494202 -7.2038765
129.8647461 -151.1511230 -56.0441704
126.8573837 -150.7702942 -53.5317307
123.9471130 -150.4851685 -51.5272636
121.0949173 -150.2679749 -49.9285049
118.2725983 -150.1180725 -48.6641922
88.9406586 -150.8892822 -48.7017136
86.3743362 -151.1693726 -49.8799667
83.8164063 -151.4937286 -51.3030586
81.2635956 -151.8703308 -53.0042763
78.7404480 -152.2938843 -54.9913483
76.2240753 -152.7969513 -57.4001465
-119.4786377 -149.7480774 -12.3067741
-121.7862701 -149.4102478 -10.1228504
-124.1208115 -149.1430206 -8.3216095
-126.4904022 -148.9372864 -6.8217015
-143.8259583 -148.6130676 -2.5598831
-146.4166260 -148.7237854 -2.7752001
-149.0433350 -148.8665619 -3.1923146
-151.7130432 -149.0600433 -3.8674021
-154.4225006 -149.3010712 -4.8071012
-157.2122192 -149.6010895 -6.0837140
129.5180664 -148.0763855 -53.4373055
126.5724335 -147.7675476 -51.2581062
123.6821747 -147.5139923 -49.4281807
88.7786636 -147.9750977 -46.9525146
86.2128906 -148.2329254 -48.0508041
78.5665436 -149.2759094 -52.7861023
76.0387268 -149.7310333 -54.9638329
73.5344391 -150.2518005 -57.5410538
-114.5358810 -147.3753052 -14.1778202
-116.7944794 -146.9456177 -11.4386501
-119.0807571 -146.5991516 -9.1699638
-121.4042664 -146.3127136 -7.2350922
-148.6345673 -145.8421326 -0.6429886
-151.2859039 -146.0120087 -1.2109754
-153.9557648 -146.2196960 -2.0011091
-156.7213745 -146.4862671 -3.0768964
-159.4751587 -146.7902222 -4.4118419
-162.3727264 -147.1808777 -6.2125235
132.2194214 -145.4775391 -53.8695793
129.2529907 -145.1209106 -51.4057503
126.3267288 -144.8408051 -49.3885498
123.4577637 -144.6167297 -47.7104568
88.6374512 -145.1104736 -45.4684906
86.0650711 -145.3693848 -46.5221863
78.4173889 -146.3397217 -50.9864464
75.8831940 -146.7614594 -53.0075417
73.3716660 -147.2363586 -55.3599358
70.8701630 -147.7904663 -58.1678619
-111.9402466 -144.7017822 -14.0261021
-114.1734161 -144.2590027 -11.1602135
-116.4564285 -143.8907471 -8.7358522
-118.7631912 -143.5849915 -6.6692295
-121.1040497 -143.3320007 -4.8897095
-148.2940674 -142.9092255 1.4681605
-150.9275513 -143.0646515 0.9716485
-153.5795441 -143.2519836 0.2801025
-156.3113403 -143.4839935 -0.6542300
-159.0426788 -143.7653046 -1.8363655
-161.8906555 -144.1049500 -3.3674045
135.0437927 -142.9769440 -54.8919830
131.9715881 -142.5590820 -52.0274467
129.0348206 -142.2438660 -49.7597961
126.1254120 -141.9857788 -47.8645020
123.2743835 -141.7899780 -46.3149872
73.2340317 -144.3050385 -53.6052780
70.7326279 -144.8136139 -56.1961365
-109.4020538 -142.1318359 -14.4365664
-111.6288910 -141.6576080 -11.3541861
-113.8811264 -141.2639160 -8.7602425
-116.1855087 -140.9348907 -6.5234995
-148.0112610 -140.0503387 3.2356386
-150.6378632 -140.1959381 2.7861643
-158.6683655 -140.8245544 0.2976741
-161.5004730 -141.1350098 -1.0758653
-164.2910461 -141.4798889 -2.6867838
134.7954407 -140.0799866 -53.1752777
131.7731018 -139.7129364 -50.5577698
128.8479614 -139.4186401 -48.4064293
125.9634094 -139.1891785 -46.6367340
123.1249084 -139.0139008 -45.1699753
73.1253204 -141.4407654 -52.1895447
70.6079330 -141.9150085 -54.6183090
68.1083221 -142.4557648 -57.4530029
-106.9210052 -139.6505737 -15.3676271
-109.1238708 -139.1325531 -12.0076170
-111.3702011 -138.7138062 -9.2038336
-113.6456604 -138.3648224 -6.8112535
-115.9615173 -138.0706024 -4.7368422
-147.7815247 -137.2564240 4.7097344
-150.3793030 -137.3849487 4.3289919
-158.3661194 -137.9650421 2.0504115
-161.1774292 -138.2525482 0.7928124
-163.9359436 -138.5664673 -0.6615375
-166.8538513 -138.9572449 -2.5516253
137.6463013 -137.6814423 -54.8271332
134.6119385 -137.2635956 -51.8648987
131.6041718 -136.9219360 -49.3845825
128.6954956 -136.6548157 -47.3550606
73.0327377 -138.6233673 -51.0185127
70.5163193 -139.0686035 -53.3297424
68.0111542 -139.5748901 -56.0000191
65.5078506 -140.1701202 -59.1995049
-106.6734238 -136.6896820 -13.1287184
-108.8932495 -136.2388916 -10.0917645
-111.1680145 -135.8564758 -7.4755797
-113.4537811 -135.5370941 -5.2276554
-115.7755890 -135.2616730 -3.2361441
-163.6393585 -135.7225342 1.0026311
-166.5387573 -136.0882416 -0.7370731
137.4706116 -134.8820343 -53.6283188
134.4447632 -134.4949341 -50.8204689
131.4634705 -134.1795959 -48.4732132
128.5791626 -133.9348145 -46.5319176
72.9619446 -135.8546143 -50.1023712
70.4323425 -136.2790222 -52.3206940
67.9174194 -136.7608643 -54.8885536
65.4190750 -137.3132935 -57.8975754
-104.2695236 -134.3298492 -14.7696896
-106.4766769 -133.8223572 -11.3714104
-108.7212982 -133.4146576 -8.5369205
-111.0023956 -133.0609741 -6.0582151
-113.2924118 -132.7665100 -3.9053135
-115.6228333 -132.5091248 -2.0072880
-163.4026184 -132.9419556 2.3619301
-166.2578430 -133.2695007 0.7732411
-169.1245422 -133.6489258 -1.1017175
140.4878540 -132.6128845 -56.1518326
137.3417358 -132.1413269 -52.7620354
134.3318024 -131.7779541 -50.0552216
114.5624695 -130.6689148 -40.2408600
111.8440018 -130.6362305 -39.6581802
67.8463058 -133.9911194 -54.0287247
65.3491135 -134.5084991 -56.8901672
-101.9236221 -132.0373230 -16.9000587
-104.0938416 -131.4867554 -13.1488590
-106.3179169 -131.0303802 -9.9877367
-108.5742264 -130.6506653 -7.2925286
-110.8616562 -130.3219604 -4.9124722
-168.8812256 -130.8693848 0.2206572
140.3555756 -129.8820648 -55.3784027
137.2327576 -129.4426575 -52.1368675
134.2351837 -129.0986176 -49.5188293
114.4968719 -128.0400391 -39.8906898
111.8058777 -128.0196381 -39.3544579
67.8015137 -131.2581024 -53.3796310
65.2821045 -131.7576294 -56.1615524
-101.7596054 -129.2186584 -15.4213886
-103.9535522 -128.7091980 -11.8776655
-106.1881714 -128.2870483 -8.8768959
-108.4554291 -127.9307251 -6.2811804
-110.7520218 -127.6236725 -3.9991100
-168.6862183 -128.1418762 1.2707105
-171.6170654 -128.5333252 -0.7715626
140.2757721 -127.2040100 -54.9086914
114.4579468 -125.4398041 -39.7074890
111.7537537 -125.4207153 -39.1861038
109.0704117 -125.4174500 -38.7723618
106.4107819 -125.4412537 -38.5174065
103.7604675 -125.4861069 -38.4187889
101.1296997 -125.5532074 -38.4638824
67.7512741 -128.5663300 -52.9566422
65.2331696 -129.0434418 -55.6607895
-99.4800949 -127.0412827 -18.3411217
-101.6354218 -126.4619827 -14.2858210
-168.5377960 -125.4597015 2.0837727
-171.4512177 -125.8285751 0.1407610
-174.4259033 -126.2562408 -2.1812449
140.2257385 -124.5613327 -54.6721420
114.4376984 -122.8672180 -39.6945076
111.7299500 -122.8433456 -39.1446381
109.0603256 -122.8466034 -38.7545738
103.7444000 -122.9117279 -38.3910217
101.1031189 -122.9741135 -38.4267654
67.7269287 -125.9019623 -52.7067795
65.2036591 -126.3648987 -55.3728828
-99.3757172 -124.2919159 -17.2836437
-101.5454102 -123.7541809 -13.4258671
-168.4353027 -122.8191147 2.6708250
-171.3235168 -123.1669006 0.8090593
-174.2859039 -123.5710068 -1.4081473
143.3754425 -122.4469910 -58.4338417
140.2013397 -121.9553757 -54.6645088
114.4284058 -120.3101807 -39.7968445
111.7338638 -120.2929840 -39.2745247
109.0425720 -120.2896271 -38.8603325
106.3855133 -120.3136139 -38.6119804
103.7251663 -120.3529816 -38.4946365
101.0890884 -120.4184265 -38.5284348
67.7043304 -123.2700653 -52.6627426
65.1866302 -123.7165222 -55.2815628
62.6796188 -124.2241974 -58.3082352
-99.2986755 -121.5992432 -16.5510902
-101.4794312 -121.0949402 -12.8416815
-136.9117432 -118.5644760 9.4052563
-139.3874054 -118.5809555 9.6553440
-141.8986206 -118.6193695 9.7822876
-144.4161072 -118.6725922 9.7988787
-174.1672821 -120.9221802 -0.8461561
143.3785553 -119.8623810 -58.6477623
140.2033234 -119.3808899 -54.8814049
114.4324493 -117.7723236 -40.0280304
111.7335281 -117.7582169 -39.5271225
109.0509033 -117.7565155 -39.1127319
103.7348480 -117.8171997 -38.7318115
101.0953979 -117.8780899 -38.7517548
67.6962051 -120.6631470 -52.7898979
65.1746445 -121.0989609 -55.3906860
62.6685371 -121.5926971 -58.3912849
-99.2447510 -118.9518433 -16.0973282
-101.4393616 -118.4705048 -12.4774227
-136.8845215 -116.0299377 9.5114803
-144.3928375 -116.1358871 9.9049044
-174.1020813 -118.3113480 -0.5099365
-177.1065521 -118.7447128 -3.0288715
140.2398376 -116.8383636 -55.3307953
114.4559174 -115.2542419 -40.4087334
111.7494354 -115.2349854 -39.8652153
109.0707855 -115.2346497 -39.4637680
103.7478867 -115.2936707 -39.0732841
101.1073761 -115.3528442 -39.0908546
98.4856262 -115.4324417 -39.2498016
95.8689270 -115.5310440 -39.5442696
67.6965027 -118.0799789 -53.0869408
65.1805115 -118.5053101 -55.6743088
-97.0851288 -116.9137573 -20.1908188
-99.2225876 -116.3432922 -15.8903065
-101.4208832 -115.8800659 -12.3283873
-136.8786926 -113.5146484 9.4947996
-144.3885193 -113.6200485 9.8868189
-174.0668945 -115.7328033 -0.3826306
-177.0750732 -116.1521149 -2.8568294
-180.2261810 -116.6591339 -5.9182477
140.3042908 -114.3241348 -56.0028687
114.4864197 -112.7523346 -40.9204559
111.7828064 -112.7315140 -40.3621902
109.1039581 -112.7277679 -39.9366379
106.4288330 -112.7471466 -39.6685600
103.7730560 -112.7849579 -39.5416107
101.1340256 -112.8467941 -39.5742950
98.5160751 -112.9235077 -39.7242203
95.8983536 -113.0197983 -40.0118942
67.7124939 -115.5203094 -53.5635109
65.1877060 -115.9392395 -56.1682892
-97.0798187 -114.3197632 -20.1571541
-99.2222900 -113.7684479 -15.9072437
-101.4261780 -113.3181610 -12.3693333
-136.9038086 -111.0214386 9.3340206
-144.4097443 -111.1220779 9.7474041
-174.0706177 -113.1810989 -0.4330848
-177.0713043 -113.5876312 -2.8750453
-180.2183838 -114.0789185 -5.8978262
140.3983765 -111.8369293 -56.9040146
103.8177719 -110.2957306 -40.1622314
101.1694031 -110.3545151 -40.1676941
98.5563812 -110.4256210 -40.3060608
95.9232178 -110.5226593 -40.6218033
67.7360916 -112.9812622 -54.2148819
65.2168350 -113.3927231 -56.8220482
-97.1007080 -111.7624130 -20.3833580
-127.1526489 -108.6539764 6.7660570
-129.5747681 -108.5951614 7.5591960
-136.9341431 -108.5414734 9.0654449
-139.4170074 -108.5570526 9.3260345
-141.9183044 -108.5898285 9.4702339
-144.4475098 -108.6412506 9.4772978
-174.1045532 -110.6546097 -0.6644534
-177.0991364 -111.0514603 -3.0963717
140.5345764 -109.3815460 -58.0816803
103.8773499 -107.8190308 -40.9033356
101.2241974 -107.8737640 -40.9214745
98.5981598 -107.9477844 -41.0561066
95.9791107 -108.0418243 -41.3478470
67.7670898 -110.4627991 -55.0467987
65.2562866 -110.8695297 -57.6802788
-97.1486588 -109.2404938 -20.8755302
-127.1975250 -106.1824036 6.4013004
-129.6223602 -106.1300812 7.1601467
-136.9882050 -106.0782013 8.6661434
-139.4784546 -106.0937958 8.9267845
-141.9780273 -106.1268005 9.0679626
-144.5043335 -106.1760712 9.0816031
-174.1713257 -108.1535950 -1.0883497
-177.1797485 -108.5457382 -3.5432992
140.7098694 -106.9579315 -59.5603218
137.5533600 -106.5655060 -56.1026306
134.5272369 -106.2633209 -53.3460503
120.1780243 -105.4479141 -44.9525146
117.4228592 -105.3795853 -44.0312653
67.8216248 -107.9635315 -56.0591736
65.2994385 -108.3699341 -58.7569237
62.7963638 -108.8358307 -61.9102402
-97.2252808 -106.7508240 -21.6317101
-99.3672867 -106.2209320 -17.2856522
-101.5652390 -105.7953491 -13.7207355
-174.2779999 -105.6759109 -1.7013862
-177.2901917 -106.0631561 -4.1807089
137.7314453 -104.1517181 -57.6537857
134.6892242 -103.8406067 -54.7687683
120.2882538 -103.0080261 -46.1068764
117.5248413 -102.9354706 -45.1173668
67.8804169 -105.4866638 -57.2891197
65.3635864 -105.8927307 -60.0563126
62.8616982 -106.3617096 -63.3079720
-99.4636078 -103.7596207 -18.1962166
-101.6564713 -103.3342590 -14.5562506
-174.4096069 -103.2188339 -2.4943161
137.9547119 -101.7681274 -59.5264435
134.8727570 -101.4400253 -56.4352989
131.8714600 -101.1814117 -53.9263306
128.9382935 -100.9775925 -51.8324547
93.5831299 -100.7762299 -44.8129349
90.9809723 -100.9002914 -45.3828888
73.0101700 -102.3529510 -54.1513405
70.4832611 -102.6711807 -56.2670898
67.9473038 -103.0284653 -58.7406273
65.4415741 -103.4393616 -61.5953522
-99.5810394 -101.3262634 -19.3713017
-101.7656097 -100.8974991 -15.6336212
-174.5942841 -100.7846069 -3.5042441
138.2089691 -99.4222183 -61.7523422
135.1127930 -99.0709229 -58.4360504
132.0731812 -98.7960129 -55.7426910
129.1343689 -98.5814362 -53.5470276
93.6826706 -98.3462830 -46.0985718
91.0834656 -98.4643021 -46.6919823
73.1006699 -99.9119949 -55.6649704
70.5628662 -100.2306366 -57.8754044
68.0413284 -100.5945511 -60.4290314
65.5245819 -101.0116577 -63.4439392
-99.7358398 -98.9206772 -20.8147221
-101.9002151 -98.4826889 -16.9301376
-174.8025970 -98.3704376 -4.7181373
135.3854370 -96.7310562 -60.7974319
132.3121948 -96.4376450 -57.8584518
129.3479767 -96.2071381 -55.5118599
126.4263458 -96.0281982 -53.5497437
123.5598679 -95.8871765 -51.9208374
73.2032547 -97.4888077 -57.4190483
70.6717377 -97.8124313 -59.7144928
68.1535873 -98.1823120 -62.4018517
-99.9195709 -96.5471344 -22.5818977
-102.0635834 -96.0911865 -18.4846115
-104.2849579 -95.7231598 -15.0653257
-106.5355988 -95.4145279 -12.1372414
-169.1563110 -95.3553009 -1.8886631
-172.0646362 -95.6417618 -3.8275001
-175.0560455 -95.9789581 -6.1677461
132.6020508 -94.1049042 -60.3570290
129.6101227 -93.8607483 -57.8012123
126.6551361 -93.6673126 -55.6663628
123.7756577 -93.5143814 -53.9255219
73.3153381 -95.0875854 -59.4409561
70.7982101 -95.4178772 -61.8552208
68.2833099 -95.7991943 -64.7274933
-102.2649765 -93.7296448 -20.3411713
-104.4737549 -93.3480530 -16.7470856
-106.7126007 -93.0341187 -13.7087698
-169.4185791 -92.9736023 -3.3815060
-172.3380127 -93.2664948 -5.4058776
132.9394531 -91.8192062 -63.3055344
129.9140015 -91.5428162 -60.4547310
126.9325027 -91.3292618 -58.1315384
124.0264130 -91.1678848 -56.2557411
121.1593323 -91.0438232 -54.6893463
118.3415680 -90.9507294 -53.4390030
115.5604706 -90.8841095 -52.4341278
112.8007050 -90.8430710 -51.6454887
78.5538788 -92.1537552 -57.6963654
76.0044785 -92.4131851 -59.5785446
73.4665756 -92.7121506 -61.7686844
70.9408569 -93.0542755 -64.3637238
-102.5043335 -91.4030914 -22.5981178
-104.6885834 -90.9993362 -18.7372570
-106.9145279 -90.6726913 -15.5323200
-109.1822815 -90.3997574 -12.7860575
-111.4708099 -90.1659775 -10.3927860
-113.7845764 -89.9695435 -8.2923908
-116.1194611 -89.7981720 -6.4443111
-164.0250854 -90.1389313 -1.8591082
-166.8406982 -90.3578033 -3.3356113
-169.7174377 -90.6133118 -5.1154594
-172.6774750 -90.9135742 -7.2862353
130.2794495 -89.2649078 -63.6248093
127.2491302 -89.0245743 -60.9984894
124.3159790 -88.8481827 -58.9176369
121.4307632 -88.7087402 -57.2238083
118.5990143 -88.6055069 -55.8616104
115.7940826 -88.5339508 -54.7493515
113.0188217 -88.4880371 -53.8873138
78.7131805 -89.7843781 -60.1176910
76.1643372 -90.0537109 -62.1117210
73.6281891 -90.3614197 -64.5055695
-104.9436951 -88.6799011 -21.1005135
-107.1498871 -88.3375397 -17.6703358
-109.4029617 -88.0535889 -14.7657900
-111.6904602 -87.8155289 -12.2468233
-113.9967651 -87.6137314 -10.0760260
-116.3315048 -87.4381256 -8.1356831
-164.3271179 -87.7844238 -3.6407504
-167.1598663 -88.0093536 -5.2165079
-170.0604706 -88.2746582 -7.1223192
127.6343536 -86.7643585 -64.4009323
124.6722717 -86.5566559 -62.0752983
121.7368317 -86.4048309 -60.1393280
118.8835449 -86.2858429 -58.6279297
116.0646057 -86.2028580 -57.4196167
113.2742004 -86.1487656 -56.4585876
84.0226746 -86.9882202 -59.5741463
81.4594498 -87.2037354 -61.0976334
78.8991394 -87.4450760 -62.9266968
76.3545532 -87.7244568 -65.0940247
-105.2551956 -86.4029770 -23.9120293
-107.4291306 -86.0294495 -20.1750584
-109.6646576 -85.7293167 -17.0541973
-111.9334488 -85.4810333 -14.4120846
-114.2383499 -85.2716980 -12.1143389
-116.5645065 -85.0933990 -10.0915604
-159.1237640 -85.0822754 -3.1845415
-161.8764648 -85.2514801 -4.3214998
-164.6767883 -85.4498215 -5.7030907
-167.5348969 -85.6843567 -7.3933983
-170.4702454 -85.9582062 -9.4688253
125.0876160 -84.3265839 -65.8446426
122.1102142 -84.1338272 -63.6002350
119.2240143 -84.0007401 -61.8525314
116.3769684 -83.8997879 -60.4806480
113.5639954 -83.8379822 -59.4029350
84.2396545 -84.6641159 -62.5468559
81.6770935 -84.8840714 -64.2086334
79.1188202 -85.1410675 -66.2223740
-107.7597122 -83.7628632 -23.1681061
-109.9603500 -83.4342728 -19.7409096
-112.2250137 -83.1731262 -16.8751221
-114.5181122 -82.9534607 -14.4255610
-116.8309250 -82.7675705 -12.2961063
-159.4725189 -82.7543793 -5.3266478
-162.2472076 -82.9298401 -6.5567675
-165.0778198 -83.1373138 -8.0729342
-167.9667816 -83.3823395 -9.9267998
119.6385345 -81.7590485 -65.7461014
116.7555466 -81.6408920 -64.1388855
113.9191971 -81.5622864 -62.8970680
111.1309509 -81.5118561 -61.9922638
108.3621902 -81.4938126 -61.3316040
94.9223709 -81.7438736 -61.6126404
92.2879333 -81.8652344 -62.3331909
89.6816940 -82.0074921 -63.3167877
87.0778732 -82.1761780 -64.5515518
84.4982834 -82.3766174 -66.0510712
81.9379425 -82.6086655 -67.9243851
-110.3360596 -81.1841125 -22.9444313
-112.5600586 -80.8933868 -19.7941303
-114.8361435 -80.6580887 -17.1197910
-117.1399002 -80.4623489 -14.8459005
-119.4778671 -80.3037720 -12.8756733
-121.8337250 -80.1655731 -11.1925068
-154.4301453 -80.1624603 -5.8796816
-157.1416779 -80.2915649 -6.7244616
-159.8820343 -80.4467392 -7.7979574
-162.6735382 -80.6314240 -9.1374626
-165.5383911 -80.8531952 -10.8140526
117.2132645 -79.4477081 -68.5916443
114.3470001 -79.3337402 -67.0897522
111.5245056 -79.2726440 -65.9620361
108.7323914 -79.2380829 -65.1857986
95.2373123 -79.4727631 -65.3249741
92.5982666 -79.5935669 -66.1432877
89.9837418 -79.7475052 -67.2077866
87.3912964 -79.9247284 -68.5891418
-115.2095871 -78.3953934 -20.2903919
-117.4952087 -78.1838379 -17.8127575
-119.8202667 -78.0110855 -15.7148046
-122.1735611 -77.8714905 -13.8797026
-154.8526611 -77.8614120 -8.5013208
-157.5768433 -78.0018463 -9.4457264
-160.3460999 -78.1668167 -10.6452446
-163.1776123 -78.3637772 -12.1657257
-166.0929108 -78.6034851 -14.0955238
112.0273514 -77.1100388 -70.9789734
109.1859741 -77.0452576 -69.9407654
106.4328461 -77.0261993 -69.2738342
103.6696625 -77.0396652 -69.0281525
100.9704514 -77.0843658 -68.9906921
98.2732849 -77.1557083 -69.2981110
95.6214294 -77.2564011 -69.8560410
92.9773178 -77.3825150 -70.8046341
-115.6687469 -76.1881561 -24.1638260
-117.9242172 -75.9435120 -21.3413792
-120.2284470 -75.7577057 -18.9886761
-122.5694656 -75.5964203 -17.0218449
-124.9328384 -75.4751129 -15.3159676
-127.3267822 -75.3753662 -13.9084930
-149.9687958 -75.3732605 -10.1681051
-152.6321411 -75.4687347 -10.7314510
-155.3315735 -75.5916519 -11.5342941
-158.0950165 -75.7385864 -12.6199379
-160.8999023 -75.9178619 -14.0019970
101.5008926 -74.9794617 -74.8057098
-120.7151184 -73.5441055 -22.9636307
-123.0356369 -73.3677444 -20.7146626
-125.3846893 -73.2306366 -18.8495789
-127.7750320 -73.1215210 -17.2917881
-150.4803925 -73.1150436 -13.4878702
-153.1614380 -73.2234573 -14.1546669
-155.9043884 -73.3542633 -15.1125317
-158.6966248 -73.5174866 -16.3989582
-123.6135635 -71.2095184 -25.3128853
-125.9332886 -71.0372925 -23.1331921
-128.3071289 -70.9074860 -21.3675022
-130.7112122 -70.8147964 -19.9065037
-133.1472015 -70.7443237 -18.7627335
-135.6082153 -70.7025604 -17.8419151
-138.1067810 -70.6792145 -17.2020702
-140.6267700 -70.6796875 -16.7587719
-143.1844177 -70.6998291 -16.5712891
-145.7769165 -70.7444305 -16.6116562
-148.4146729 -70.8085861 -16.8997765
-151.0890961 -70.9007721 -17.4553604
-153.8178253 -71.0190048 -18.3167839
-128.9835510 -68.7865753 -26.5368500
-131.3612823 -68.6613083 -24.8143902
-133.7781067 -68.5760269 -23.4635067
-136.2408142 -68.5220337 -22.4578819
-138.7406311 -68.4960098 -21.7391262
-141.2782288 -68.4929428 -21.2926216
-143.8522949 -68.5176086 -21.1332932
-146.4704742 -68.5686493 -21.2483463
-149.1284332 -68.6457825 -21.6770210
108.8934021 -169.0084229 -67.1668777
107.4859543 -168.9522552 -66.6880035
106.1379089 -168.9422913 -66.3004532
103.3823853 -168.9420166 -66.4102859
102.0270233 -169.0358276 -66.5357513
100.6957550 -169.1634674 -66.7940369
99.3883438 -169.2902985 -67.2143936
114.1504822 -167.2134399 -65.7016754
108.4722137 -166.8517151 -63.1667175
107.0937500 -166.8353119 -62.8695526
105.7364349 -166.8365479 -62.6633492
104.3699951 -166.8823547 -62.6418419
103.0234985 -166.9143677 -62.6860237
99.0375061 -167.1640167 -63.4066620
97.7280579 -167.2871246 -63.8495178
116.6856995 -165.4884491 -63.9186935
115.2098312 -165.2939148 -62.8974533
113.7753143 -165.1756897 -62.0938606
112.3495331 -165.0848541 -61.4392014
110.9544525 -165.0368958 -60.9152298
109.5649338 -165.0083618 -60.5094109
108.1769791 -164.9964600 -60.2158623
106.8050613 -164.9810638 -59.9706306
105.4529724 -164.9857178 -59.8196983
104.0980225 -165.0361023 -59.8162689
102.7486267 -165.0736084 -59.8422165
98.7576294 -165.2782898 -60.4392471
97.4532776 -165.4131165 -60.8687057
96.1392822 -165.5480957 -61.3536758
94.8354340 -165.7015991 -61.9492264
93.5537720 -165.8596802 -62.6604614
92.2748718 -166.0328979 -63.4545708
90.9928589 -166.2826691 -64.4057159
120.7721558 -164.1227417 -64.2757034
119.2551346 -163.8759003 -62.9061089
117.7916107 -163.6991730 -61.7676888
116.3427658 -163.5446930 -60.7881622
90.7594147 -164.3814087 -61.5027161
89.4806061 -164.5921326 -62.4349937
88.2137070 -164.8474731 -63.5179024
86.9499207 -165.1432343 -64.7346115
123.4403992 -162.6680450 -64.0001831
121.9114075 -162.3981628 -62.4707298
120.4082947 -162.1965179 -61.1671486
118.9322510 -162.0048218 -60.0121002
117.4971466 -161.8885956 -59.1052895
116.0656891 -161.7693481 -58.3100739
90.5406570 -162.6394043 -59.1525764
89.2657318 -162.8273010 -59.9812088
88.0033875 -163.0270538 -60.9033890
86.7447815 -163.2499084 -61.9490318
85.4818115 -163.5119934 -63.1339951
84.2093506 -163.8381958 -64.4676514
-138.1133423 -161.5269318 -20.5534267
-139.3565369 -161.4822083 -20.1555347
-140.6294861 -161.4711151 -19.9352093
124.6123505 -161.0125427 -62.4960251
123.0950851 -160.7709351 -61.0175743
121.6038132 -160.5838776 -59.7612534
85.2854691 -161.7369995 -60.6947098
84.0248184 -162.0056763 -61.9021683
82.7673111 -162.2851563 -63.2138596
81.5181046 -162.6387024 -64.7454681
-130.3262939 -160.0281525 -20.7396431
-135.0628357 -159.4761200 -17.3487167
-136.2720032 -159.4069214 -16.8242111
-137.5098572 -159.3726349 -16.4182281
-138.7531433 -159.3368835 -16.0810375
-140.0341492 -159.3494568 -15.8845234
-141.3173676 -159.3710480 -15.7544823
-142.6064606 -159.3960724 -15.7515793
-143.9136505 -159.4274445 -15.8242817
-145.2361755 -159.4895325 -15.9955797
-146.5888672 -159.6052246 -16.3105640
125.8073349 -159.4533386 -61.3710365
124.3158569 -159.2175140 -59.9093399
122.8295898 -159.0242920 -58.6411705
121.3371887 -158.8438416 -57.5254745
85.1078491 -160.0387878 -58.6325035
83.8389130 -160.2760468 -59.7146988
82.5994949 -160.5134277 -60.8815002
81.3414307 -160.8151398 -62.2457314
80.0902100 -161.1644440 -63.7557297
-126.3883438 -158.5791321 -20.5507317
-127.5145798 -158.3379211 -19.1961021
-128.6627045 -158.1412964 -18.0403080
-129.8263245 -157.9821625 -17.0325336
-130.9954071 -157.8505554 -16.1795425
-132.1791687 -157.7425232 -15.4201183
-133.3793335 -157.6634521 -14.7699032
-134.6070099 -157.6024780 -14.2164288
-135.8354492 -157.5435791 -13.7351189
-137.0608368 -157.5100250 -13.3724747
-138.3195190 -157.4874268 -13.0814085
-139.5851593 -157.4824219 -12.8704863
-140.8709106 -157.4981689 -12.7476826
-142.1425476 -157.5066528 -12.6730185
-143.4297791 -157.5402222 -12.6933546
-144.7411499 -157.5948181 -12.8177128
-146.0798492 -157.6854248 -13.0612144
-147.4217072 -157.7700195 -13.3748026
-148.7781677 -157.8915405 -13.7824888
-150.1609344 -158.0546570 -14.2987967
-151.5657043 -158.2300873 -14.9814663
127.0521774 -157.9489594 -60.5378761
125.5212250 -157.7110291 -59.0353508
124.0545044 -157.5151672 -57.7644272
79.9388809 -159.3804626 -61.4853668
78.6878891 -159.7234955 -62.9813995
-122.5991974 -157.3755035 -21.5408401
-123.7015305 -157.0469055 -19.8331146
-124.8069687 -156.8162231 -18.4019470
-125.9390945 -156.6072235 -17.1290283
-149.6988220 -156.1742096 -11.4387970
-151.0659332 -156.2936249 -11.9490080
129.9213409 -156.7840881 -61.7267952
128.3291931 -156.4791260 -59.9213638
126.7843552 -156.2444763 -58.3900948
125.2819901 -156.0347748 -57.0652161
123.8393021 -155.8662872 -55.9407501
79.7741394 -157.7186127 -59.5731201
78.5318604 -157.9977570 -60.9418640
-121.0719147 -155.6841431 -19.7362289
-122.1693497 -155.4153748 -18.1817131
-123.2894592 -155.1970825 -16.7979393
-124.4259720 -154.9922485 -15.5564003
-125.5728683 -154.8229065 -14.4754677
-149.3228149 -154.4441681 -9.0668392
-150.6858521 -154.5551605 -9.4832029
-152.0570526 -154.6910400 -10.0112209
-153.4378510 -154.8346252 -10.6448498
-154.8406372 -155.0161743 -11.3736687
-156.3003845 -155.2486877 -12.2580643
131.1741028 -155.3623810 -61.3331528
129.6350403 -155.0680847 -59.5363808
79.6462479 -156.0847473 -57.8597260
78.3999176 -156.3354645 -59.0998917
77.1540451 -156.6315613 -60.5218353
75.9036026 -156.9692993 -62.1045418
-118.5383530 -154.3923645 -20.1842957
-119.6096497 -154.0872498 -18.4181900
-120.7068939 -153.8353271 -16.8728733
-154.4551392 -153.2736511 -9.0309162
-155.8741302 -153.4479370 -9.7894611
-157.3269653 -153.6537018 -10.6690712
132.4741058 -153.9650269 -61.1153488
130.9130554 -153.6634521 -59.2438660
129.4159241 -153.4285736 -57.6872978
79.5217209 -154.5119629 -56.3943787
78.2578278 -154.7662506 -57.5875626
77.0178070 -155.0171814 -58.8706322
75.7794495 -155.3084412 -60.3190231
74.5375595 -155.6450653 -61.9007988
-117.1000595 -152.8518372 -19.1160259
-118.1904984 -152.5621796 -17.3770390
-119.2843552 -152.3280334 -15.8887691
-120.4067688 -152.1025543 -14.5247307
-154.1288300 -151.6223145 -7.0287967
-155.5300903 -151.7701569 -7.6770334
-156.9625854 -151.9464417 -8.4542160
-158.3889160 -152.1467285 -9.3207283
-159.8301392 -152.3798828 -10.2913942
-161.3401947 -152.6589203 -11.4608650
133.8475494 -152.6316223 -61.1575089
132.2180786 -152.2939606 -59.1303635
74.4151917 -154.0064240 -60.2314987
73.1786041 -154.3430481 -61.8803825
-114.6433868 -151.7247314 -20.3306618
-115.7070389 -151.3876953 -18.3760529
-116.7858734 -151.1040344 -16.6482944
-117.8933716 -150.8579254 -15.1319466
-159.4632721 -150.6675415 -8.1658268
-160.9125366 -150.8790436 -9.1654434
133.6042328 -150.9900513 -59.3231392
132.0081177 -150.6971130 -57.4719925
74.3068314 -152.4190216 -58.7335052
73.0668335 -152.7313385 -60.2958450
71.8283920 -153.0686340 -62.0147362
-113.2899399 -150.2901306 -19.8105011
-114.3503799 -149.9630127 -17.8565598
-115.4275208 -149.6836853 -16.1357040
-116.5342484 -149.4379578 -14.5995426
-117.6618271 -149.2161407 -13.2217417
-159.1765289 -149.0663757 -6.3539619
-160.6136932 -149.2561035 -7.2496061
-162.0856323 -149.4710083 -8.2951250
-163.5779724 -149.7258301 -9.4621859
-165.0838623 -150.0339355 -10.7539349
136.6462708 -150.0569458 -61.8664322
135.0466614 -149.7171478 -59.7340164
133.3856506 -149.3837280 -57.6945267
131.8073120 -149.1258850 -56.0020447
71.7304001 -151.4705048 -60.4632378
-111.9495544 -148.9079895 -19.5205421
-113.0224228 -148.5685730 -17.5067272
-164.7155151 -148.3317871 -8.6982794
136.4164581 -148.4445343 -60.1580276
134.8014984 -148.1108856 -58.1069489
133.2199402 -147.8497620 -56.3340416
131.6443481 -147.5969849 -54.7404480
71.6164627 -149.9267578 -59.1414871
70.3896332 -150.2417603 -60.7887878
69.1521988 -150.6002350 -62.5974350
-110.6381836 -147.5424194 -19.3744640
-111.7018585 -147.2171326 -17.3624878
-112.7744141 -146.9415131 -15.6243048
-164.3923340 -146.7086792 -6.9258051
-165.8870087 -146.9793854 -8.1274214
137.7639160 -147.1736450 -60.6617432
136.1936035 -146.8561859 -58.6039429
134.6385956 -146.5879211 -56.7957001
69.0609665 -149.0251465 -61.2104988
67.8005066 -149.4203186 -63.1281738
-109.3436661 -146.2383575 -19.4783020
-110.3987885 -145.9049377 -17.4125252
-164.1327820 -145.1551819 -5.3907728
-165.5810394 -145.3722534 -6.4698634
-167.1221924 -145.6627350 -7.7255931
137.5739899 -145.6159821 -59.2015686
136.0258789 -145.3317108 -57.3103676
134.4862823 -145.0825195 -55.6262627
68.9768066 -147.4934692 -59.9957542
67.7533646 -147.8298035 -61.7823906
-108.0724030 -144.9428406 -19.7128830
-109.1205826 -144.6053162 -17.5901012
-110.1993256 -144.3021393 -15.7003860
-163.8825226 -143.6157227 -3.9967461
-165.3448792 -143.8363800 -5.0339880
-166.8473663 -144.0784760 -6.2102156
-168.4096527 -144.3777466 -7.5230799
139.0378113 -144.4255676 -60.0711632
137.4062042 -144.0877228 -57.9322624
68.8910294 -145.9903870 -58.9179993
67.6609116 -146.3012695 -60.6069527
66.4112625 -146.6762238 -62.4963341
-106.8273315 -143.6880341 -20.1030312
-107.8668442 -143.3486633 -17.9349308
-166.5893555 -142.5393372 -4.8207531
-168.1331024 -142.8010559 -6.0748467
-169.6377106 -143.0792084 -7.3621006
138.8793182 -142.9083557 -58.8586960
137.2781677 -142.6092682 -56.8654900
68.8309479 -144.4963379 -57.9268265
67.5820313 -144.8080444 -59.5652809
66.3569336 -145.1423798 -61.3624725
-105.5763931 -142.4666748 -20.6977425
-106.6242828 -142.0953674 -18.4064064
-107.6889496 -141.7788544 -16.3883114
-166.3731232 -141.0432739 -3.5931640
-167.9109039 -141.2886810 -4.7879210
-169.3911438 -141.5321045 -6.0151958
140.3980408 -141.7532959 -60.0182877
138.7304230 -141.4183350 -57.7818375
137.1274414 -141.1293945 -55.8828011
66.2757034 -143.6572723 -60.3792686
-105.3997955 -140.8732758 -19.0305939
-169.1542969 -140.0247650 -4.7629795
-170.6650391 -140.2964325 -6.0473762
141.9432373 -140.6537476 -61.3933411
140.2400818 -140.2676239 -58.9552345
138.5826263 -139.9455872 -56.8264618
137.0227966 -139.6979675 -55.0626869
66.2154541 -142.1808014 -59.4710007
64.9810867 -142.5235596 -61.3251343
63.7650452 -142.8901978 -63.3503189
-104.1821442 -139.6945190 -19.8638687
-105.2380600 -139.3408051 -17.6044044
-168.9623413 -138.5492859 -3.6546388
-170.4226685 -138.7878418 -4.8423471
-171.9921265 -139.0864868 -6.2056441
141.7709961 -139.1571503 -60.3317566
140.0973053 -138.8036041 -58.0189209
63.7009392 -141.4037170 -62.3910713
-102.9967575 -138.5277405 -20.8188171
-104.0259018 -138.1648712 -18.4688721
-105.1040878 -137.8210144 -16.3193417
-168.7723846 -137.0919952 -2.6480451
-170.2136993 -137.3081360 -3.7544351
141.6265869 -137.6895447 -59.3990669
139.9830170 -137.3699341 -57.2186089
63.6421852 -139.9378052 -61.5502625
62.3821030 -140.3284912 -63.6547470
-101.8107224 -137.3972778 -21.9550877
-102.8535156 -136.9935913 -19.4339905
-103.8925095 -136.6604309 -17.2379112
-104.9726410 -136.3562469 -15.2398357
-168.6258240 -135.6654816 -1.7689662
-170.0534363 -135.8689880 -2.8253198
-171.5653687 -136.1181183 -4.0728254
143.1443939 -136.5945740 -60.9178810
141.5190735 -136.2572937 -58.6156845
139.8853455 -135.9512329 -56.5209885
63.6054688 -138.4845581 -60.7928543
62.3373413 -138.8593597 -62.8212395
-101.6819992 -135.8646240 -20.5998688
-102.7167206 -135.5120392 -18.2641182
-171.3899994 -134.6748505 -3.1660802
-172.9594574 -134.9423828 -4.5538530
143.0244904 -135.1570740 -60.1558380
141.4044952 -134.8351898 -57.9147911
139.8032532 -134.5523376 -55.9292450
63.5498581 -137.0641785 -60.1686172
62.2947159 -137.4135895 -62.1130028
-100.5201111 -134.7666168 -21.9552040
-101.5493851 -134.3778992 -19.4346924
-102.6005478 -134.0387878 -17.2058353
-171.2602386 -133.2621918 -2.3697448
-172.8167114 -133.5169525 -3.6857567
144.6504974 -134.1322479 -62.0783157
142.9435272 -133.7482910 -59.5322876
63.5011787 -135.6514130 -59.6115265
62.2635193 -135.9832916 -61.4940262
-100.4089050 -133.2658081 -20.7674580
-171.1304626 -131.8654938 -1.6569242
-172.6677856 -132.1041260 -2.9090886
-174.2092743 -132.3614349 -4.2738857
-175.7259216 -132.6317749 -5.7197661
144.5166168 -132.7067413 -61.4158554
142.8710938 -132.3580627 -58.9939804
63.4593277 -134.2520752 -59.1187973
62.2327538 -134.5690918 -60.9501266
60.9542732 -134.9391479 -62.9979210
-99.2472992 -132.2169952 -22.4099312
-100.2934875 -131.8126373 -19.7753048
-171.0181274 -130.4798584 -1.0241799
-172.5451355 -130.7092438 -2.2326858
-174.0729675 -130.9537048 -3.5439253
-175.5673676 -131.2100525 -4.9303527
144.4253082 -131.3066406 -60.8673210
142.7705841 -130.9681244 -58.4861488
63.4327621 -132.8578644 -58.6866913
62.1865425 -133.1768188 -60.5065765
-99.1590881 -130.7455292 -21.3900204
-100.1943512 -130.3792572 -18.9101887
-173.9395752 -129.5602570 -2.8735530
-175.4178925 -129.7998810 -4.2045956
-176.9876099 -130.0878601 -5.7321486
144.3602448 -129.9307404 -60.4287796
142.7121582 -129.6048126 -58.1182556
63.3977890 -131.4862366 -58.3566284
62.1531639 -131.7922211 -60.1258545
-98.0235825 -129.7240753 -23.2404594
-99.0727997 -129.3067017 -20.5112648
-100.1084976 -128.9688110 -18.1659660
-173.8197327 -128.1805420 -2.2771940
-175.3126526 -128.4182587 -3.5874467
-176.8707275 -128.6937714 -5.0797563
144.3056335 -128.5684814 -60.0834885
142.6701355 -128.2564545 -57.8420906
63.3899918 -130.1146545 -58.0518608
62.1324768 -130.4165039 -59.7991028
-97.9568176 -128.2782745 -22.3727303
-176.7459412 -127.3060303 -4.4868097
-178.3840790 -127.6105118 -6.1372275
144.2672729 -127.2203827 -59.8365707
142.6473541 -126.9185104 -57.6294327
63.3660240 -128.7603607 -57.8324242
62.1061554 -129.0558777 -59.5526924
-97.8963318 -126.8571243 -21.6042671
-176.6444702 -125.9382019 -3.9662845
-178.2586670 -126.2254486 -5.5663891
145.9443054 -126.2398682 -62.2321243
144.2160339 -125.8754578 -59.6119080
142.5959930 -125.5787430 -57.4266548
107.0633392 -123.4996033 -38.5219002
105.7266083 -123.5132523 -38.4134598
63.3430557 -127.4179382 -57.6770401
62.0932121 -127.7011566 -59.3523674
-96.8018341 -125.8682404 -23.7598076
-97.8270111 -125.4642410 -20.9793396
-176.5692444 -124.5854187 -3.5281801
-178.1351776 -124.8527832 -5.0621042
145.8941498 -124.9010468 -62.0730972
144.1900635 -124.5487671 -59.4858093
142.5897369 -124.2660522 -57.3692665
107.0446854 -122.2096710 -38.5092087
105.7159653 -122.2336044 -38.4526939
63.3322983 -126.0774384 -57.5551453
62.0659904 -126.3586884 -59.2107658
-96.7403107 -124.4743271 -23.1488228
-97.7627258 -124.0911407 -20.4612293
-176.5035248 -123.2462311 -3.1622944
-178.0791321 -123.5091934 -4.6800919
145.8923340 -123.5806885 -62.0111351
-96.6931305 -123.0912247 -22.6092911
-97.7237549 -122.7227936 -19.9947968
-176.4448547 -121.9141922 -2.8464108
-177.9966278 -122.1658936 -4.3163986
-179.6222229 -122.4542999 -5.9763937
145.8754578 -122.2687302 -62.0164719
-96.6464539 -121.7318573 -22.1948051
-97.6837921 -121.3777771 -19.6502190
-176.3787079 -120.5851898 -2.5671899
-177.9394836 -120.8354568 -4.0262308
-179.5447540 -121.1122131 -5.6402326
147.6802063 -121.3783417 -65.1501236
145.8694153 -120.9724808 -62.1250458
107.0382385 -118.3994293 -38.8070107
105.7068710 -118.4123077 -38.7058716
-95.6033325 -120.7818604 -24.7081032
-96.6155472 -120.3843765 -21.8636818
-97.6522827 -120.0437698 -19.3801060
-138.7404785 -116.6680069 9.7015905
-139.9913177 -116.6861267 9.7871780
-141.2396851 -116.7013779 9.8499641
-142.5203400 -116.7276535 9.8910093
-179.5198517 -119.7944565 -5.4271078
147.6869507 -120.0830307 -65.2969666
145.8779449 -119.6852417 -62.2987518
107.0702515 -117.1405029 -39.0017281
105.7170410 -117.1486130 -38.8595467
-95.5706406 -119.4362869 -24.4077454
-96.5895233 -119.0501480 -21.6080818
-97.6179352 -118.7247543 -19.2007122
-138.7394714 -115.4102173 9.7278767
-140.0004883 -115.4288483 9.8152266
-141.2444305 -115.4434052 9.8680992
-142.5099792 -115.4658508 9.9060469
-179.4683685 -118.4768829 -5.2472897
-181.0814972 -118.7621841 -6.9360485
145.9196777 -118.4085541 -62.5568199
144.1939087 -118.0805206 -60.0178642
142.6015472 -117.8134460 -57.9269485
107.0698700 -115.8732147 -39.1346931
105.7162094 -115.8848114 -39.0035172
63.3028221 -119.5066757 -57.7695160
62.0370827 -119.7648468 -59.3739700
-95.5497818 -118.1014786 -24.1759090
-138.7142792 -114.1447983 9.7354984
-142.5054779 -114.2081909 9.8970528
144.2433929 -116.8168106 -60.3479309
142.6287537 -116.5466766 -58.2146339
107.0648499 -114.6125870 -39.3078384
105.7321701 -114.6312714 -39.2296562
63.2964783 -118.2152634 -57.9769287
62.0390511 -118.4699249 -59.5745239
-95.5297012 -116.7895050 -24.0912762
-138.7271118 -112.8977966 9.6856098
-142.5137329 -112.9557953 9.8551474
144.2657471 -115.5560684 -60.6933632
142.6640625 -115.2869034 -58.5540466
63.3133278 -116.9261627 -58.2013741
62.0313225 -117.1841888 -59.8466988
-94.5229340 -115.9036407 -27.1708260
-95.5389404 -115.4763489 -24.0027962
-138.7426453 -111.6531525 9.5858812
-140.0141296 -111.6691360 9.6778402
-141.2575073 -111.6853638 9.7407694
-142.5227661 -111.7074127 9.7803488
144.3412628 -114.3135986 -61.1949387
142.7212067 -114.0396042 -59.0010796
63.3223114 -115.6452484 -58.4884567
62.0533371 -115.9008026 -60.1366768
-94.5072327 -114.6011276 -27.1786404
-95.5432587 -114.1791534 -24.0173321
-138.7849426 -110.4140778 9.4757214
-140.0145111 -110.4222488 9.5756493
-141.2737427 -110.4416580 9.6447239
-142.5291901 -110.4605560 9.6906357
146.1260986 -113.4077988 -64.4053650
144.3898315 -113.0776215 -61.7365379
142.7751312 -112.8011398 -59.5161552
63.3364296 -114.3700562 -58.8320503
62.0811462 -114.6225739 -60.4639740
-94.5162506 -113.3059006 -27.2470474
-95.5505066 -112.8949585 -24.1262512
-179.4423523 -112.0362549 -5.2207937
-181.0471344 -112.2980042 -6.8687868
146.2354126 -112.1852570 -65.1307220
144.4578857 -111.8492966 -62.3621178
142.8461151 -111.5683212 -60.0888824
63.3336220 -113.1042404 -59.2544022
62.0866318 -113.3552933 -60.8901253
-94.5313568 -112.0228424 -27.4041996
-95.5634384 -111.6209564 -24.3117485
-179.4579773 -110.7707062 -5.3767061
-181.0686340 -111.0303192 -7.0314002
144.5377808 -110.6274567 -63.0344734
142.9058838 -110.3430862 -60.7003937
63.3741875 -111.8392639 -59.6729317
62.1058464 -112.0924225 -61.3572998
60.8600883 -112.3583679 -63.1412964
-95.5799408 -110.3570251 -24.5739365
-179.4920044 -109.5130844 -5.5909929
-181.1038208 -109.7719727 -7.2622318
144.6320343 -109.4162140 -63.8185577
142.9926300 -109.1302185 -61.4420166
63.3760948 -110.5832825 -60.1931763
62.1304703 -110.8345795 -61.8635025
60.8869362 -111.1052780 -63.6915245
59.6233749 -111.3952103 -65.7033997
-95.6216736 -109.1001587 -24.8944645
-179.5341492 -108.2623596 -5.8591027
-181.1283875 -108.5175629 -7.5249004
144.7715149 -108.2083282 -64.7085571
143.0938416 -107.9274063 -62.2816277
60.9192505 -109.8558350 -64.2978516
-95.6586304 -107.8573761 -25.3185692
-179.5769653 -107.0172958 -6.1726046
143.1878052 -106.7322006 -63.1806908
60.9492340 -108.6137543 -64.9864655
-95.7152100 -106.6183929 -25.7886677
-179.6658325 -105.7847366 -6.5899601
143.3146820 -105.5461197 -64.1911926
141.6556702 -105.2745438 -61.8423462
140.0479736 -105.0400085 -59.8049812
60.9814949 -107.3793030 -65.7393951
-95.7518997 -105.3922272 -26.3825150
-96.7827225 -105.0535889 -23.5979042
-97.8238373 -104.7526093 -21.1236534
-176.6179352 -104.1106567 -4.0853686
-178.1629028 -104.3221970 -5.4809780
-179.7479095 -104.5569839 -7.0495119
-181.3725586 -104.8072281 -8.7652035
143.4622040 -104.3629608 -65.2895508
141.7690735 -104.0901794 -62.8464279
140.1526794 -103.8483582 -60.7334824
61.0276451 -106.1510773 -66.5335846
-95.7942886 -104.1757202 -27.0839882
-96.8534317 -103.8336411 -24.1876907
-97.8803101 -103.5319519 -21.6975670
-176.7120819 -102.8883514 -4.5690923
-178.2417297 -103.0986557 -5.9631581
141.9166565 -102.9213486 -64.0043335
140.2852173 -102.6641006 -61.7944298
63.5440063 -104.3938065 -63.6121063
62.2957306 -104.6510925 -65.4490128
61.0641556 -104.9311829 -67.4611130
-96.9118042 -102.6243668 -24.9059639
-97.9465561 -102.3190460 -22.3418350
-176.8028870 -101.6711502 -5.0940280
-178.3584900 -101.8822021 -6.5314665
142.0792694 -101.7633972 -65.2831726
140.4114075 -101.4996033 -62.9250679
63.5808830 -103.1764832 -64.5258026
62.3401184 -103.4385223 -66.4072418
61.1032791 -103.7213287 -68.4823685
-96.9945145 -101.4216156 -25.6709900
-98.0252991 -101.1129456 -23.0442791
-176.9001465 -100.4603882 -5.6760759
-178.4490662 -100.6729355 -7.1346283
142.2826385 -100.6148376 -66.7131195
140.5749359 -100.3398438 -64.2088928
63.6405716 -101.9698334 -65.4877014
62.3909950 -102.2355347 -67.4495010
-97.0599213 -100.2255096 -26.5669899
-98.1082916 -99.9166718 -23.8616486
-177.0256958 -99.2556534 -6.3349619
-178.5569763 -99.4696045 -7.8004427
140.7515106 -99.1781693 -65.5635071
63.6879959 -100.7671890 -66.5774918
62.4437408 -101.0343475 -68.5893097
-97.1506805 -99.0364838 -27.5155106
-98.2021790 -98.7292023 -24.7710953
-177.1430664 -98.0569153 -7.0354066
-178.6958313 -98.2739487 -8.5534878
140.9724731 -98.0287399 -66.9989777
139.2601318 -97.7905655 -64.7221298
137.6421204 -97.5823517 -62.7014542
66.2388611 -99.0937958 -64.1436920
64.9884338 -99.3250351 -65.8614807
63.7551498 -99.5744019 -67.7334671
-98.3161163 -97.5510101 -25.7272644
-177.2737427 -96.8649979 -7.8092904
-178.8704834 -97.0854492 -9.4096975
139.4551392 -96.6426010 -66.2809982
137.8172455 -96.4409637 -64.1413345
66.3025665 -97.8981705 -65.2853546
65.0576401 -98.1327362 -67.0663605
-98.4123688 -96.3863068 -26.8889618
