93.4599075 -130.5881500 -48.7981110
90.8319550 -130.7198181 -49.2389336
62.4448318 -133.9362488 -65.3250961
-98.7730865 -132.1455994 -30.2544765
-100.9013672 -131.4700317 -25.6819687
-103.1068649 -130.9314270 -21.9606895
-133.8757629 -128.2163391 -0.3062841
-136.3404236 -128.1899414 0.2218404
-138.8417358 -128.1841431 0.6261370
-141.3411865 -128.1967773 0.9161102
-143.8682861 -128.2305756 1.0737370
-146.3961792 -128.2819519 1.1243033
-176.3063660 -130.5766296 -8.9247856
-179.3475647 -131.0365295 -11.3748760
138.3409729 -129.6494141 -66.1489258
135.2228088 -129.2167664 -62.9065285
109.5415649 -127.7756500 -49.8565254
106.8244019 -127.7736359 -49.4321556
104.1309814 -127.7908020 -49.1500931
101.4537430 -127.8377228 -49.0416069
96.1420746 -127.9823532 -49.2048531
62.4713287 -131.3885803 -66.0828018
-98.8059769 -129.5853577 -30.6306190
-100.9405060 -128.9225769 -26.0607204
-103.1478577 -128.3926086 -22.3310184
-129.0077820 -125.8389893 -2.1105680
-131.4636536 -125.7705154 -1.3044004
-176.3586426 -128.0455475 -9.2657595
-179.3995667 -128.4983063 -11.7222929
-182.5483398 -129.0398560 -14.7341738
135.3488312 -126.7591248 -64.0660095
109.6078796 -125.3027420 -50.7092133
106.8968506 -125.2985306 -50.2907715
104.1891937 -125.3174591 -49.9819946
101.5190735 -125.3542862 -49.8575592
98.8543701 -125.4170380 -49.8662834
96.1937866 -125.5018311 -50.0288239
62.5105476 -128.8700104 -67.0570526
-101.0029144 -126.4079285 -26.6627731
-103.2102509 -125.8838043 -22.9066639
-129.0790863 -123.3663940 -2.5935028
-131.5245972 -123.3020859 -1.8071687
-176.4488678 -125.5441284 -9.8065624
-179.4888611 -125.9904251 -12.2752934
135.5077667 -124.3375244 -65.5137787
132.4328613 -123.9766159 -62.6469650
129.4523163 -123.6912842 -60.2989998
62.5597458 -126.3766785 -68.2368774
-101.0914307 -123.9276123 -27.5155220
-103.2927933 -123.4020233 -23.6798210
-176.5796967 -123.0704346 -10.5462761
-179.6326294 -123.5158386 -13.0628300
135.7047424 -121.9478607 -67.2390900
132.6083679 -121.5718994 -64.2285309
129.6000519 -121.2771759 -61.7532501
62.6215172 -123.9122620 -69.6670303
-101.2017975 -121.4795761 -28.6138115
-103.3951263 -120.9500504 -24.6855774
-176.7419128 -120.6220398 -11.4814749
135.9311829 -119.5919037 -69.2588348
132.8035278 -119.1951752 -66.0477829
129.7925415 -118.8852615 -63.4447021
126.8229752 -118.6375732 -61.2907944
123.9128113 -118.4420471 -59.4825249
67.7993469 -120.5674744 -65.8068771
65.2407074 -120.9920502 -68.3737640
62.7001190 -121.4764328 -71.3526459
-101.3475266 -119.0641785 -29.9786930
-103.5301666 -118.5256424 -25.9162254
-105.7586823 -118.0873795 -22.5411072
-108.0364761 -117.7159119 -19.6233406
-171.0540771 -117.4917679 -8.6078930
-173.9486237 -117.8169022 -10.4215908
-176.9365082 -118.1963120 -12.6122894
133.0555115 -116.8524704 -68.2115173
130.0010681 -116.5259857 -65.4167633
127.0170517 -116.2642212 -63.1339569
124.0957642 -116.0589142 -61.2202721
67.8934479 -118.1441803 -67.5249557
65.3318939 -118.5783081 -70.2164078
62.8017769 -119.0741272 -73.3383636
-103.6860428 -116.1339264 -27.4316120
-105.9131851 -115.6862183 -23.9199867
-108.1763992 -115.3090973 -20.9171295
-171.2551575 -115.0853882 -9.8181744
-174.1782684 -115.4137955 -11.7043886
-177.1777191 -115.7988129 -13.9722538
133.3437195 -114.5561829 -70.7634277
130.2616272 -114.1974030 -67.7150497
127.2434235 -113.9178619 -65.2373581
124.3081360 -113.6974030 -63.2112122
121.4024506 -113.5265656 -61.5185928
118.5577087 -113.3925171 -60.1331215
115.7346954 -113.2941132 -58.9813461
112.9572906 -113.2230911 -58.0713387
73.1198883 -115.0294266 -65.0894470
70.5529480 -115.3659286 -67.1285477
68.0003281 -115.7508240 -69.5360489
65.4437637 -116.1946716 -72.3398514
-103.8768234 -113.7758102 -29.2325287
-106.0889587 -113.3108444 -25.5340214
-108.3444824 -112.9263611 -22.4149837
-110.6300049 -112.6022797 -19.7296963
-112.9452667 -112.3233871 -17.3666534
-165.8173218 -112.1680832 -8.2417183
-168.6285248 -112.4161377 -9.5946779
-171.4981842 -112.7011108 -11.2332945
-174.4364929 -113.0354004 -13.2026644
130.5655518 -111.9091034 -70.4111099
127.5102539 -111.6042175 -67.6840668
124.5482330 -111.3666916 -65.4941864
121.6261826 -111.1820526 -63.6850739
118.7664795 -111.0387421 -62.1925125
115.9315567 -110.9344025 -60.9827766
113.1364670 -110.8579330 -59.9890900
73.2461700 -112.6465607 -67.1593933
70.6739120 -112.9948807 -69.3193665
68.1251221 -113.3892822 -71.8679962
-106.2918701 -110.9657669 -27.4650326
-108.5390320 -110.5711746 -24.1798534
-110.8193588 -110.2368011 -21.3817863
-113.1283417 -109.9525223 -18.9403839
-166.0660248 -109.7985916 -9.7384558
-168.9014435 -110.0501938 -11.1727581
-171.7806396 -110.3405457 -12.8774490
-174.7433929 -110.6823120 -14.9546537
130.9298401 -109.6810989 -73.6510544
127.8240433 -109.3306198 -70.5597610
124.8423691 -109.0717010 -68.1668396
121.8918228 -108.8686218 -66.1742630
119.0057526 -108.7146149 -64.5600281
116.1587448 -108.5965424 -63.2631378
113.3471985 -108.5127792 -62.1887245
89.0101395 -108.9089508 -61.4811668
86.3788376 -109.0728226 -62.2687111
78.5544052 -109.7076569 -65.8992767
75.9632492 -109.9828568 -67.5794678
73.3908310 -110.2963715 -69.5265121
70.8164978 -110.6503067 -71.8371353
68.2672653 -111.0638428 -74.5539932
-106.5459900 -108.6592941 -29.7216568
-108.7650452 -108.2426682 -26.2527809
-111.0340805 -107.8977585 -23.2958641
-113.3372498 -107.6076660 -20.7421150
-115.6616974 -107.3570251 -18.5126648
-118.0136414 -107.1471939 -16.5602093
-166.3563843 -107.4477081 -11.4511652
-169.2017822 -107.7052765 -12.9598017
-172.1159515 -108.0053711 -14.7905016
-175.1073151 -108.3601532 -17.0098972
128.2057190 -107.1196442 -74.0155792
125.1717377 -106.8170471 -71.2577362
122.1901398 -106.5883789 -69.0440674
119.2895050 -106.4173584 -67.2690735
116.4189453 -106.2893982 -65.8310013
113.5851059 -106.1957092 -64.6816940
89.1759033 -106.5597076 -63.7570610
86.5432968 -106.7214432 -64.6029510
78.7200546 -107.3737183 -68.4019928
76.1281281 -107.6530838 -70.1934509
73.5564957 -107.9747391 -72.2808380
70.9923401 -108.3487549 -74.7693405
-106.8424606 -106.4001846 -32.4325409
-109.0289459 -105.9486542 -28.6529655
-111.2854767 -105.5858536 -25.4932785
-113.5734634 -105.2819443 -22.8214455
-115.8980560 -105.0277328 -20.4745102
-118.2386627 -104.8089447 -18.4199409
-166.6846008 -105.1191177 -13.3994732
-169.5503235 -105.3840408 -15.0058975
-172.4965515 -105.6987152 -16.9770813
125.5958176 -104.6308975 -75.0327301
122.5476913 -104.3576813 -72.4123077
119.6207504 -104.1609955 -70.4277802
116.7098923 -104.0131149 -68.8049088
113.8716278 -103.9069519 -67.5222778
111.0546265 -103.8374329 -66.5400162
108.2674332 -103.7948151 -65.8087158
84.1142502 -104.5902176 -68.3199921
81.5029907 -104.8086395 -69.6921616
78.9056244 -105.0650177 -71.2862701
76.3225174 -105.3573456 -73.1922836
-109.3477631 -103.7026367 -31.5125732
-111.5745163 -103.3087997 -28.0765266
-113.8519135 -102.9897766 -25.2002449
-116.1616669 -102.7207336 -22.7331104
-118.5046997 -102.4937134 -20.5775986
-161.4400024 -102.3810272 -13.0612040
-164.2203064 -102.5818558 -14.2065830
-167.0587311 -102.8151703 -15.6354713
-169.9525299 -103.0943146 -17.3852386
-172.9414673 -103.4264069 -19.5538521
120.0141144 -101.9620056 -74.1818695
117.0751648 -101.7837677 -72.3186646
114.1978912 -101.6597900 -70.8449249
111.3605499 -101.5750504 -69.7263641
108.5514984 -101.5277786 -68.8589325
84.3306046 -102.3057861 -71.4451904
81.7278137 -102.5356750 -72.8940277
79.1340027 -102.8019638 -74.6454468
76.5494003 -103.1146469 -76.7818069
-111.9307938 -101.0805359 -31.1420727
-114.1718903 -100.7299881 -27.9891243
-116.4730072 -100.4457855 -25.3176098
-118.7978134 -100.2074585 -23.0366554
-161.8310699 -100.0859833 -15.4025154
-164.6325073 -100.2951508 -16.6567669
-167.4987488 -100.5457993 -18.2276669
-170.4314270 -100.8409653 -20.1631069
117.5154953 -99.6290588 -76.5582199
114.5955276 -99.4698792 -74.7890625
111.7233047 -99.3633728 -73.4567566
108.8930969 -99.2914886 -72.4849930
106.1096573 -99.2644424 -71.7550201
103.3396912 -99.2627716 -71.3387299
100.6121140 -99.2960129 -71.1279068
97.8841171 -99.3522644 -71.2158432
89.8545227 -99.6884613 -72.7798920
87.2202148 -99.8622894 -73.7820282
84.5914841 -100.0689087 -75.0770416
81.9904938 -100.3115387 -76.7092209
-114.5591431 -98.5191345 -31.2788258
-116.8288956 -98.2059097 -28.3467007
-119.1415329 -97.9511337 -25.8663445
-121.4852600 -97.7381439 -23.7418823
-123.8553391 -97.5635757 -21.9060974
-126.2495651 -97.4185562 -20.3400002
-128.6663513 -97.3001328 -18.9954834
-156.7529297 -97.4787598 -16.1086807
-159.4884338 -97.6362457 -16.9657383
-162.2652283 -97.8229218 -18.0790195
-165.0997314 -98.0436859 -19.4761963
-168.0104675 -98.3126297 -21.2442207
112.1715088 -97.2269745 -78.0526428
109.3164749 -97.1325684 -76.8361206
106.5038147 -97.0844269 -75.9604111
103.7039795 -97.0695496 -75.4426880
100.9652252 -97.0945435 -75.1515427
98.2217712 -97.1466675 -75.2021484
90.1893616 -97.4926605 -76.8803558
87.5345306 -97.6752319 -78.0349579
84.9241562 -97.9017868 -79.5083084
-117.2617035 -96.0223465 -31.9464569
-119.5437927 -95.7376633 -29.1845055
-121.8741150 -95.5082932 -26.8646755
-124.2355728 -95.3178558 -24.8975353
-126.6203995 -95.1629257 -23.2003937
-129.0317383 -95.0385742 -21.7745781
-157.2022705 -95.2279892 -18.9541512
-159.9691315 -95.3939743 -19.9457397
-162.7784119 -95.5915985 -21.2049828
-165.6575012 -95.8358765 -22.8154907
101.4040680 -94.9775620 -80.1289520
98.6505432 -95.0227280 -80.1491547
95.9442215 -95.1079483 -80.3927765
93.2497940 -95.2284241 -81.0832825
90.5956039 -95.3980484 -82.0417480
-120.0317535 -93.5893936 -33.2131920
-122.3368683 -93.3233185 -30.5772018
-124.6753006 -93.1160049 -28.3802242
-127.0480728 -92.9473877 -26.5264492
-129.4543457 -92.8104782 -24.9704552
-131.8859863 -92.7062302 -23.6813850
-134.3457031 -92.6284485 -22.6203709
-152.2987976 -92.7547913 -20.8673592
-155.0003357 -92.8672256 -21.4486256
-157.7375336 -93.0130997 -22.2937355
-160.5273285 -93.1949005 -23.4163857
-163.3886108 -93.4192963 -24.9134731
-127.5622711 -90.7844086 -30.5013199
-129.9539795 -90.6304016 -28.7680588
-132.3772278 -90.5150375 -27.3409328
-134.8348999 -90.4283447 -26.1958618
-152.8668518 -90.5600433 -24.5264549
-155.5934753 -90.6916885 -25.2338867
-158.3764191 -90.8560791 -26.2771511
-128.2060242 -88.7220459 -35.5005035
-130.5692139 -88.5289764 -33.4397049
-132.9718628 -88.3884201 -31.7872505
-135.4222717 -88.2874374 -30.4838905
-137.9007874 -88.2227631 -29.4679146
-140.4187622 -88.1830826 -28.7457695
-142.9636688 -88.1780167 -28.2531643
-145.5566406 -88.1987152 -28.0396061
-148.1698608 -88.2486343 -28.0584030
-150.8384094 -88.3250580 -28.3721962
-153.5485382 -88.4408951 -28.9783001
-138.6404114 -86.1786270 -34.8087463
-141.1553955 -86.1300888 -33.9643173
-143.7134399 -86.1192474 -33.4675179
-146.3251953 -86.1399384 -33.3050690
103.4667358 -187.0238495 -73.1752853
102.0930328 -187.0328827 -73.0886536
100.7301102 -187.0847473 -73.1430588
99.3812103 -187.1636353 -73.3368530
98.0346909 -187.3076019 -73.6363373
96.7106628 -187.4662781 -74.0571976
95.4060059 -187.6337433 -74.6547470
111.5831680 -185.2940521 -72.3076324
110.1397324 -185.1441498 -71.5392990
108.7024994 -185.0296326 -70.9064331
107.2963715 -184.9641266 -70.4266968
105.8945160 -184.9301453 -70.0729980
104.5090027 -184.9369812 -69.8241043
103.1304932 -184.9433746 -69.6476593
96.4008484 -185.3313904 -70.4984055
95.0830154 -185.4551697 -70.9578857
93.7757111 -185.6065979 -71.5037231
92.4579010 -185.8389130 -72.2274017
91.1637726 -186.0678406 -73.0576630
117.1495209 -183.9775238 -73.1690140
115.5984344 -183.7022095 -71.8207169
114.1226959 -183.5178833 -70.7277756
112.6752701 -183.3643494 -69.8134003
111.2374725 -183.2447357 -69.0489197
109.8250580 -183.1675415 -68.4385452
108.4104691 -183.0858765 -67.8993988
107.0189514 -183.0429077 -67.5156403
105.6229095 -183.0519104 -67.2733002
104.2673950 -183.0517120 -67.0745087
102.8747940 -183.0623474 -66.9449768
96.1460800 -183.4177246 -67.6927948
94.8370972 -183.5384216 -68.0841980
93.5161743 -183.6629944 -68.5495911
92.1989059 -183.8457184 -69.1848297
90.8990707 -184.0290833 -69.8740768
87.0293732 -184.7683105 -72.7349701
116.7530823 -181.8980865 -69.7229233
90.6720123 -182.1810608 -67.3371735
89.3719559 -182.3563232 -68.0316925
88.0837402 -182.5768585 -68.8888321
86.8154144 -182.7961426 -69.8269043
85.5314941 -183.0648193 -70.9197769
84.2520065 -183.3817749 -72.1333771
82.9892654 -183.7303925 -73.5287476
120.9440765 -180.6875610 -70.8329849
119.4326782 -180.4046783 -69.3619080
117.9525146 -180.2105255 -68.1442566
116.4659729 -180.0270691 -67.0898132
90.4866486 -180.4141541 -65.2179794
89.1977692 -180.5746002 -65.8375397
87.8980865 -180.7712250 -66.5830231
86.6088257 -180.9775391 -67.4195404
85.3167877 -181.2186127 -68.3880844
84.0475922 -181.4606476 -69.4301910
82.7802429 -181.7468719 -70.6539993
81.5040436 -182.1119843 -72.0840378
-135.9382782 -179.3298340 -27.9814110
-137.1452942 -179.1649170 -27.2028732
-138.3645630 -179.0445099 -26.5913315
-139.5926361 -178.9548645 -26.0417709
-140.8582916 -178.9237976 -25.6683159
-146.0411987 -179.0254211 -25.2852001
-147.3860474 -179.1379395 -25.4964180
122.1479645 -179.0510712 -69.5304565
120.6214523 -178.7805786 -68.0887222
119.1495972 -178.5820007 -66.8773499
82.5787659 -179.9335938 -68.2685165
81.3221970 -180.2176514 -69.4844894
80.0715942 -180.5235291 -70.8230133
-130.6854401 -177.8217316 -27.9436436
-131.8415680 -177.5897827 -26.7981796
-133.0117035 -177.4145203 -25.7788925
-134.1940613 -177.2749176 -24.9246883
-135.3925476 -177.1460419 -24.1557846
-139.0755310 -176.9406738 -22.5695210
-140.3366852 -176.9038696 -22.2207756
-141.6148987 -176.8902283 -21.9592648
-142.9028168 -176.9004822 -21.8236122
-144.1996307 -176.9295197 -21.7981415
-145.5012817 -176.9600220 -21.8140335
-146.8279419 -177.0039520 -21.9099312
-148.1706696 -177.1055145 -22.1502934
-149.5135498 -177.2223511 -22.4557686
-150.8848419 -177.3477020 -22.9088783
-152.2962646 -177.5260925 -23.5117722
124.9682159 -177.7651367 -70.1725388
123.3964844 -177.4405823 -68.4773102
121.8535538 -177.2036285 -67.0572968
120.3602753 -176.9917297 -65.8282013
118.9209900 -176.8261108 -64.7916718
82.4335022 -178.1965942 -66.2563324
81.1501312 -178.4729614 -67.3851929
79.8999710 -178.7437744 -68.5837326
78.6203232 -179.0668488 -69.9552841
-127.9133987 -176.2195282 -26.9259148
-129.0514374 -175.9709778 -25.6446056
-130.2155457 -175.7740479 -24.5138836
-131.3775177 -175.6093903 -23.5420685
-132.5776367 -175.4823608 -22.7094669
-133.7698822 -175.3523865 -21.9413815
-134.9889984 -175.2511444 -21.2737846
-138.6888123 -175.0716858 -19.8710785
-139.9517059 -175.0479126 -19.5622292
-141.2235107 -175.0271149 -19.3120289
-142.5014954 -175.0447083 -19.1766052
-143.7808685 -175.0500183 -19.0792179
-145.0859985 -175.0974121 -19.0850449
-146.4065552 -175.1356964 -19.1429939
-147.7364655 -175.2136078 -19.3262596
-149.0688171 -175.3021088 -19.5753784
-150.4159851 -175.3904877 -19.8773766
-151.7855988 -175.5282745 -20.3201427
126.2061996 -176.2349091 -69.4193573
124.6988907 -175.9569244 -67.7902985
79.7393875 -177.0254669 -66.6494751
78.4649963 -177.3206940 -67.8876038
77.2051086 -177.6378174 -69.2622147
75.9436798 -177.9949799 -70.8446579
-125.2414246 -174.7216187 -26.4839706
-126.3616867 -174.4652100 -25.0829391
-127.5006866 -174.2496033 -23.8582249
-151.3912354 -173.7038422 -17.7652035
-152.7647705 -173.8090820 -18.1869659
-154.1480408 -173.9640503 -18.7630634
-155.5536804 -174.1567688 -19.4102058
-156.9772186 -174.3712921 -20.1627865
127.4741135 -174.7707672 -68.8675232
125.9406433 -174.4678345 -67.1858368
124.4480515 -174.2046814 -65.7173233
79.6050720 -175.3476868 -64.9457016
78.3218002 -175.6275635 -66.1085205
77.0594482 -175.9172211 -67.3731232
75.7945557 -176.2298126 -68.7790070
74.5453262 -176.5935974 -70.3155823
-122.6158524 -173.3723145 -26.6135635
-123.7437744 -173.0830994 -25.0635567
-124.8706207 -172.8421173 -23.6999664
-126.0102081 -172.6300659 -22.4880447
-127.1699677 -172.4386292 -21.4114914
-151.0558014 -171.9602051 -15.6441917
-152.4277191 -172.0796204 -16.0296021
-153.7786713 -172.1974487 -16.4763832
-155.1692505 -172.3535919 -17.0434113
-156.5743561 -172.5221558 -17.7056122
-158.0092316 -172.7255859 -18.4897861
-159.4833984 -172.9859467 -19.4108391
128.8109283 -173.3270569 -68.5746231
127.2080307 -173.0069580 -66.7756882
74.4193878 -174.8576965 -68.4180679
73.1589050 -175.2344666 -70.0287476
-119.0305023 -172.4941559 -29.2055931
-120.0900574 -172.1095276 -27.2209930
-121.1758575 -171.7856750 -25.4896927
-122.2903290 -171.5249023 -23.9927559
-159.0631714 -171.1471252 -17.0224686
-160.4956665 -171.3717194 -17.9104137
-161.9865875 -171.6552582 -18.9735832
130.1821442 -171.9759521 -68.5776672
128.5848846 -171.6525116 -66.7120056
127.0054321 -171.3652039 -65.0728378
74.3014984 -173.2155914 -66.8011551
73.0387192 -173.5426178 -68.2802658
-118.6744919 -170.5818939 -26.3352547
-119.7605972 -170.2763672 -24.6601276
-120.8770905 -170.0056000 -23.1527786
-122.0105591 -169.7842102 -21.8331490
-158.7401123 -169.4497375 -15.0343256
-160.1544952 -169.6405945 -15.8124332
-161.5942383 -169.8535919 -16.7163963
-163.1008148 -170.1322632 -17.7907982
-164.6294098 -170.4485779 -18.9872856
131.5241394 -170.6047058 -68.6139069
129.9597321 -170.2784424 -66.7311554
74.1876831 -171.5948792 -65.3620224
72.9215698 -171.9067230 -66.7332077
71.6664200 -172.2500916 -68.2632599
70.4191437 -172.6204224 -69.9469757
-116.2009659 -169.4871063 -27.7031898
-117.2741699 -169.1218719 -25.7619743
-118.3843384 -168.8084869 -24.0541058
-119.4959259 -168.5466003 -22.5530510
-161.2733917 -168.1737671 -14.7998352
-162.7335510 -168.3962708 -15.7355299
132.8563538 -169.2878113 -68.7843246
131.3044128 -168.9487152 -66.8553314
129.7786407 -168.6684875 -65.1887207
74.0814285 -170.0229797 -64.0959320
72.8268738 -170.2973785 -65.3463135
71.5673981 -170.6144104 -66.7730103
70.3132172 -170.9618835 -68.3672333
69.0464478 -171.3596649 -70.1269608
-113.8098145 -168.4999542 -29.6385517
-114.8545837 -168.0599365 -27.3727455
-115.9206009 -167.7123566 -25.4294281
-117.0134735 -167.4100037 -23.7163200
-118.1468506 -167.1196442 -22.1310329
-119.2699585 -166.8810425 -20.7566051
-160.9963074 -166.5426941 -13.1422806
-162.4402008 -166.7510681 -13.9834881
-163.9208069 -166.9795685 -14.9457932
-165.3909912 -167.2254028 -16.0144444
-166.8944092 -167.5396729 -17.1944466
134.2487488 -167.9967804 -69.2007217
132.6444855 -167.6321716 -67.0886917
68.9580765 -169.7183685 -68.6360855
-113.5253296 -166.6774750 -27.1878376
-114.5932693 -166.3191833 -25.2057152
-166.5362396 -165.8227844 -15.3510380
-168.0868835 -166.1394806 -16.6318474
134.0369263 -166.3501740 -67.5527649
132.4677734 -166.0372467 -65.6589432
68.8610458 -168.1357880 -67.3370132
67.6139603 -168.5036621 -69.0125580
66.3467255 -168.9219513 -70.8746338
-112.2194214 -165.3273621 -27.1829948
-113.2808609 -164.9665985 -25.1646500
-114.3699112 -164.6591797 -23.3984680
-166.2662201 -164.2088623 -13.7601633
-167.7782288 -164.4784241 -14.9326468
-169.3382874 -164.7966461 -16.2174721
133.8646240 -164.7716827 -66.1876831
132.3077698 -164.4818878 -64.4208984
66.2904510 -167.2842560 -69.5258484
65.0142288 -167.7361908 -71.5160522
-110.9264145 -164.0353851 -27.4190674
-111.9915390 -163.6554565 -25.3092079
-169.0363770 -163.1554871 -14.6153469
135.4011383 -163.5989380 -67.1164780
133.7099915 -163.2199707 -64.9895020
132.1580048 -162.9412994 -63.3093872
66.1973114 -165.7326660 -68.3316879
64.9656982 -166.1117859 -70.1723328
-108.6221161 -163.2283630 -30.2919521
-109.6582489 -162.7538452 -27.7766895
-110.7113495 -162.3808289 -25.6206837
-111.8015442 -162.0374756 -23.6993198
-168.7741089 -161.5672913 -13.1781244
136.8420715 -162.3973389 -68.0074615
135.2122345 -162.0423279 -65.8775482
66.1288681 -164.1801453 -67.2213974
64.8864975 -164.5530701 -69.0036850
63.6223984 -164.9802399 -70.9774933
-107.3839264 -162.0061035 -30.9371643
-108.4109192 -161.5180054 -28.3119431
-109.4590912 -161.1070862 -26.0204182
-168.5711823 -160.0405579 -11.9471598
-170.0716248 -160.2915649 -13.0923758
-171.5665283 -160.5717163 -14.3295259
138.2865906 -161.2279053 -69.0235443
136.6919708 -160.8630676 -66.8513794
135.0633545 -160.5181122 -64.8294907
66.0501328 -162.6782837 -66.2854538
64.8140411 -163.0290222 -67.9782715
63.5566292 -163.4204712 -69.8847427
-107.1823654 -160.3038330 -28.9979439
-108.2125473 -159.8914185 -26.6474056
-109.2809296 -159.5236816 -24.5672035
-168.3807068 -158.5268250 -10.8368139
-169.8542480 -158.7635803 -11.9020796
-171.3221436 -159.0209503 -13.0545673
-172.8561096 -159.3305054 -14.3370218
138.1235657 -159.6926880 -67.9039917
63.4958038 -161.8970642 -68.8874664
62.2532654 -162.3014832 -70.8732452
-106.9972610 -158.6882935 -27.4004765
-174.2266235 -158.1186829 -14.6125078
139.6507874 -158.5971222 -69.2824707
137.9946136 -158.1941223 -66.9254608
63.4385376 -160.3940125 -67.9863281
62.1891747 -160.7821198 -69.8910446
-104.7480927 -158.0179291 -31.0423355
-105.7848129 -157.5276489 -28.3642616
-106.8344345 -157.1210327 -26.0327148
-173.9786682 -156.5689087 -13.4436169
139.4934235 -157.0757904 -68.2658463
137.8739166 -156.7109985 -66.0515823
63.3757896 -158.9166412 -67.2125244
62.1312675 -159.2848663 -69.0311279
-104.5899353 -156.4025269 -29.4938507
-173.7814178 -155.0700378 -12.4140129
139.3547058 -155.5957031 -67.3925629
137.7605743 -155.2576752 -65.3044434
63.3271446 -157.4564056 -66.5313187
62.0899506 -157.8027954 -68.2726517
60.8077087 -158.2102203 -70.2352982
-104.4463196 -154.8353577 -28.1321507
-173.6171722 -153.6031494 -11.4974747
141.0098877 -154.5675354 -69.1105957
139.2757111 -154.1529846 -66.7007599
137.6984558 -153.8363647 -64.7165604
60.7845840 -156.7277679 -69.5011292
59.4868164 -157.1639404 -71.5997162
-103.2812500 -153.7309875 -29.4129353
-104.3229599 -153.3044434 -26.9478760
-173.4614563 -152.1498260 -10.6706219
-175.0397034 -152.4426727 -11.9899902
140.8829498 -153.0776062 -68.2915115
139.2053528 -152.7337799 -66.1219330
137.5807648 -152.4098969 -64.1430130
60.7429619 -155.2736816 -68.8665466
-103.1650009 -152.2078247 -28.2804718
-104.2066422 -151.8212891 -25.9669685
-173.3266602 -150.7191772 -9.9418831
-174.8807220 -150.9907074 -11.2039671
-176.4063721 -151.2770996 -12.5243502
142.5580597 -152.1133423 -70.4612350
140.7994385 -151.6832581 -67.8392105
60.6881752 -153.8499451 -68.3536530
59.4418411 -154.2337036 -70.3205872
-102.0152283 -151.1487427 -29.8035774
-103.0520630 -150.7239380 -27.3112431
-104.1058273 -150.3613281 -25.1168098
-176.2593384 -149.8370972 -11.8134489
-177.8022919 -150.1380920 -13.2201548
142.4434967 -150.6861725 -69.9097214
140.6893768 -150.2649536 -67.3425598
60.6539917 -152.4324951 -67.8995667
59.4104118 -152.7997742 -69.8031845
58.1569519 -153.2063446 -71.8717880
-101.9192963 -149.6560974 -28.8244991
-102.9574432 -149.2644653 -26.4579182
-104.0302658 -148.9158020 -24.3424816
-176.1333923 -148.4197388 -11.1558523
-177.6729431 -148.7089081 -12.5424385
-179.2486877 -149.0272980 -14.0839186
142.3389130 -149.2651215 -69.4022293
140.6448822 -148.8783569 -66.9559555
60.6387787 -151.0211639 -67.4879150
59.3617973 -151.3941956 -69.4028168
58.1142426 -151.7839966 -71.4052887
-100.7714996 -148.6496582 -30.6493034
-101.8307648 -148.1950226 -27.9805470
-179.1154633 -147.5996704 -13.4025745
142.2978668 -147.8847351 -69.0570831
140.5859070 -147.5004883 -66.6308289
60.6095352 -149.6310730 -67.1714096
59.3536110 -149.9842224 -69.0100555
-99.6488647 -147.6856537 -32.7380028
-100.7000275 -147.1818848 -29.8128490
-101.7362366 -146.7657928 -27.2845459
-178.9945679 -146.1866150 -12.8019333
142.2154236 -146.5007477 -68.7257538
140.5794983 -146.1534424 -66.4422760
60.5764618 -148.2574768 -66.9346008
59.3369408 -148.5936279 -68.7069931
-100.6248474 -145.7424622 -29.0862598
-101.6663361 -145.3504791 -26.6565285
-178.8986511 -144.7998047 -12.2926340
-180.5344391 -145.1288910 -13.9129982
143.8973389 -145.5525208 -71.1133652
142.1822510 -145.1450500 -68.5193787
140.5029755 -144.7852783 -66.1989136
60.5599174 -146.8864441 -66.7372513
59.3001556 -147.2236023 -68.5060883
-99.5202026 -144.7707672 -31.1789894
-100.5605469 -144.3270569 -28.4712849
-101.6146698 -143.9495544 -26.1145401
-178.8076172 -143.4225464 -11.8481903
-180.4307709 -143.7389221 -13.4359303
143.8810425 -144.2042236 -70.9785385
104.6909790 -141.0731201 -46.9884644
103.3454056 -141.0920258 -46.8982315
60.5587845 -145.5227966 -66.5776825
-98.4262466 -143.8425293 -33.5300598
-99.4643555 -143.3516083 -30.5740662
-178.7345123 -142.0608826 -11.4793062
-180.3391266 -142.3647308 -13.0236263
-182.0016632 -142.7066040 -14.7086468
143.8603058 -142.8657074 -70.9045944
104.7061462 -139.7956085 -47.0876770
103.3458481 -139.8054657 -46.9613686
60.5276260 -144.1829376 -66.5294418
-98.3752136 -142.4157257 -32.9051895
-99.4118958 -141.9535980 -30.0664177
-178.6976013 -140.7180786 -11.2019262
-180.2866211 -141.0113678 -12.7056141
-181.8999023 -141.3309021 -14.3309298
143.8551025 -141.5363312 -70.8931580
104.6786118 -138.4957581 -47.1332703
103.3334579 -138.5155792 -47.0349274
102.0190659 -138.5456848 -47.0037155
100.6798782 -138.5793304 -46.9980202
60.5492401 -142.8341675 -66.4627380
-99.3686676 -140.5767212 -29.6702976
-181.8166199 -139.9694672 -14.0145483
-183.4666138 -140.3157349 -15.7783165
143.8661041 -140.2273407 -70.9979630
104.6908264 -137.2265015 -47.2771530
103.3534164 -137.2455597 -47.1810913
102.0165939 -137.2677460 -47.1238670
100.6820297 -137.2972412 -47.1032410
60.5270500 -141.5077667 -66.5017700
-98.3031082 -139.6482544 -32.1064606
-99.3372345 -139.2120361 -29.3451328
-181.7787170 -138.6307983 -13.7943850
143.8543854 -138.9223633 -71.1325989
107.3911896 -135.9349365 -47.7160759
106.0441895 -135.9455414 -47.5778236
104.7120285 -135.9678650 -47.4678421
102.0103149 -135.9850159 -47.2404404
100.6825485 -136.0199127 -47.2405624
60.5133362 -140.1898804 -66.6001434
-98.2717667 -138.2839661 -31.8028774
-99.3066864 -137.8636475 -29.1059151
-181.7314301 -137.2966614 -13.6037073
143.8850098 -137.6380310 -71.3989410
107.3891907 -134.6650696 -47.8941383
106.0635681 -134.6802826 -47.7819099
102.0294800 -134.7194214 -47.4290733
100.6856461 -134.7521362 -47.4355469
60.5270386 -138.8742065 -66.7188568
-97.2504807 -137.4140930 -34.6520424
-98.2386017 -136.9429626 -31.6185684
-99.2876892 -136.5303802 -28.9499702
-181.7059937 -135.9775391 -13.4912472
143.9091339 -136.3636932 -71.7278290
107.3991699 -133.4006653 -48.1057014
106.0701599 -133.4123077 -47.9813576
102.0457687 -133.4634705 -47.7134361
100.7128525 -133.4878998 -47.6560974
94.0958023 -133.7060547 -48.0315323
92.7815704 -133.7642822 -48.1924515
60.5322037 -137.5676575 -66.8923035
-97.2354965 -136.0692596 -34.4787369
-181.6984253 -134.6711731 -13.4516497
-183.2835693 -134.9777832 -15.1072197
143.9238281 -135.0997009 -72.1199188
107.4255600 -132.1420288 -48.3665466
106.0661469 -132.1535034 -48.2220917
104.7540665 -132.1536407 -48.1398239
103.4117737 -132.1687622 -48.0696983
102.0542679 -132.1994781 -47.9083099
100.7148819 -132.2205505 -47.8625488
94.0908203 -132.4404144 -48.2707596
92.7688446 -132.5031433 -48.4636993
60.5203934 -136.2732544 -67.1459274
-97.2231750 -134.7404480 -34.3972244
-181.7001801 -133.3725281 -13.4587336
-183.2885284 -133.6766968 -15.1188698
144.0093689 -133.8549957 -72.6595917
142.2749329 -133.4709015 -69.9873352
140.6127014 -133.1463165 -67.7109680
60.5378990 -134.9817352 -67.4227982
-97.1905441 -133.4372253 -34.4700050
-181.6916504 -132.0777893 -13.4966183
-183.2950439 -132.3824158 -15.1705589
142.3345032 -132.2323151 -70.5344849
140.6718750 -131.9033966 -68.2238464
60.5582848 -133.6973572 -67.7457962
59.2676544 -133.9920197 -69.4337463
-97.2172928 -132.1235504 -34.4865532
-181.6911774 -130.7931519 -13.5947857
-183.2810822 -131.0925293 -15.2562933
-184.9637756 -131.4271851 -17.1230354
144.1781464 -131.3852386 -73.9123459
142.3977814 -131.0025940 -71.1601563
140.7254486 -130.6697845 -68.7932739
99.4436188 -128.5064392 -48.8626862
98.1132126 -128.5373535 -48.8826180
60.5650635 -132.4242859 -68.1506348
59.2699623 -132.7186432 -69.8654099
-97.2194519 -130.8402710 -34.6948280
-185.0078125 -130.1536560 -17.3262978
142.4807739 -129.7837067 -71.8679504
140.8140411 -129.4487610 -69.4713898
99.4651566 -127.2596130 -49.2185898
98.1350021 -127.2932053 -49.2434082
60.5643463 -131.1598206 -68.6219635
59.3044548 -131.4490662 -70.3025131
-97.2521210 -129.5647583 -34.9559212
142.5737000 -128.5775757 -72.6644363
140.8774567 -128.2340240 -70.1705475
139.2208557 -127.9344025 -67.9864502
137.6425629 -127.6856384 -66.1391983
60.5985909 -129.8971558 -69.1059647
59.3326721 -130.1893616 -70.8277893
-97.2756348 -128.3030548 -35.3194351
-98.3451233 -127.8731384 -32.3437958
-99.3693237 -127.5061874 -29.8068886
-181.8087463 -127.0030594 -14.2939034
-183.4243622 -127.2950363 -15.9631748
142.6904907 -127.3816071 -73.5666046
140.9746399 -127.0270081 -70.9838867
139.3027496 -126.7244263 -68.7338104
137.7286072 -126.4667587 -66.8409195
60.6079025 -128.6450500 -69.6902542
59.3598442 -128.9396820 -71.4237366
-98.3754730 -126.6258163 -32.7666092
-99.4153519 -126.2541046 -30.1716042
-181.8722229 -125.7567749 -14.6472578
-183.4861603 -126.0494232 -16.3355656
139.4054413 -125.5298920 -69.5991364
137.7948608 -125.2633972 -67.6002502
60.6508980 -127.3995667 -70.2904358
59.3810463 -127.6970825 -72.0940857
58.1066208 -128.0128784 -74.0303955
-98.4211655 -125.3896637 -33.2726021
-99.4586029 -125.0179443 -30.6549797
-181.9522247 -124.5197220 -15.0644569
139.5278931 -124.3439407 -70.5603638
137.9027557 -124.0711288 -68.4841614
60.6672440 -126.1609650 -71.0035553
59.4170990 -126.4618530 -72.7991257
58.1680260 -126.7803497 -74.7548523
-98.4759979 -124.1591949 -33.8298035
-99.5176544 -123.7878571 -31.1857967
-182.0329742 -123.2888184 -15.5325918
141.3724823 -123.4816666 -74.0060730
139.6286316 -123.1611710 -71.5288696
138.0081787 -122.8822937 -69.4213181
60.7051392 -124.9310608 -71.7502975
59.4379272 -125.2340317 -73.6091995
58.1978760 -125.5605698 -75.6181488
-98.5249023 -122.9402237 -34.4798203
-99.5800171 -122.5676117 -31.7775230
-178.9858093 -121.5549469 -13.0779495
-180.5394592 -121.7979126 -14.4839754
-182.1234436 -122.0668259 -16.0590706
-183.7618256 -122.3574753 -17.8084373
139.7295227 -121.9948349 -72.5762482
138.1498108 -121.7066956 -70.4676361
60.7444305 -123.7079086 -72.5628052
59.4877548 -124.0138092 -74.4544830
58.2259827 -124.3474045 -76.5608597
-98.6138000 -121.7358704 -35.2186813
-99.6492233 -121.3580780 -32.4668503
-179.0593719 -120.3336563 -13.5952492
-180.6175842 -120.5772247 -15.0227499
141.7023926 -121.1914520 -76.7059326
139.9107819 -120.8433151 -73.8958893
138.2734985 -120.5416565 -71.5957794
60.7898293 -122.4929047 -73.4426956
59.5267715 -122.8021393 -75.4016418
-99.7325134 -120.1578674 -33.2199402
-179.1790924 -119.1252136 -14.2080498
-180.7451935 -119.3697205 -15.6611595
140.1169128 -119.6907272 -75.2712555
138.4015503 -119.3955078 -72.8202438
60.8399353 -121.2899780 -74.4169693
-99.8139038 -118.9694672 -34.0979767
-179.2928162 -117.9208527 -14.8635902
-180.8637390 -118.1677475 -16.3457489
-182.4876404 -118.4406586 -18.0252552
138.5838318 -118.2586823 -74.2380981
136.9330750 -117.9793701 -72.0124969
135.3330078 -117.7342682 -70.0800705
60.8818474 -120.0983734 -75.5159760
-98.8867950 -118.1994324 -38.1359406
-99.9205017 -117.7939911 -35.0387840
-100.9605484 -117.4333572 -32.3540421
-102.0026627 -117.1243896 -30.0568085
-179.4192352 -116.7255173 -15.5842352
-180.9752808 -116.9749451 -17.0907879
138.7969055 -117.1240463 -75.7740097
137.1086884 -116.8526154 -73.4379425
135.4733276 -116.5917664 -71.3540573
60.9472466 -118.9216537 -76.6997528
-101.0599060 -116.2631226 -33.3459473
-102.1061707 -115.9469604 -30.9465961
-179.5663910 -115.5379562 -16.3874474
-181.1447144 -115.7940216 -17.9536362
-182.8088989 -116.0716248 -19.7399540
137.3088226 -115.7319412 -75.0292206
135.6385651 -115.4573746 -72.7921829
63.5076370 -117.1541748 -74.1604080
62.2619896 -117.4345322 -75.9622192
61.0068474 -117.7401581 -77.9660645
-101.1513062 -115.0995712 -34.4614868
-102.1990128 -114.7770538 -31.9858379
-176.6209869 -113.9102097 -14.5088472
-178.1519165 -114.1239624 -15.8061934
-179.7097168 -114.3582001 -17.2423134
-181.3183899 -114.6184616 -18.8763866
135.8161469 -114.3464203 -74.3483734
63.5942154 -115.9822922 -75.3613586
62.3249321 -116.2703857 -77.2910461
-101.2886505 -113.9489594 -35.6180344
-102.3229675 -113.6188354 -33.0596542
-176.7823944 -112.7324753 -15.3722639
-178.3068085 -112.9498367 -16.6978760
-179.9064941 -113.1858826 -18.2126389
136.0646362 -113.2191315 -76.0733109
134.3699951 -112.9704666 -73.8396225
132.8237305 -112.7485199 -72.0745087
66.1779556 -114.3049850 -73.3818893
64.9247742 -114.5508118 -74.9467850
63.6532898 -114.8200302 -76.7528915
62.3903046 -115.1114578 -78.7372589
-101.4115982 -112.8144760 -36.9576759
-102.4616928 -112.4751587 -34.2275543
-103.5043640 -112.1642380 -31.8582687
-104.5767975 -111.8956146 -29.7455254
-176.9228668 -111.5598145 -16.2759209
-178.5077209 -111.7849426 -17.7003098
134.6025848 -111.8654633 -75.6505051
132.9809113 -111.6432800 -73.6588745
66.2510147 -113.1398163 -74.7061768
64.9866714 -113.3921204 -76.3743896
63.7139702 -113.6708374 -78.2716980
-102.5795135 -111.3382111 -35.6033478
-103.6458740 -111.0262985 -33.0593033
-104.6997375 -110.7424774 -30.8702583
-177.0981140 -110.3967209 -17.2795792
-178.6644440 -110.6240692 -18.7194519
134.8612061 -110.7827759 -77.6720963
133.1665344 -110.5530701 -75.4377136
66.3209610 -111.9855576 -76.1417465
65.0665436 -112.2458038 -77.9090195
-103.7851944 -109.8973770 -34.4470215
-104.8428116 -109.6006470 -32.1043816
-177.3123627 -109.2439270 -18.4033203
-178.9072266 -109.4727936 -19.9071617
133.4187317 -109.4816818 -77.5021210
66.4104614 -110.8504333 -77.7189636
-103.9416199 -108.7791138 -35.9393806
-104.9967880 -108.4766083 -33.4825401
-177.5019073 -108.0958786 -19.5741043
133.7207794 -108.4281693 -79.8478775
132.0665588 -108.1797638 -77.5590973
130.4575195 -107.9482727 -75.5456314
69.0242004 -109.2286377 -76.1039734
67.7688675 -109.4653168 -77.6817703
66.5232468 -109.7334824 -79.4814148
-104.0823822 -107.6660995 -37.6420822
-105.1648788 -107.3637238 -34.9887657
-174.6241913 -106.5388947 -18.0705223
-176.1743774 -106.7432709 -19.3982372
-177.7446136 -106.9647751 -20.8690739
132.3746338 -107.1126862 -79.9156036
130.6723022 -106.8918152 -77.6588669
69.1265106 -108.1039734 -77.8134460
67.8716888 -108.3476639 -79.5052719
-105.3340454 -106.2640839 -36.6890869
-174.8723755 -105.3981705 -19.3661442
-176.4046478 -105.6122589 -20.7297745
131.0154572 -105.8261414 -80.1384583
129.3396606 -105.6234207 -78.0012054
127.7754593 -105.4127197 -76.2498322
74.3456421 -106.1693878 -73.9921875
73.0541306 -106.3519516 -75.2261963
71.7756577 -106.5530167 -76.5657272
70.5070038 -106.7627487 -78.0591888
69.2454834 -106.9988785 -79.6952591
68.0030365 -107.2544556 -81.5163956
-105.5074921 -105.1717987 -38.5980339
-106.5686111 -104.8803482 -35.9803886
-107.6377945 -104.6105347 -33.6497765
-175.1012115 -104.2774658 -20.7360153
-176.6826935 -104.4921570 -22.2127953
129.6092224 -104.6045990 -80.5226135
128.0135040 -104.3820419 -78.5415344
74.4469833 -105.0424957 -75.7179108
73.1742935 -105.2318802 -77.0035019
71.8838348 -105.4320526 -78.4821701
70.6351318 -105.6618271 -80.0357666
69.3678894 -105.9115143 -81.8316193
-106.7656555 -103.7987976 -37.9112587
-107.8393707 -103.5239868 -35.4195175
-175.3672180 -103.1621552 -22.2539177
128.3284454 -103.3457794 -81.1801682
126.7649841 -103.1591949 -79.3132782
125.1815262 -102.9708939 -77.5744858
123.6216888 -102.7958221 -76.0368195
122.0956650 -102.6590424 -74.7328644
74.5545807 -103.9298477 -77.6313553
73.2848892 -104.1317444 -79.0038986
-108.0460739 -102.4456100 -37.3747101
-109.0989380 -102.1831894 -35.0812798
-110.1838913 -101.9390793 -32.9877090
-172.5550537 -101.6519470 -21.1070690
-174.0880737 -101.8518295 -22.4166088
-175.6528168 -102.0610352 -23.8939056
127.1172867 -102.1262894 -82.2179794
125.4654236 -101.9382629 -80.1465302
123.8593292 -101.7671204 -78.3808136
122.3424377 -101.6057281 -76.9854202
74.6951904 -102.8366470 -79.7202835
73.4316864 -103.0448990 -81.1899796
-109.3101196 -101.1114273 -37.1130753
-110.3961792 -100.8642120 -34.8444328
-172.8388672 -100.5494537 -22.7296677
-174.3967590 -100.7523499 -24.1421394
122.6230621 -100.5582886 -79.5110550
121.1081009 -100.4414444 -78.1456528
119.6197357 -100.3082123 -76.9431763
79.9721527 -101.0651093 -77.0432129
78.6783142 -101.2195282 -78.0938110
77.3978882 -101.3884583 -79.2661438
76.1128769 -101.5686493 -80.5930099
74.8476486 -101.7726212 -82.0418930
-110.6207199 -99.7946320 -36.9355507
-111.6997681 -99.5617371 -34.7928314
-112.7871323 -99.3384247 -32.8652611
-170.0830841 -99.0902557 -21.9525070
-171.5939484 -99.2659073 -23.1469364
-173.1485138 -99.4593735 -24.5192394
121.4153290 -99.4347687 -80.9545746
119.8905258 -99.2992096 -79.5007095
80.1323395 -99.9797974 -79.2084656
78.8273926 -100.1392441 -80.3871994
77.5473709 -100.3142166 -81.6954346
76.2923279 -100.5160904 -83.0857925
75.0170898 -100.7390900 -84.7603455
-110.8740540 -98.7555237 -39.2870483
-111.9506607 -98.5148315 -36.9181824
-113.0256119 -98.2762604 -34.8236198
-170.3789978 -98.0006561 -23.7045078
-171.9160156 -98.1851959 -25.0123138
120.2355042 -98.2815704 -82.5420074
118.6634903 -98.1674194 -81.0509796
117.1332321 -98.0358505 -79.8060913
115.6852951 -97.9184265 -78.8084717
114.2330780 -97.8411484 -77.8753662
82.8785019 -98.6274338 -79.5580521
81.5773239 -98.7633667 -80.5769272
80.2977371 -98.9203796 -81.6866150
-113.2764740 -97.2271118 -37.0732422
-114.3503265 -97.0098038 -35.0976868
-115.4517746 -96.8118439 -33.2881393
-167.7134399 -96.5870590 -23.3326168
-169.2028046 -96.7480621 -24.4260311
-170.7234497 -96.9290161 -25.6702576
119.0460129 -97.1584396 -84.4211273
117.4699249 -97.0453415 -82.8905106
115.9564743 -96.9360275 -81.6520233
114.4865112 -96.8347549 -80.5883026
83.0798264 -97.5692520 -82.1723633
81.7794647 -97.7278824 -83.3016510
80.5038452 -97.9034424 -84.5531006
-113.5711136 -96.2126770 -39.7121353
-114.6364899 -95.9860535 -37.4881744
-115.7131042 -95.7652512 -35.4935036
-168.0158234 -95.5149689 -25.2485504
-169.5278625 -95.6841278 -26.4542885
116.3461914 -95.9375610 -85.1775284
114.8373337 -95.8650131 -83.8715439
113.3375931 -95.7872009 -82.7715530
111.8539886 -95.6968842 -81.9098358
110.4012451 -95.6142273 -81.1606293
108.9837189 -95.5593033 -80.4651794
107.5809326 -95.5095062 -79.9612427
106.1403198 -95.5064240 -79.4909210
104.7288132 -95.4791794 -79.2199783
103.3392334 -95.4683533 -78.9712143
88.4860458 -96.0492706 -81.4906464
87.1697083 -96.1553040 -82.2826538
85.8754730 -96.2864075 -83.1247787
84.5733795 -96.4268417 -84.1064529
83.2985458 -96.5880966 -85.2095871
82.0187378 -96.7580414 -86.5024719
-114.9524612 -94.9870682 -40.2508926
-116.0105362 -94.7495880 -38.0067291
-117.1012421 -94.5384293 -36.0062752
-118.2090149 -94.3475800 -34.3024521
-165.4065247 -94.1452484 -25.2175293
-166.8795166 -94.2989426 -26.2382584
-168.4050293 -94.4589310 -27.4390678
113.7423782 -94.8159409 -86.6482544
112.2202148 -94.7343292 -85.4773788
110.7294006 -94.6713715 -84.4831238
109.2781830 -94.6011810 -83.6504059
107.8598633 -94.5467300 -83.0375900
106.4106522 -94.5130920 -82.5456848
105.0048370 -94.4940796 -82.1376038
103.6033554 -94.4791107 -81.7676926
88.7389832 -95.0573730 -84.5396576
87.4258728 -95.1781464 -85.4291229
86.1200562 -95.3014908 -86.4370117
84.8243942 -95.4474030 -87.6178589
-117.4250488 -93.5330734 -38.7145462
-118.5085831 -93.3328476 -36.7885361
-165.7551880 -93.0974350 -27.3847923
109.6863785 -93.6949005 -87.7445984
108.2265396 -93.6378784 -86.9443283
103.9260254 -93.5195389 -85.2717133
102.5461349 -93.5116653 -84.9728546
101.1448746 -93.5034027 -84.8537216
99.7481918 -93.5234833 -84.7971497
98.3693085 -93.5527802 -84.8579330
97.0153503 -93.5995026 -84.9563141
95.6825180 -93.6542664 -85.2067032
94.3201141 -93.7306519 -85.6126633
92.9800034 -93.8126221 -86.1259537
91.6485596 -93.8952103 -86.7331390
90.3399124 -93.9803696 -87.4215546
89.0356064 -94.0798950 -88.3016205
-117.7763519 -92.5421219 -41.9077110
-118.8507690 -92.3387680 -39.6406784
-119.9476318 -92.1540909 -37.6824608
-121.0418091 -91.9629135 -36.0540009
-122.1660080 -91.8088379 -34.5386353
-123.3178024 -91.6710510 -33.2001953
-124.4766541 -91.5470123 -32.0085907
-125.6488037 -91.4510880 -30.8708401
-160.3082733 -91.5299835 -26.1042061
-161.7418976 -91.6399841 -26.8681297
-163.2043915 -91.7681580 -27.7467213
-164.6556702 -91.9091644 -28.7225361
-166.1856842 -92.0495758 -29.8844643
104.3489685 -92.6284637 -89.7247772
98.7472839 -92.6953354 -89.0154953
97.3879700 -92.6977615 -89.1181335
96.0376129 -92.7241898 -89.3897934
94.6831589 -92.7925873 -89.9326553
-120.3208771 -91.1719666 -40.8646812
-121.4002533 -90.9889374 -38.9546318
-122.5129929 -90.8209381 -37.2052345
-123.6366577 -90.6619263 -35.7290573
-124.7787323 -90.5239410 -34.3811035
-125.9363327 -90.4010849 -33.1897812
-160.6966553 -90.4803467 -28.4426785
-162.1434326 -90.6044617 -29.3036804
-163.6124878 -90.7432861 -30.2900620
-125.1341858 -89.5213242 -37.1375504
-126.2750854 -89.3851547 -35.8250809
-155.4201813 -89.0624847 -28.3423100
-156.8213501 -89.1440048 -28.8772964
-158.2302399 -89.2419662 -29.4920330
-159.6579437 -89.3523636 -30.2231064
-161.1184845 -89.4746399 -31.0994167
-125.5554123 -88.5809937 -40.4733238
-126.6767197 -88.4425507 -38.8800049
-155.8102417 -88.0441589 -30.9316864
-157.2297516 -88.1386795 -31.5567703
-158.6611938 -88.2396851 -32.3127251
-160.1310425 -88.3571701 -33.2111053
-127.1418457 -87.4808426 -42.7993202
-128.2659607 -87.3460159 -41.1005554
-129.4127960 -87.2410507 -39.6389771
-130.5569763 -87.1121368 -38.3997993
-131.7316132 -86.9988022 -37.3065872
-132.9140320 -86.9076080 -36.3366623
-134.1349792 -86.8330994 -35.4945068
-135.3433228 -86.7762299 -34.7373085
-136.5738831 -86.7303467 -34.0585403
-148.0742493 -86.6781158 -31.8202763
-149.4151001 -86.7139893 -31.9557304
-150.7476807 -86.7658463 -32.1561241
-152.1176605 -86.8209534 -32.4778137
-153.4799042 -86.8937607 -32.8768845
-154.8920135 -86.9749451 -33.3966751
-156.3065186 -87.0642548 -34.0212555
-157.7334900 -87.1595154 -34.7578506
-131.0893402 -86.2304230 -42.3641434
-132.2365723 -86.1054001 -41.0326233
-133.3956299 -86.0044708 -39.8572044
-134.5867462 -85.9080887 -38.8789825
-135.7867126 -85.8301926 -37.9906578
-137.0077972 -85.7699890 -37.2803879
-148.5337219 -85.7000275 -34.9137573
-149.8776245 -85.7488327 -35.0988464
-151.2266693 -85.8050842 -35.3618698
-152.6109314 -85.8654022 -35.7814789
-154.0108948 -85.9283295 -36.2966080
-137.5609894 -84.8912964 -41.2606163
-138.7776031 -84.8332825 -40.4988213
-140.0130920 -84.7841721 -39.8633385
-141.2661591 -84.7546692 -39.3785210
-142.5225830 -84.7240448 -38.9738770
-143.8051758 -84.7219849 -38.7155380
-145.0897369 -84.7114105 -38.5086174
-146.3981171 -84.7108994 -38.4365273
-147.7419891 -84.7360611 -38.5060577
-149.0885162 -84.7546844 -38.6694031
-141.7304535 -83.8740921 -43.9951401
-144.4948120 -83.8875961 -43.6766167
103.4418716 -188.8664398 -76.5848846
102.7657623 -188.8730316 -76.5364304
102.0997772 -188.8984070 -76.5363693
101.4162216 -188.9283295 -76.5986786
100.7172318 -188.9533081 -76.6201172
100.0283737 -189.0105133 -76.7747421
99.3646469 -189.0688934 -76.9702072
98.7018051 -189.1306763 -77.1320419
108.8627243 -187.8732910 -75.8697205
108.1738281 -187.8188782 -75.5169830
104.5443115 -187.6206055 -74.2622604
94.5097198 -188.4116211 -76.3362122
110.0885620 -186.7923737 -74.2240829
109.3434830 -186.6590271 -73.8214035
108.6287994 -186.6103668 -73.5423508
107.9125366 -186.5881653 -73.2642746
105.0876007 -186.4773407 -72.4031219
104.3976593 -186.4623108 -72.2815933
94.3170471 -187.2141113 -74.1414337
93.6600494 -187.3396606 -74.4695282
93.0153961 -187.4527588 -74.8401489
112.7961731 -186.0061340 -73.9793549
116.3267212 -185.4876251 -75.2123413
115.5527649 -185.3235626 -74.4089432
114.7990723 -185.1907349 -73.7096558
114.0610123 -185.0606384 -73.0777893
113.3104782 -184.9295502 -72.4988098
112.5734558 -184.8319244 -72.0094604
89.9808350 -184.6768036 -71.1754227
86.1355286 -185.5828400 -74.5294342
89.8603058 -183.7125244 -69.7444992
89.2076645 -183.8298035 -70.1845856
88.5722198 -183.9340515 -70.6326370
87.9323730 -184.0511017 -71.1317062
86.0167923 -184.4811249 -72.8159866
85.3648987 -184.6738739 -73.4732895
84.7180557 -184.8874359 -74.2165375
117.9907303 -182.6174774 -71.3908463
120.0679016 -181.9550934 -71.9623947
118.5694122 -181.7011719 -70.4442139
117.8153000 -181.5769501 -69.8459320
81.9732285 -183.5160675 -73.8976212
81.3478470 -183.7589722 -74.7844009
-138.5837708 -180.9384155 -30.3416939
-139.2016907 -180.8923035 -30.0410500
-139.8174438 -180.8529968 -29.7600060
-140.4268646 -180.8156738 -29.4962826
-141.0460815 -180.7744293 -29.2458096
-141.6893463 -180.7609863 -29.0653820
-142.3186646 -180.7216339 -28.8807774
-146.2653046 -180.8341980 -28.7630119
122.2186813 -181.4767303 -72.8899460
80.6047745 -182.9290619 -73.9034958
-141.9653168 -179.4537201 -26.4415207
-145.2047424 -179.4894867 -26.1865425
-148.5649719 -179.8253479 -26.7905865
121.9922333 -180.3993378 -71.2096558
80.5106888 -181.8825531 -72.4125137
79.8806992 -182.0898132 -73.2025528
79.2385101 -182.3218842 -74.1070328
-132.0006714 -179.4213409 -30.3444138
-132.5631409 -179.3060608 -29.7202873
-133.1325378 -179.1746368 -29.0499249
-133.7045288 -179.0572052 -28.4611893
-134.2906342 -178.9594727 -27.9634399
-134.8777466 -178.8546143 -27.5141525
-141.6708069 -178.4022827 -24.4844112
-142.2981720 -178.3969269 -24.3513107
-142.9396210 -178.4099426 -24.2931690
-143.5866089 -178.4221039 -24.2666111
-144.2502441 -178.4190063 -24.2451973
-144.9031830 -178.4064026 -24.2154198
-148.2386322 -178.6571198 -24.6913815
-148.9048157 -178.7426605 -24.8318558
-149.5943604 -178.8300934 -25.0332699
-152.4559021 -179.1960907 -26.4272556
79.1490402 -181.3007355 -72.6183624
-153.5432129 -178.2708282 -25.0029011
-154.2770691 -178.3930206 -25.4810829
124.0593185 -178.9737091 -70.8809586
123.2428665 -178.7830200 -69.9996490
79.0575714 -180.3556671 -71.3265762
78.4200668 -180.5764160 -72.1160583
77.7964478 -180.7961426 -72.9599838
-128.5563202 -177.7890625 -29.3281860
-129.1022491 -177.6393890 -28.6312580
-129.6772766 -177.4610901 -27.9009094
-153.2115936 -177.1228790 -23.0889435
126.2682343 -178.5780945 -72.3743668
-152.9501801 -176.1126862 -21.4280472
126.8700104 -177.7851715 -71.9265747
126.0756302 -177.5710754 -70.9294510
-125.2863770 -176.4176483 -29.5357304
-125.8390503 -176.2154388 -28.6152973
-126.3919525 -176.0576630 -27.8205318
-126.9473267 -175.9105072 -27.1005669
-152.7219543 -175.1498718 -19.9512825
-153.4243774 -175.2340698 -20.2530060
-154.1079559 -175.2958984 -20.5867176
-154.8120117 -175.3947754 -20.9268818
-155.5341644 -175.5364227 -21.2656937
-156.2699127 -175.6991730 -21.6714020
127.4640427 -176.9881744 -71.4824829
75.0408020 -178.7692871 -72.7028656
-124.5112839 -175.4776764 -28.4872780
-158.2250824 -175.0810242 -21.5793209
128.1036835 -176.2297211 -71.1469879
127.2653885 -176.0058441 -70.1035004
74.9652328 -177.8147278 -71.4605484
74.3080597 -178.0874023 -72.3682861
-123.1628571 -174.8156281 -28.5227413
-123.7472839 -174.6136322 -27.6333618
-124.3095169 -174.4232483 -26.7921104
-157.9564362 -174.0590057 -20.1366177
-158.6958923 -174.2046051 -20.6069965
-159.4510040 -174.3745880 -21.1512356
73.6189270 -177.3885498 -72.1385956
-121.8730545 -174.1575928 -28.6993618
-160.6975555 -173.6865997 -20.8178482
128.6276550 -174.5980988 -69.7345200
73.5575485 -176.4730988 -71.0759430
72.9078598 -176.7043915 -71.9708481
-120.0885162 -173.7319489 -30.0671940
-120.6173477 -173.5081329 -29.0119190
-121.1490250 -173.3184357 -28.0586758
-121.7035522 -173.1155243 -27.1104717
-160.4515839 -172.6967926 -19.4651890
-161.1937561 -172.8474426 -19.9798508
-161.9578094 -173.0163422 -20.5682507
72.2049408 -176.0335541 -71.8928757
-163.2574310 -172.3847198 -20.5260201
130.8150940 -173.4058075 -70.6954041
129.9858704 -173.1893616 -69.5982971
72.1706161 -175.1197662 -70.8727798
-163.0038605 -171.4134674 -19.2095451
-163.8044739 -171.6124573 -19.8368073
131.4904175 -172.7268524 -70.7189026
-117.9446945 -171.3786163 -28.4498940
132.1817017 -172.0746918 -70.7958298
