-150.1634369 -178.7097473 -13.9117737
-155.4757385 -179.0327454 -14.6848259
117.8317642 -175.4636536 -61.2427902
112.2045975 -175.1903839 -59.1195679
106.6757431 -175.0770721 -57.7957802
101.2315369 -175.1135101 -57.1965675
95.8550186 -175.2753754 -57.2182808
90.5311508 -175.5674896 -57.8808441
85.2490768 -175.9919434 -59.1780319
80.0085449 -176.5539703 -61.1620712
74.7973022 -177.2808075 -63.9407234
-124.7185364 -173.5171967 -17.4883690
-129.5604858 -173.1166840 -14.8662872
-134.4727478 -172.8666229 -12.9636412
-139.4616394 -172.7527771 -11.7022591
-144.5331116 -172.7669067 -11.0526819
-149.6921387 -172.9093628 -11.0151539
-154.9635468 -173.1898956 -11.6248245
-160.3626709 -173.6261902 -12.9678602
123.3646927 -170.3323517 -62.7272072
117.6319962 -169.9127045 -59.8213120
112.0203476 -169.6712646 -57.8252983
106.5120697 -169.5818176 -56.5882797
101.0751343 -169.6172791 -56.0030746
95.7031250 -169.7779541 -56.0335846
90.3827362 -170.0543671 -56.6600990
85.1044922 -170.4512024 -57.8827744
79.8635864 -170.9756165 -59.7467346
74.6530457 -171.6463470 -62.3465881
69.4654999 -172.4918365 -65.8158875
-119.6471405 -168.3901520 -18.5154381
-124.4277954 -167.8812103 -15.3000183
-129.2738953 -167.5199585 -12.8218422
-134.1866455 -167.2980347 -11.0169659
-139.1748810 -167.1968079 -9.7986317
-144.2312469 -167.2080688 -9.1368999
-149.3717041 -167.3368378 -9.0502472
-154.6153259 -167.5888367 -9.5612316
-159.9749603 -167.9754791 -10.7208815
129.1051483 -165.5056305 -65.8493805
123.2222977 -164.9013367 -61.9126587
117.5057831 -164.5181122 -59.1300507
111.9130783 -164.3009033 -57.2188301
106.4101944 -164.2208710 -56.0255966
95.6120453 -164.4123383 -55.4645386
90.2930984 -164.6780853 -56.0652542
85.0153046 -165.0539856 -57.2424049
79.7705841 -165.5505829 -59.0339737
74.5566711 -166.1772766 -61.5057983
69.3666382 -166.9651031 -64.8056107
64.2030182 -167.9544983 -69.1394272
-114.7297821 -163.5245972 -20.8859558
-119.4470215 -162.8916473 -16.9685230
-124.2382889 -162.4270935 -13.9063511
-129.0908813 -162.1017303 -11.5396471
-134.0061646 -161.8969421 -9.7890625
-138.9809570 -161.8003998 -8.5881338
-144.0382080 -161.8153992 -7.9413514
-149.1665802 -161.9341431 -7.8184223
-154.3889618 -162.1649475 -8.2553959
-159.7190857 -162.5180359 -9.3037815
-165.1847229 -163.0118408 -11.0586653
129.0328369 -160.1807861 -65.6511993
123.1666870 -159.6146545 -61.8177414
117.4592590 -159.2544708 -59.0965157
111.8702316 -159.0485992 -57.2076302
95.5727158 -159.1628571 -55.4762001
84.9744873 -159.7725830 -57.1770821
79.7272186 -160.2444611 -58.9183502
74.5105286 -160.8395386 -61.3168106
69.3150024 -161.5848999 -64.5088196
64.1426773 -162.5161743 -68.6875458
-109.9525452 -158.9221039 -24.7306385
-114.6031799 -158.1377869 -19.9207020
-119.3354797 -157.5527649 -16.1518593
-124.1334610 -157.1218567 -13.1881561
-128.9898682 -156.8202820 -10.8958473
-133.9008942 -156.6272583 -9.1720266
-138.8828125 -156.5402222 -7.9970746
-143.9316101 -156.5515900 -7.3325830
-149.0490112 -156.6625214 -7.1838264
-154.2594604 -156.8801117 -7.5881491
-159.5757751 -157.2085876 -8.5654869
-165.0238190 -157.6707153 -10.2190771
-170.6238708 -158.2853088 -12.6703272
129.0434875 -154.9921570 -66.1928787
123.1765747 -154.4477081 -62.3797455
117.4727554 -154.1007996 -59.6654358
111.8779526 -153.9020233 -57.7754517
79.7183380 -155.0458679 -59.3787804
74.4977188 -155.6185608 -61.7492676
69.2991333 -156.3297119 -64.8780060
64.1236038 -157.2154388 -68.9617157
-109.9001617 -153.6283569 -24.3293648
-114.5631866 -152.8939362 -19.6548576
-119.3040466 -152.3451233 -15.9798384
-124.1049042 -151.9402466 -13.0780869
-128.9660645 -151.6526642 -10.8118801
-133.8810730 -151.4715576 -9.1162872
-138.8631287 -151.3886871 -7.9453998
-143.9084473 -151.3993835 -7.2800078
-149.0312805 -151.5081177 -7.1335888
-154.2273712 -151.7103424 -7.4876938
-159.5378113 -152.0229187 -8.4259644
-164.9669952 -152.4571686 -10.0120516
-170.5523071 -153.0382996 -12.3739109
-176.3516846 -153.8124084 -15.7612362
129.1492310 -149.9272308 -67.4765167
123.2706299 -149.3890381 -63.5949326
117.5511322 -149.0443268 -60.8249969
111.9485321 -148.8443604 -58.8863945
79.7527466 -149.9397583 -60.3942795
74.5305328 -150.4931946 -62.7538185
69.3279419 -151.1799927 -65.8678284
64.1450653 -152.0388031 -69.9548645
-105.3672333 -149.4166565 -30.6417580
-109.9324646 -148.4713593 -24.6573715
-114.5993271 -147.7710876 -20.0380592
-119.3446960 -147.2452393 -16.3894730
-124.1519318 -146.8556519 -13.5010986
-138.9162903 -146.3284912 -8.3930807
-143.9586792 -146.3381500 -7.7174854
-149.0792999 -146.4420776 -7.5615153
-154.2850647 -146.6406250 -7.9259620
-159.5921326 -146.9406586 -8.8472080
-165.0166931 -147.3567657 -10.4049273
-170.5945435 -147.9130859 -12.7304277
-176.3846283 -148.6522217 -16.0537891
123.4394836 -144.4282532 -65.4688950
117.7035217 -144.0777283 -62.5936394
112.0866852 -143.8738403 -60.5870323
106.5630798 -143.7945099 -59.3214645
85.0928879 -144.4903564 -60.2514076
79.8324738 -144.9170532 -61.9651947
74.6029663 -145.4568634 -64.3461151
69.3943024 -146.1290588 -67.5031891
64.2118530 -146.9713287 -71.6523438
-110.0396423 -143.4323578 -25.6796112
-114.7096710 -142.7517242 -21.0372047
-119.4566345 -142.2411499 -17.3721275
-124.2657013 -141.8625183 -14.4684944
-129.1318970 -141.5964966 -12.2095699
-134.0520172 -141.4270020 -10.5084448
-139.0393372 -141.3522034 -9.3466043
-149.2113647 -141.4628601 -8.5092354
-154.4207153 -141.6543579 -8.8666592
-159.7300415 -141.9462585 -9.7932816
-165.1616821 -142.3516998 -11.3631563
-170.7448730 -142.8931732 -13.7028980
-176.5425110 -143.6125793 -17.0467377
123.6928558 -139.5664368 -68.0772095
117.9278030 -139.1980896 -65.0178070
112.2849274 -138.9831238 -62.8930931
106.7415466 -138.8945313 -61.5474396
101.2804794 -138.9109192 -60.8461456
95.8790283 -139.0290680 -60.7681656
85.2273865 -139.5563507 -62.3807373
79.9585571 -139.9732666 -64.1284332
74.7217102 -140.5045471 -66.5604248
69.5071716 -141.1723175 -69.8198395
64.3189545 -142.0135040 -74.1331635
-110.2331390 -138.5006714 -27.4040394
-114.8963165 -137.8256836 -22.6541920
-119.6456146 -137.3237305 -18.9332390
-124.4542084 -136.9502411 -15.9795380
-129.3206024 -136.6878815 -13.6849375
-134.2453918 -136.5237274 -11.9737625
-139.2371826 -136.4482422 -10.7881174
-144.2897186 -136.4598389 -10.1166248
-149.4244385 -136.5598602 -9.9692850
-154.6415558 -136.7485809 -10.3435440
-159.9635925 -137.0369263 -11.3008556
-165.4112396 -137.4368286 -12.9145775
-171.0148926 -137.9729919 -15.3248663
112.5566711 -134.1768494 -65.8966751
106.9875107 -134.0730896 -64.4283981
101.5017548 -134.0805664 -63.6614914
96.0898743 -134.1878052 -63.5405426
90.7229309 -134.3930359 -64.0332260
85.4070053 -134.7014008 -65.1731491
80.1271896 -135.1104126 -66.9548340
74.8849030 -135.6409912 -69.4916458
-110.5129929 -133.6776581 -29.9191818
-115.1645966 -132.9943848 -24.9666405
-119.9044418 -132.4872437 -21.1002808
-124.7133789 -132.1160278 -18.0724716
-129.5853729 -131.8542480 -15.7220211
-134.5140533 -131.6909943 -13.9736090
-139.5119934 -131.6181946 -12.7817421
-144.5795441 -131.6289825 -12.1056557
-149.7206268 -131.7272644 -11.9646416
-154.9512024 -131.9166260 -12.3701401
-160.2906342 -132.2043152 -13.3832445
-165.7596741 -132.6052399 -15.0797625
-171.3999023 -133.1463470 -17.6287537
112.9129791 -129.4612732 -69.7292480
107.3054504 -129.3353271 -68.0740814
101.7951355 -129.3266602 -67.1986694
96.3571701 -129.4245911 -67.0286407
90.9747772 -129.6222382 -67.5138626
85.6410370 -129.9256592 -68.6862411
80.3573456 -130.3382874 -70.5767975
75.1064453 -130.8742218 -73.2760696
-115.5246582 -128.2565613 -28.0419941
-120.2511902 -127.7349091 -23.9657402
-125.0550385 -127.3570862 -20.7973175
-129.9287720 -127.0933380 -18.3649292
-134.8637390 -126.9276123 -16.5640297
-139.8724670 -126.8540192 -15.3465271
-144.9483643 -126.8670425 -14.6739817
-150.1063080 -126.9665985 -14.5519066
-155.3609314 -127.1582718 -15.0197620
-160.7271576 -127.4506836 -16.1191883
-166.2313232 -127.8599396 -17.9521275
107.7211227 -124.6997375 -72.7058716
102.1726532 -124.6683350 -71.6689606
96.7040100 -124.7528992 -71.4190521
91.3012772 -124.9452667 -71.9018784
85.9527130 -125.2455902 -73.1335754
-125.4990997 -122.6822891 -24.2896881
-130.3693848 -122.4097824 -21.7261333
-135.3115234 -122.2388763 -19.8403835
-140.3279114 -122.1626358 -18.5728302
-145.4233551 -122.1764221 -17.9062729
-150.6041260 -122.2789917 -17.8266106
-155.8841553 -122.4780731 -18.3740063
-161.2925110 -122.7814560 -19.6173000
-166.8550415 -123.2118759 -21.6853676
102.6702576 -120.1394348 -77.4067230
97.1593857 -120.2035370 -77.0278015
91.7280426 -120.3867188 -77.5036469
86.3607559 -120.6958542 -78.8584137
-130.9278870 -117.8110046 -25.9420052
-135.8753204 -117.6322174 -23.9517841
-140.9002686 -117.5514297 -22.6145153
-146.0170441 -117.5662766 -21.9552898
-151.2281189 -117.6752319 -21.9393139
-156.5499268 -117.8870544 -22.6203156
-136.5929108 -113.1343994 -29.1718788
-141.6308594 -113.0448608 -27.7512226
-146.7745361 -113.0617294 -27.0977249
-152.0253296 -113.1824341 -27.1838646
-142.5980225 -108.6961517 -34.5252380
-147.7731628 -108.7150574 -33.8761749
104.4433899 -201.5149231 -75.1178589
101.6786118 -201.5020142 -74.6648254
98.9324646 -201.5750122 -74.5959015
96.2190399 -201.7239227 -74.8535309
93.5324173 -201.9447937 -75.4691010
112.5334015 -198.2747040 -73.7761383
109.6305389 -198.0508881 -72.4075775
106.8253784 -197.9204559 -71.4459686
104.0252228 -197.8706055 -70.8273926
101.2752075 -197.8832397 -70.5070572
98.5434723 -197.9710693 -70.4952698
95.8376007 -198.1054688 -70.7145920
93.1545029 -198.3096924 -71.2304840
90.4878845 -198.5711212 -72.0083008
87.8512344 -198.9117126 -73.1226044
85.2267227 -199.3180695 -74.5819702
117.9448166 -195.3432617 -73.4076233
114.9671326 -194.9948425 -71.4640656
112.1194687 -194.7540741 -69.9987946
109.2583618 -194.5997467 -68.9066162
106.4766693 -194.5098572 -68.1264496
87.5561218 -195.4667358 -69.6941681
84.9219971 -195.8189392 -70.9171143
82.3196869 -196.2549133 -72.4719925
79.7265930 -196.7723999 -74.4314117
-135.4757996 -193.3515472 -29.1388378
-137.9302826 -193.1492004 -27.8976345
-140.4305267 -193.0292358 -27.0114651
-142.9823914 -192.9865723 -26.4493427
-145.5594482 -192.9971313 -26.1588039
120.4932175 -192.2849426 -72.0339355
117.5549927 -191.9124451 -69.9743423
114.6304779 -191.6597595 -68.3931656
111.8068924 -191.4562378 -67.1120758
108.9685669 -191.3416748 -66.1815338
106.2021790 -191.2712708 -65.4922867
87.3201370 -192.1869507 -66.9568329
84.6855011 -192.5191345 -68.0728378
82.0794296 -192.9072876 -69.4498138
79.4683990 -193.3725128 -71.1573944
76.8880005 -193.9008942 -73.1911469
-130.0462799 -190.2756500 -27.9110622
-132.4398956 -189.9771423 -26.2349072
-134.8829498 -189.7578430 -24.9041290
-137.3543243 -189.6033020 -23.8627872
-139.8511963 -189.5050201 -23.0748959
-142.3990479 -189.4668732 -22.5391960
-144.9544983 -189.4783020 -22.2309284
-147.5733337 -189.5401306 -22.1545677
-150.2054138 -189.6701355 -22.3636208
-152.9086609 -189.8580322 -22.8295097
-155.6326904 -190.1137695 -23.6030884
123.1389465 -189.3966980 -71.3969269
120.1517792 -188.9931030 -69.1412277
117.2481461 -188.6904297 -67.3639832
114.3557434 -188.4747925 -65.9599686
111.5504150 -188.3106689 -64.8313904
81.8755951 -189.7102356 -67.0430145
79.2714233 -190.1243896 -68.5672073
76.6748734 -190.6049500 -70.3791199
74.1028900 -191.1651611 -72.5665436
-124.8428802 -187.5733185 -28.2846451
-127.1761932 -187.1712799 -26.1472301
-129.5636597 -186.8581238 -24.3788109
-131.9786072 -186.6121521 -22.9192276
-149.7076721 -186.3524780 -19.2357712
-152.3801727 -186.5027924 -19.5672340
-155.0760956 -186.7203217 -20.1655617
-157.8368225 -187.0004883 -21.0514450
-160.6551819 -187.3483276 -22.2601738
125.8647614 -186.6426086 -71.3526611
122.8166504 -186.1846924 -68.8502579
119.8755798 -185.8491364 -66.8654480
116.9955215 -185.5848541 -65.2566071
114.1250839 -185.3955383 -63.9711037
111.3340607 -185.2544098 -62.9407806
81.7159042 -186.6204987 -65.0711594
79.1004639 -187.0084229 -66.4781418
76.5055313 -187.4460602 -68.1366196
73.9185715 -187.9555206 -70.1234436
71.3464508 -188.5434418 -72.4786682
-122.0783539 -184.6573181 -27.3563938
-124.4291306 -184.2447205 -25.1157684
-126.7832489 -183.9021454 -23.2217197
-129.1895447 -183.6349030 -21.6322498
-131.6147614 -183.4169922 -20.3017540
-149.2987061 -183.1785889 -16.7153816
-151.9646454 -183.3192749 -16.9872494
-154.6364899 -183.5065002 -17.4716110
-157.3637543 -183.7475281 -18.2027931
-160.1417236 -184.0527191 -19.2041321
128.5873413 -183.9894714 -71.8279114
125.5684509 -183.4973907 -69.0814743
122.5818100 -183.1123962 -66.8554840
119.6584930 -182.8091888 -65.0373001
116.7973404 -182.5790100 -63.5615349
76.3600845 -184.3892517 -66.3151932
73.7711334 -184.8604584 -68.1491089
71.1839142 -185.4041443 -70.3234711
68.6237564 -186.0279541 -72.8874893
-117.1378326 -182.4251404 -29.8711700
-119.4184875 -181.8837433 -27.0182495
-121.7331314 -181.4410858 -24.6325035
-124.0974579 -181.0766907 -22.5981636
-126.4730606 -180.7841187 -20.8857574
-159.7291565 -180.9075012 -16.7832603
-162.5091095 -181.2314911 -17.9018917
-165.3819885 -181.6304626 -19.3622627
128.3339539 -180.9106445 -69.7983627
125.3420410 -180.4744568 -67.2967758
122.3653488 -180.1202698 -65.2292328
119.4677582 -179.8529358 -63.5465050
116.6190186 -179.6516113 -62.1659698
76.2362976 -181.4153137 -64.8321533
73.6449280 -181.8560486 -66.5604019
71.0604401 -182.3589325 -68.5790710
68.4873505 -182.9349060 -70.9383316
65.9248962 -183.6028442 -73.7558136
-114.5624542 -179.7953033 -30.2285786
-116.8144836 -179.2212219 -27.1975822
-119.1308746 -178.7504883 -24.6339092
-121.4571381 -178.3618469 -22.4627686
-123.8386307 -178.0353394 -20.5808296
-126.2183228 -177.7660828 -18.9736900
-159.3906555 -177.8739624 -14.8098574
-162.1432190 -178.1702881 -15.8103981
-164.9934082 -178.5261841 -17.0966682
-167.8291626 -178.9394989 -18.6639156
131.2274780 -178.4437561 -71.1175537
128.1221008 -177.9248352 -68.1999435
125.1475372 -177.5311890 -65.8822479
122.2080383 -177.2200012 -63.9584732
70.9548416 -179.3972473 -67.1724930
68.3746414 -179.9331665 -69.3964844
65.7989807 -180.5586090 -72.0184555
63.2610779 -181.2658081 -75.0851059
-112.0264435 -177.2843628 -31.1438808
-114.2725220 -176.6611023 -27.8482285
-116.5518341 -176.1627350 -25.1090965
-118.8853989 -175.7286682 -22.7163181
-121.2321396 -175.3768005 -20.6982803
-164.6689758 -175.5263672 -15.2642117
-167.4810791 -175.9032898 -16.6709595
-170.4393921 -176.3684998 -18.4951439
131.0185547 -175.4886475 -69.6615067
127.9515076 -175.0199585 -66.9479218
124.9912720 -174.6586609 -64.7579956
122.0653458 -174.3698425 -62.9388199
70.8653564 -176.4960327 -66.0463181
68.2806320 -177.0057831 -68.1544266
65.7070313 -177.5837860 -70.6133270
63.1507607 -178.2467346 -73.4824982
-109.5562286 -174.8790283 -32.5896797
-111.7743988 -174.2021484 -28.9831390
-114.0428925 -173.6475830 -25.9637012
-116.3465271 -173.1911774 -23.4079170
-118.6898804 -172.7990417 -21.1709938
-121.0390854 -172.4768066 -19.2626114
-164.4106140 -172.6148376 -13.7839994
-167.1893005 -172.9556427 -15.0606279
-170.1232758 -173.3856812 -16.7252197
-173.0195007 -173.8592987 -18.6512127
133.9345093 -173.1446533 -71.6125946
130.8642883 -172.6148224 -68.5528641
127.8155289 -172.1833649 -65.9926147
65.6217117 -174.6904755 -69.5392990
63.0658035 -175.3091431 -72.2436676
-109.3279572 -171.8296051 -30.5797176
-111.5695496 -171.2331238 -27.2907791
-113.8622894 -170.7211304 -24.4538288
-116.1782608 -170.3021240 -22.0459633
-164.1889038 -169.7624207 -12.5700474
-166.9566193 -170.0840149 -13.7689915
-169.8535461 -170.4761200 -15.2886448
-172.7354126 -170.9193115 -17.0721035
133.7908020 -170.2984619 -70.6632614
130.7404175 -169.8058014 -67.7470016
127.7159042 -169.4061584 -65.3038330
65.5610657 -171.8422699 -68.6894989
62.9970398 -172.4324799 -71.2877350
60.4333878 -173.1192017 -74.3690796
-106.9379272 -169.5670319 -32.7355499
-109.1540833 -168.8914185 -29.0395622
-111.4158630 -168.3393555 -25.9403706
-113.7150497 -167.8719177 -23.2660904
-116.0431824 -167.4739227 -20.9529381
-164.0185547 -166.9749756 -11.6062450
-166.7712555 -167.2734222 -12.7279978
-169.6436157 -167.6435242 -14.1595755
-172.5065002 -168.0543365 -15.8312664
136.8907776 -168.1316376 -73.5933304
133.6915131 -167.5184021 -70.0173569
102.3511658 -165.5630341 -55.5990295
99.6482697 -165.6111450 -55.4532738
60.3685837 -170.2708282 -73.5659790
-106.7814255 -166.6525879 -31.3256817
-109.0114594 -166.0330200 -27.8543224
-111.2933655 -165.5137024 -24.8885689
-169.4696045 -164.8586121 -13.2588549
-172.3262024 -165.2516174 -14.8488064
-175.3079834 -165.7251282 -16.8267403
-178.3207703 -166.2721863 -19.1882629
136.7941589 -165.3616333 -73.0386658
133.6214294 -164.7854309 -69.6081390
102.3129120 -162.9108276 -55.4455795
99.6128387 -162.9568787 -55.2989502
60.3238068 -167.4705048 -72.9997406
-104.4597931 -164.5241852 -34.2323990
-106.6593018 -163.8177643 -30.2649212
-108.9070663 -163.2358704 -26.9473591
-111.1959152 -162.7522430 -24.1148338
-169.3479004 -162.1324615 -12.5959406
-172.1792603 -162.4986877 -14.0981369
-175.1334686 -162.9441681 -15.9746323
-178.1312714 -163.4580688 -18.2068596
136.7459564 -162.6543579 -72.7935486
133.5819702 -162.1066895 -69.4632568
107.7363968 -160.2760315 -56.1637802
105.0070343 -160.2666016 -55.7215042
102.2988968 -160.2867126 -55.4481354
99.6023865 -160.3395233 -55.3291435
91.5859375 -160.6386566 -55.7498932
88.9269562 -160.7963104 -56.1945953
60.2978477 -164.7172394 -72.6670914
-104.3523407 -161.7009735 -33.2688065
-106.5710602 -161.0417175 -29.4891129
-175.0146332 -160.2188721 -15.3725033
-177.9944153 -160.7069702 -17.5051575
139.9566345 -160.6836853 -76.9413300
136.7102661 -159.9925232 -72.7908020
133.5548248 -159.4572296 -69.4873276
107.7295532 -157.6793213 -56.3100929
104.9984818 -157.6726532 -55.8881073
102.2928238 -157.6983643 -55.6275101
99.5813904 -157.7378235 -55.4528084
91.5686646 -158.0366211 -55.8865051
88.9180984 -158.1882172 -56.3203926
60.2739944 -162.0099335 -72.5616379
-104.2826233 -158.9443970 -32.6154785
-106.5047913 -158.3228455 -28.9798641
-174.9279785 -157.5370178 -14.9756479
-177.8962402 -158.0049438 -17.0410881
-180.9626770 -158.5591125 -19.5579510
-184.1807861 -159.2363892 -22.6884995
136.7173767 -157.3759155 -73.0361786
133.5626526 -156.8507385 -69.7397919
107.7331619 -155.1097107 -56.6067505
99.5879822 -155.1655884 -55.7339401
96.9082260 -155.2355652 -55.7307205
94.2351685 -155.3313904 -55.8623886
91.5737457 -155.4564972 -56.1570892
88.9163513 -155.6053925 -56.5785065
86.2777634 -155.7767029 -57.1271248
83.6440811 -155.9793854 -57.8426819
60.2538490 -159.3420258 -72.6689148
-102.0670547 -156.9785156 -36.5272331
-104.2338257 -156.2427673 -32.2348747
-106.4754639 -155.6439514 -28.6759644
-180.8932495 -155.8761597 -19.2214470
-184.0736237 -156.5208740 -22.2583504
136.7505646 -154.8004150 -73.5180969
133.5902405 -154.2812500 -70.2090454
107.7458038 -152.5574036 -57.0066376
96.9140854 -152.6796417 -56.1133003
94.2410126 -152.7772675 -56.2653046
91.5852814 -152.8965759 -56.5395737
83.6546555 -153.4091949 -58.2131653
60.2583237 -156.7078552 -72.9672852
-102.0404434 -154.2977905 -36.3115921
-104.2183533 -153.5948486 -32.1312866
-106.4631653 -153.0131836 -28.6123428
-180.8693237 -153.2393494 -19.1232796
136.8210144 -152.2668915 -74.2558212
133.6506348 -151.7478180 -70.8959808
107.7794113 -150.0271606 -57.5413589
94.2697067 -150.2404327 -56.7793159
91.6094513 -150.3570862 -57.0457916
83.6775360 -150.8611145 -58.7158318
60.2703323 -154.1054840 -73.4530487
-102.0416641 -151.6639862 -36.3442154
-127.7697601 -147.8939209 -11.5657692
-130.2164612 -147.7819366 -10.5844536
-132.6708832 -147.6913452 -9.7269888
-135.1520996 -147.6286469 -9.0170717
-180.8821259 -150.6415710 -19.2321091
136.9117279 -149.7684174 -75.2133942
133.7447815 -149.2488098 -71.8091812
107.8278503 -147.5209656 -58.2366791
105.0939789 -147.5098877 -57.7805862
102.3746643 -147.5266418 -57.4767609
94.3105774 -147.7263641 -57.4451103
91.6423874 -147.8382263 -57.6982574
88.9877777 -147.9819031 -58.1215897
86.3496857 -148.1422577 -58.6456299
83.7042999 -148.3318176 -59.3448067
60.2910347 -151.5369568 -74.1461334
-102.0617142 -149.0795898 -36.6563644
-127.8069763 -145.3838959 -11.9399567
-130.2573090 -145.2713623 -10.9481201
-132.7139282 -145.1862488 -10.1048117
-135.1993408 -145.1196442 -9.3688040
-180.9230652 -148.0777283 -19.5346184
-184.0765381 -148.6685181 -22.4319935
137.0493622 -147.3134308 -76.4676895
133.8597565 -146.7833710 -72.9441299
130.7908630 -146.3671570 -70.0925598
127.7780991 -146.0319214 -67.7141266
102.4373016 -145.0372772 -58.2937698
99.7285767 -145.0769348 -58.1207581
97.0406418 -145.1426849 -58.1234131
94.3574905 -145.2288818 -58.2239151
91.6852875 -145.3397675 -58.4885025
89.0249023 -145.4750519 -58.8858604
60.3195152 -148.9968567 -75.0302505
-102.1240921 -146.5354919 -37.2046509
-104.3098526 -145.8757324 -33.0786209
-106.5577087 -145.3333588 -29.6199265
-142.7672577 -142.5825348 -8.4755630
-145.3200378 -142.6127014 -8.2760839
-181.0036469 -145.5502319 -20.0489254
137.2226563 -144.9067688 -78.0366211
134.0125122 -144.3511658 -74.3219833
130.9290314 -143.9261322 -71.3765411
127.9064941 -143.5847626 -68.9300995
102.5083923 -142.5662537 -59.2447701
99.8049316 -142.6009216 -59.0742836
97.1063614 -142.6636658 -59.0319023
94.4159698 -142.7509460 -59.1437874
91.7492294 -142.8605042 -59.3977318
89.0886383 -142.9936829 -59.7961655
60.3642578 -146.4873047 -76.1243896
-102.2108917 -144.0353088 -38.0229607
-104.3912201 -143.3754272 -33.8313560
-106.6344910 -142.8345642 -30.3320389
-142.8519287 -140.1132355 -9.0675135
-145.4020844 -140.1413879 -8.8666630
-181.1284027 -143.0550537 -20.7645626
134.1826630 -141.9559174 -75.9597549
131.0837860 -141.5148468 -72.8717270
128.0423889 -141.1636963 -70.3305817
91.8224030 -140.4004669 -60.4657936
89.1590576 -140.5316467 -60.8690186
60.4153175 -144.0122986 -77.4635315
57.8619843 -144.6352234 -80.8012543
-104.4967499 -140.9120026 -34.8325081
-106.7354584 -140.3697052 -31.2615738
-175.2576294 -139.6981201 -17.2344437
-178.2368774 -140.1103058 -19.2600212
-181.2877502 -140.5909119 -21.6847191
134.4025574 -139.6042175 -77.9242249
131.2796783 -139.1397705 -74.6491547
128.2215881 -138.7739410 -71.9782944
91.9066010 -137.9569550 -61.6933594
89.2403488 -138.0859985 -62.0851822
60.4821625 -141.5682220 -79.0379181
-104.6280899 -138.4844971 -36.0753593
-106.8573914 -137.9348907 -32.4112968
-175.4325562 -137.2626038 -18.2647266
-178.4167023 -137.6752167 -20.3360786
-181.4836273 -138.1602020 -22.8329239
131.5065308 -136.8023529 -76.7296906
128.4248962 -136.4138031 -73.8905563
125.4237900 -136.1091614 -71.5449982
122.4722900 -135.8652039 -69.5965042
119.5768204 -135.6734772 -67.9929352
116.7078094 -135.5221405 -66.6189651
70.9218979 -137.3283844 -71.0741043
68.3199005 -137.7027283 -73.0050278
65.7196655 -138.1258850 -75.2580338
63.1391983 -138.6069031 -77.8427658
60.5691872 -139.1597748 -80.8891068
-104.7844086 -136.0911255 -37.5754700
-107.0120773 -135.5291443 -33.7694855
-175.6440125 -134.8531494 -19.4900627
-178.6348267 -135.2680664 -21.6159821
131.7790527 -134.5142365 -79.2019119
128.6619720 -134.0948029 -76.1029663
125.6369324 -133.7690735 -73.6055298
122.6702423 -133.5119019 -71.5396194
119.7579346 -133.3085632 -69.8263855
116.8818970 -133.1498566 -68.3852692
71.0152893 -134.9200745 -72.7873001
68.4103165 -135.2995453 -74.8040314
65.8240204 -135.7311554 -77.1368713
63.2320480 -136.2220764 -79.8550949
-104.9773331 -133.7421722 -39.4030571
-107.1859741 -133.1598358 -35.4031219
-175.8875427 -132.4676361 -20.9103222
-178.9071655 -132.8944702 -23.1512299
128.9395905 -131.8214569 -78.6828918
125.8888245 -131.4678192 -75.9760895
122.8936081 -131.1893311 -73.7616425
119.9663086 -130.9724121 -71.9293976
117.0761795 -130.8018036 -70.4099579
71.1194153 -132.5428925 -74.7726746
68.5086517 -132.9313354 -76.8883438
65.9338226 -133.3697968 -79.3152847
63.3540382 -133.8781128 -82.1997757
-107.3961258 -130.8272705 -37.3391571
-109.6381760 -130.3365326 -33.8646927
-111.9308167 -129.9257507 -30.8782673
-170.3297272 -129.4247742 -19.0281487
-173.2164001 -129.7433319 -20.6306992
-176.1738281 -130.1147766 -22.5789814
129.2777405 -129.6089783 -81.7873230
126.1928329 -129.2103119 -78.7615051
123.1561279 -128.9062805 -76.2861404
120.2112579 -128.6664734 -74.3191452
117.2967834 -128.4873352 -72.6698914
71.2489929 -130.1976471 -77.0412521
68.6499176 -130.5934448 -79.2338715
66.0658646 -131.0477905 -81.8329468
-107.6470032 -128.5413818 -39.6233673
-109.8737564 -128.0217896 -35.9171371
-112.1512833 -127.5948486 -32.7724953
-170.6114349 -127.0844727 -20.7481537
-173.5348206 -127.4108734 -22.4625549
-176.5212250 -127.7949371 -24.5284252
126.5487823 -127.0166321 -82.0278931
123.4790039 -126.6657791 -79.2589874
120.4984970 -126.4059906 -77.0837631
117.5559158 -126.2025681 -75.2738419
114.6724396 -126.0507202 -73.8226242
111.8234711 -125.9376984 -72.6644974
81.8852234 -126.6984406 -73.2648163
79.2517319 -126.9334717 -74.4807129
76.6262054 -127.2132721 -75.9144287
74.0045395 -127.5283051 -77.6262207
71.3945770 -127.8874664 -79.6410370
68.8002472 -128.2967529 -81.9906235
66.2208633 -128.7751007 -84.7936783
-110.1339188 -125.7529373 -38.3488846
-112.3975906 -125.3010101 -34.9860115
-114.6961517 -124.9276733 -32.1667900
-117.0335236 -124.6130295 -29.7013741
-119.3824081 -124.3429413 -27.5549622
-121.7626724 -124.1142731 -25.6772175
-170.9562988 -124.7720261 -22.7386494
-173.8950043 -125.1129074 -24.5603027
123.8383331 -124.4951859 -82.7767410
120.8417969 -124.1942749 -80.3243484
117.8580170 -123.9646912 -78.2780457
114.9530792 -123.7900467 -76.6876221
112.0817947 -123.6677094 -75.4123917
82.0584564 -124.3899536 -75.8374939
79.4228821 -124.6388626 -77.1031952
76.7893906 -124.9186172 -78.6487885
74.1763611 -125.2443542 -80.4471054
71.5712280 -125.6192780 -82.6259766
68.9837112 -126.0584030 -85.2088928
-110.4620514 -123.5421600 -41.2424049
-112.6937408 -123.0483093 -37.5713272
-114.9721832 -122.6551208 -34.5570145
-117.2946396 -122.3241730 -31.9474792
-119.6428986 -122.0408020 -29.6781540
-122.0161743 -121.8060608 -27.7182026
-171.3447266 -122.4909210 -25.0088310
-174.3178406 -122.8471527 -26.9912148
121.2381363 -122.0652008 -84.1859741
118.2213440 -121.7829819 -81.8198395
115.2765427 -121.5843201 -79.9987335
112.3787613 -121.4410706 -78.5568085
109.5212250 -121.3372345 -77.4104385
106.7037659 -121.2742462 -76.5615540
82.2633591 -122.1233826 -78.7575684
79.6166229 -122.3754959 -80.1391830
76.9954529 -122.6718140 -81.7884674
74.3770447 -123.0151062 -83.7793045
71.7795029 -123.4162598 -86.1849136
-113.0406036 -120.8515625 -40.6269226
-115.2941360 -120.4240417 -37.3323669
-117.5981750 -120.0677643 -34.5321121
-119.9323425 -119.7754059 -32.1259270
-122.3077316 -119.5268555 -30.0595207
-124.6909485 -119.3178101 -28.2662086
-127.1106415 -119.1460190 -26.6813583
-160.4294128 -119.2457809 -22.3665257
-163.1864929 -119.4364548 -23.2698174
-165.9958191 -119.6611176 -24.4161682
-168.8634338 -119.9285736 -25.8546677
-171.7897339 -120.2462463 -27.6172314
115.6710510 -119.4451904 -83.9647827
112.7382126 -119.2718658 -82.2468109
109.8517380 -119.1444092 -80.9388275
107.0222321 -119.0669708 -79.9769135
82.4956894 -119.9006042 -82.1455765
79.8529053 -120.1684570 -83.6657562
77.2337723 -120.4850616 -85.5059433
74.6305923 -120.8528061 -87.7220001
-115.6738129 -118.2500687 -40.6067505
-117.9512024 -117.8608704 -37.5242462
-120.2775345 -117.5470276 -34.9349861
-122.6330338 -117.2852249 -32.7168694
-125.0202560 -117.0658569 -30.7971363
-127.4258347 -116.8831863 -29.1511612
-160.8332367 -116.9854126 -24.8572006
-163.6113586 -117.1841736 -25.8401566
-166.4405212 -117.4247284 -27.1040764
-169.3527985 -117.7117310 -28.7217083
113.1923676 -117.1938324 -86.8145294
110.2618866 -117.0291901 -85.1672211
107.3974991 -116.9272919 -84.0143738
104.5450287 -116.8718491 -83.1701813
101.7661972 -116.8553238 -82.6176224
98.9764023 -116.8760910 -82.3686218
96.2317734 -116.9328842 -82.3526154
93.4986420 -117.0221939 -82.5716782
90.7927551 -117.1475830 -83.0703506
88.0991974 -117.3075714 -83.8295364
85.4194183 -117.5065613 -84.8813400
82.7762680 -117.7431107 -86.2124023
80.1440430 -118.0375061 -87.9085388
-118.3763885 -115.7194977 -41.0825653
-120.6736755 -115.3673401 -38.2123756
-123.0143127 -115.0825348 -35.8038712
-125.3857651 -114.8476639 -33.7312241
-127.7866364 -114.6520538 -31.9632683
-130.2166290 -114.4965668 -30.4687824
-132.6669922 -114.3713684 -29.2008629
-155.8021088 -114.4435806 -26.2085953
-158.5271606 -114.5874481 -26.8261871
-161.2844238 -114.7616882 -27.6790962
-164.0917664 -114.9774628 -28.8059807
-166.9687347 -115.2336044 -30.2510052
107.8598785 -114.9029694 -89.0215607
104.9845047 -114.8042145 -87.9631653
102.1710968 -114.7687683 -87.2163773
99.3593979 -114.7783585 -86.8854828
96.6122437 -114.8249664 -86.7941132
93.8552704 -114.9142380 -87.0633392
91.1491089 -115.0479050 -87.6078644
88.4522171 -115.2143402 -88.4588928
85.7811127 -115.4350052 -89.6537552
-121.1516037 -113.2664261 -42.1668472
-123.4620056 -112.9406815 -39.4264946
-125.8181229 -112.6805649 -37.1473160
-128.2065735 -112.4710236 -35.2321892
-130.6289063 -112.2993317 -33.6102257
-133.0717468 -112.1646652 -32.2458458
-156.2822266 -112.2416992 -29.2715282
-159.0210724 -112.3930664 -29.9823723
-161.8157501 -112.5855255 -30.9755516
-164.6636353 -112.8212357 -32.2859459
99.8637085 -112.8442612 -92.7142563
97.0964737 -112.8729630 -92.5567627
94.3298645 -112.9629059 -92.8425903
-124.0218887 -110.8996124 -43.9203072
-126.3352432 -110.5880432 -41.2621002
-128.7022247 -110.3439789 -39.1008377
-131.1065979 -110.1553802 -37.2751389
-133.5467987 -110.0066910 -35.7846451
-136.0176697 -109.8951263 -34.5625076
-138.5097351 -109.8179398 -33.5757294
-151.4361267 -109.8608704 -31.9447060
-154.1165466 -109.9584961 -32.2817001
-156.8405609 -110.0905609 -32.8588905
-159.6149902 -110.2611542 -33.7193909
-162.4536743 -110.4741974 -34.9107094
-129.3196259 -108.3321457 -43.8627586
-131.6981049 -108.0964737 -41.7606392
-134.1157379 -107.9234924 -40.0502930
-136.5805054 -107.7946396 -38.6906204
-139.0657806 -107.7043304 -37.5896454
-152.0436401 -107.7544250 -35.9899063
-154.7582703 -107.8669205 -36.4442673
-157.5207367 -108.0190582 -37.1832008
-137.2871399 -105.8120651 -43.8613472
-139.7610779 -105.6960068 -42.5778122
-142.2878876 -105.6286774 -41.6577721
-144.8547211 -105.5996704 -41.0571747
-147.4589844 -105.6123962 -40.7411499
-150.1147308 -105.6605835 -40.7420349
-152.8090210 -105.7566833 -41.0433044
97.6493835 -206.9429016 -82.9304047
107.0412521 -204.6876831 -80.3450317
105.5928040 -204.5597534 -79.7637253
104.1644745 -204.4990692 -79.3426208
102.7755203 -204.4607086 -79.0117722
101.3798981 -204.4678040 -78.8075714
100.0114594 -204.5105591 -78.7674484
98.6239395 -204.5458832 -78.7862091
97.2579803 -204.6260986 -78.9104767
95.9164276 -204.7576752 -79.1849976
94.5873413 -204.8501740 -79.5403061
93.2429962 -205.0347137 -80.0772858
91.9117661 -205.2491455 -80.6738815
90.6034012 -205.4805756 -81.4107056
112.5350494 -203.1354370 -80.2446518
111.0131302 -202.8927612 -79.1502609
109.5437698 -202.7214355 -78.2494202
108.1298447 -202.6205139 -77.5678406
106.6971436 -202.5411072 -77.0066605
91.6378555 -203.1042786 -77.4174347
90.3243713 -203.2991333 -78.0502243
88.9998322 -203.5226746 -78.8109283
87.7092819 -203.7668610 -79.6694107
86.3847351 -204.0879211 -80.6783676
115.1484222 -201.4310913 -79.1755753
113.6512299 -201.1941071 -77.9807892
112.1766968 -201.0164795 -76.9842072
110.7154846 -200.8833008 -76.1530457
109.2607117 -200.7494049 -75.4022598
107.8654633 -200.6674805 -74.8360977
106.4422379 -200.6267700 -74.3923950
91.4209900 -201.2007294 -74.8543854
90.0998688 -201.3657837 -75.3946381
88.7773590 -201.5542755 -76.0442505
87.4749374 -201.7466583 -76.7631836
86.1617432 -201.9958496 -77.6448364
84.8550720 -202.2895203 -78.6545868
83.5563049 -202.6216125 -79.7568207
117.8427505 -199.9341278 -78.7765808
116.3094635 -199.6618652 -77.4447174
114.8185883 -199.4171448 -76.2358246
83.3752289 -200.5998383 -77.0530624
82.0755844 -200.9336090 -78.2198181
80.7939377 -201.2796326 -79.4906998
-138.4853210 -198.3971863 -36.2773209
-139.6882935 -198.2586975 -35.4782715
-140.9203491 -198.1561279 -34.8576088
-142.1698761 -198.0805206 -34.3991776
-143.4618225 -198.0024109 -34.0306778
-147.3526306 -198.0700073 -33.6277885
120.6362991 -198.5587158 -79.0270996
119.0786438 -198.2118530 -77.4211349
117.5522156 -197.9651489 -76.0926514
116.0222702 -197.7452698 -74.9007111
114.5783234 -197.5764771 -73.9163513
83.1818085 -198.7801208 -74.8349991
81.9102707 -199.0140839 -75.7890015
80.6146393 -199.3097382 -76.9313660
79.3264542 -199.6468353 -78.2087326
78.0679398 -200.0515137 -79.6776047
-133.1654510 -196.8707123 -36.1374321
-134.3059845 -196.6340332 -34.9578476
-135.4933472 -196.3985901 -33.9185982
-136.6984558 -196.2402191 -33.0823822
-137.9133453 -196.1092682 -32.3326759
-139.1441803 -196.0196075 -31.7211533
-140.3861237 -195.9232178 -31.1708698
-141.6455994 -195.8765869 -30.7534447
-142.9123230 -195.8373566 -30.4016991
-144.2045898 -195.8476257 -30.2188988
-145.4947662 -195.8398743 -30.0840759
-146.8060913 -195.8665619 -30.0533905
-148.1374207 -195.9239349 -30.1182041
-149.4763031 -195.9998169 -30.2706146
-153.6184082 -196.4400940 -31.4155273
120.3338165 -196.6002960 -76.3707428
77.8775253 -198.1160126 -77.2042847
76.5852737 -198.5094604 -78.6331787
-130.3554382 -195.1617889 -34.9877777
-131.5081482 -194.8886261 -33.6857491
-132.6642761 -194.6767883 -32.5677185
-133.8517761 -194.5055237 -31.6017838
-147.7042847 -193.9736786 -27.2889347
-149.0310211 -194.0378418 -27.3798180
-150.3602295 -194.1150513 -27.5528278
-151.7305908 -194.2161407 -27.8488235
-153.1006165 -194.3321228 -28.2185097
-154.5104980 -194.5089264 -28.7467976
-155.9228210 -194.7165680 -29.3603554
123.1004868 -195.3421936 -77.1067429
121.5529099 -195.0470886 -75.5336304
120.0667572 -194.7534485 -74.1057053
77.7344742 -196.3077087 -75.1283646
76.4513321 -196.6423340 -76.4389343
75.1767960 -197.0119019 -77.8581848
-127.6383972 -193.6627502 -34.5384750
-128.7757263 -193.3654633 -33.1258316
-129.9289246 -193.1290283 -31.8854656
-131.0988159 -192.9349823 -30.8100166
-132.2806396 -192.7632294 -29.8610153
-133.4791870 -192.5962524 -28.9871330
-147.3488464 -192.1356812 -24.9768105
-148.6686859 -192.1867371 -25.0349445
-149.9950256 -192.2746582 -25.2003059
-151.3500519 -192.3543091 -25.4113922
-152.7014160 -192.4536133 -25.7044106
-154.0953217 -192.5890503 -26.1251755
-155.4632263 -192.7365875 -26.6164722
-156.8781281 -192.9134064 -27.2149277
-158.3138885 -193.1336975 -27.9501896
-159.7880249 -193.3991547 -28.8125782
124.4493637 -193.8283081 -76.5620575
122.8463669 -193.5272369 -74.9243317
75.0282745 -195.2247772 -75.8808517
73.7631836 -195.5865479 -77.3444595
-125.0105286 -192.2606506 -34.6122360
-126.1392288 -191.9430847 -33.0431328
-127.2683716 -191.6903534 -31.7063904
-128.4125214 -191.4662628 -30.5123940
-157.8985901 -191.2397461 -25.4533310
-159.3483276 -191.4437256 -26.1894684
-160.8145752 -191.7060242 -27.0302830
127.3385010 -192.7662048 -78.1149902
125.7759781 -192.3599854 -76.1903076
124.2109909 -192.0520020 -74.5226746
122.6238861 -191.7602844 -73.0174255
74.9066315 -193.5069885 -74.1480713
73.6265869 -193.8329773 -75.4902191
72.3471756 -194.2032623 -76.9993439
71.0916672 -194.6088257 -78.6408234
-122.4320984 -191.0087585 -35.2293854
-123.5341797 -190.6463928 -33.4940262
-124.6596375 -190.3444366 -31.9640961
-125.8048325 -190.0872345 -30.6147251
-126.9503250 -189.8551941 -29.4150848
-128.1277008 -189.6684265 -28.3500500
-157.5567780 -189.4598389 -23.3557892
-158.9811249 -189.6355743 -23.9823818
-160.4094849 -189.8302612 -24.7047806
-161.8453217 -190.0664368 -25.5488052
-163.3197479 -190.3398743 -26.5188332
128.6320190 -191.3355408 -77.9375534
127.0868759 -190.9550934 -76.0073318
125.5571365 -190.6309509 -74.3019028
72.2259827 -192.4849548 -75.2613678
70.9532776 -192.8699646 -76.8249664
69.6992340 -193.2779236 -78.4869843
-119.9284668 -189.8562622 -36.3453445
-121.0066528 -189.4387512 -34.3711014
-122.1010437 -189.1056824 -32.6757545
-123.2288208 -188.8086853 -31.1535034
-162.9347687 -188.5140076 -24.3240776
-164.4242096 -188.7780609 -25.3192711
-165.9542542 -189.1071777 -26.4443779
128.3692017 -189.5394287 -75.9001617
126.8747177 -189.2313538 -74.2110062
125.3580322 -188.9279022 -72.6553497
72.1307755 -190.8012695 -73.7263947
70.8531570 -191.1550903 -75.1654892
69.5883179 -191.5311127 -76.7419891
68.3183823 -191.9689026 -78.5001144
-119.6226273 -187.9506531 -33.7746086
-120.7151794 -187.6077118 -32.0557251
-121.8337860 -187.3169098 -30.5434437
-122.9766006 -187.0515442 -29.1766014
-162.6251984 -186.7917786 -22.4592018
-164.1096802 -187.0369568 -23.3734894
129.8256989 -188.2397308 -76.2318039
128.1799622 -187.8600769 -74.2581482
69.4710617 -189.8745728 -75.2492828
68.2131729 -190.2540894 -76.8688660
66.9373474 -190.6905518 -78.6576767
-116.0991821 -187.3940277 -37.7226868
-117.1574326 -186.9058990 -35.4040413
-118.2301788 -186.5256195 -33.4548302
-119.3562317 -186.1604614 -31.6559238
-120.4638290 -185.8750458 -30.1445866
-162.3657532 -185.1362457 -20.8536129
-163.7984161 -185.3311310 -21.6238708
-165.2874146 -185.5824280 -22.5460548
-166.7570496 -185.8436890 -23.5658646
-168.2363586 -186.1273956 -24.6947975
-169.8032990 -186.4989014 -26.0017376
131.3354950 -187.0042267 -76.8506851
129.6354370 -186.5700684 -74.6587067
128.0274963 -186.2367249 -72.8518372
69.3675461 -188.2441864 -73.9178619
68.1094360 -188.6026001 -75.4215088
66.8445053 -188.9965668 -77.0821228
-114.7738419 -185.9813080 -37.5359421
-115.8182144 -185.5133362 -35.2511292
-116.8935394 -185.1103058 -33.2390633
-117.9908905 -184.7708588 -31.4934044
-119.1257629 -184.4629822 -29.8975716
-120.2595444 -184.1912842 -28.4769211
-162.0936432 -183.4938354 -19.3967171
-163.5379944 -183.7026367 -20.1348228
-165.0116425 -183.9261932 -20.9699383
-166.4727478 -184.1688995 -21.8891659
-167.9236450 -184.4167175 -22.8985901
-169.4509277 -184.7325134 -24.1092911
132.7270813 -185.7285767 -77.3747864
131.0922241 -185.2997437 -75.2060776
66.7419968 -187.3691406 -75.7673264
65.4737701 -187.7920837 -77.5137024
-113.4639130 -184.6247559 -37.5799065
-114.5030823 -184.1587372 -35.2635040
-115.5702057 -183.7529907 -33.2265015
-167.6600189 -182.7749786 -21.3528404
-169.1621094 -183.0543823 -22.4593105
-170.7055511 -183.3696747 -23.6749496
132.5321655 -184.0692749 -75.8390808
130.9316406 -183.6894379 -73.8502274
66.6643982 -185.7630157 -74.5417633
65.4034424 -186.1453552 -76.1841278
64.1294556 -186.5864563 -77.9705505
-113.2130890 -182.8248444 -35.4332809
-114.2725143 -182.4193726 -33.3525543
-115.3590698 -182.0691986 -31.5372314
-167.4155426 -181.1632690 -19.9761028
-168.8917847 -181.4197693 -20.9838142
-170.4211121 -181.7038269 -22.1191330
133.8642883 -182.7924347 -76.4068298
132.3509064 -182.4465332 -74.4847565
130.7734222 -182.1088104 -72.6596146
64.0708847 -184.9521027 -76.7332458
62.7873459 -185.4169312 -78.6869202
-111.9223633 -181.5648499 -35.8596840
-112.9960938 -181.1355743 -33.6731949
-170.1831970 -180.0985107 -20.7557831
-171.7098389 -180.3985443 -21.9153996
135.3945770 -181.6581421 -77.4744034
133.7418823 -181.2223206 -75.2098465
132.2162628 -180.8858337 -73.3589706
130.6420288 -180.5667877 -71.6297607
63.9844437 -183.3871918 -75.6591721
62.7440681 -183.7886658 -77.4475098
61.4532166 -184.2742462 -79.4938049
-109.6234970 -180.8586426 -39.0515556
-110.6647186 -180.3172760 -36.4083633
-111.7238998 -179.8845215 -34.1645508
-112.8194046 -179.4817200 -32.1308784
-169.9771271 -178.5372620 -19.5599308
-171.4837952 -178.8090515 -20.6556358
-172.9565125 -179.0937347 -21.8129311
-174.5101929 -179.4460144 -23.1487160
135.2272186 -180.0604553 -76.2673569
133.5911713 -179.6569061 -74.0991058
61.4088058 -182.6628571 -78.3105011
-109.4273224 -179.1131592 -37.1385574
-110.4752960 -178.6372528 -34.7423019
-172.7414246 -177.5254059 -20.6057587
-174.2592773 -177.8332825 -21.8643875
135.0830536 -178.5030975 -75.1886826
133.4710083 -178.1332397 -73.1599045
61.3260841 -181.1107635 -77.3118896
-108.2082672 -177.9403076 -38.0303841
-109.2394257 -177.4464111 -35.5236473
-110.3040161 -177.0292511 -33.3421822
-172.5260925 -175.9789276 -19.4986877
-174.0370483 -176.2672119 -20.6951962
-175.6277618 -176.6141052 -22.0721054
136.6873474 -177.4270630 -76.6462021
134.9648438 -176.9820862 -74.2626801
133.3704224 -176.6435547 -72.3567810
61.2788391 -179.5620728 -76.3582001
-106.9775696 -176.8288422 -39.1630135
-108.0367432 -176.2797699 -36.4522629
-175.4130096 -175.0539398 -20.9692688
136.5308533 -175.8876953 -75.6633911
134.8471222 -175.4844971 -73.4392929
133.2690430 -175.1632690 -71.6303177
61.2131615 -178.0615082 -75.5883942
-107.8812180 -174.6960144 -35.1504784
-175.2306976 -173.5394287 -19.9790306
138.1164398 -174.8371887 -77.2641373
136.4178619 -174.3932800 -74.8477020
61.1701889 -176.5703735 -74.8896179
59.8911819 -176.9738464 -76.6938705
58.6404953 -177.4009552 -78.6205368
-105.6505966 -174.0809784 -38.9563904
-106.6872025 -173.5682526 -36.2999229
-107.7444229 -173.1294250 -33.9787750
-175.0613708 -172.0429840 -19.0926933
137.9841461 -173.3358002 -76.4497604
136.3269348 -172.9267883 -74.1837845
61.1150894 -175.1097412 -74.3033218
59.8516541 -175.4873505 -76.0288849
58.5894661 -175.9069672 -77.9251175
57.2958221 -176.3866425 -80.0380707
-105.5019302 -172.4942322 -37.6641617
-106.5407639 -172.0278778 -35.1944313
-107.6274872 -171.6039734 -32.9556084
-174.9248352 -170.5816498 -18.3316612
137.8734589 -171.8694763 -75.7843018
136.2595978 -171.4987335 -73.6560059
58.5531960 -174.4245605 -77.2863388
-104.3396683 -171.4530945 -39.2281532
-105.3868408 -170.9260254 -36.5055275
-174.8108826 -169.1373444 -17.6678181
-176.3261414 -169.4116516 -18.8544712
-177.8415680 -169.7052307 -20.1554089
-179.3915405 -170.0364532 -21.5618439
139.4532166 -170.8549194 -77.6034317
137.8028259 -170.4338226 -75.2490768
136.1717529 -170.0652771 -73.1585693
58.5189667 -172.9690247 -76.7454605
57.2454147 -173.4010315 -78.7386322
-104.2247009 -169.9021301 -38.1247025
-105.2687836 -169.4217224 -35.5665359
-174.6763153 -167.7025757 -17.0368423
-176.2245026 -167.9802704 -18.2017441
-177.7083282 -168.2554626 -19.4037399
-179.2479706 -168.5715942 -20.7810555
-180.8677521 -168.9378662 -22.3620644
139.3723907 -169.4094238 -77.0684128
58.4869614 -171.5292969 -76.2773285
57.2139359 -171.9448242 -78.2242355
55.9372292 -172.4065247 -80.3445969
-103.0940247 -168.8996277 -39.8889389
-104.1291962 -168.3784180 -37.1332397
-105.1726074 -167.9371643 -34.7416992
-180.7086182 -167.4664612 -21.6275673
140.9969940 -168.4618378 -79.2717590
139.3149719 -167.9980164 -76.6540604
58.4487915 -170.1065979 -75.8867874
57.1682014 -170.5137329 -77.7931290
55.8946953 -170.9509430 -79.8276443
-103.0013046 -167.3758087 -38.9369431
-104.0304718 -166.8957520 -36.3183594
-105.0993652 -166.4733887 -34.0105515
-180.6049042 -166.0359497 -21.0097923
-182.2515564 -166.4112854 -22.6456757
140.9266052 -167.0384521 -78.8464661
139.2500153 -166.5910187 -76.2976456
58.4320755 -168.6853638 -75.5365601
57.1483154 -169.0828857 -77.3971634
-102.9199982 -165.8860016 -38.0997696
-180.4786987 -164.6041260 -20.4272175
-182.1102295 -164.9623718 -22.0175209
140.8779907 -165.6399994 -78.5297241
139.2274780 -165.2165070 -76.0679779
58.4095230 -167.2879333 -75.2779312
57.1248055 -167.6757965 -77.1047821
-101.7914124 -164.9521790 -40.2313232
-102.8321838 -164.4374390 -37.4387436
-180.3937683 -163.2021790 -19.9545116
-182.0173035 -163.5502014 -21.5206070
140.8391418 -164.2597961 -78.3087463
139.1706543 -163.8360901 -75.8460388
58.3850975 -165.9082489 -75.1004181
57.1076279 -166.2834320 -76.8888931
-101.7394409 -163.4797974 -39.5132828
-102.7754669 -162.9954529 -36.8290215
-180.3087006 -161.8111420 -19.5473900
-181.9151764 -162.1460571 -21.0694466
-183.5698395 -162.5193939 -22.7467232
142.6261597 -163.4211426 -81.1488190
140.7889252 -162.8924713 -78.1401367
139.1410522 -162.4821472 -75.7371216
58.3740425 -164.5345917 -74.9698410
57.0857468 -164.9070435 -76.7418213
-101.6740799 -162.0471344 -38.9497719
-102.7182312 -161.5801392 -36.3465881
-180.2516937 -160.4420776 -19.2293129
-181.8427734 -160.7622986 -20.6991158
-183.4627075 -161.1131287 -22.3048954
142.5948486 -162.0594177 -81.0564423
58.3624916 -163.1731110 -74.8920975
57.0847321 -163.5328064 -76.6256561
-101.6155090 -160.6394043 -38.5051270
-102.6676407 -160.1925659 -35.9787560
142.5419312 -160.7027893 -80.9742279
58.3478050 -161.8212280 -74.8717575
57.0631943 -162.1811981 -76.6088409
-100.5355072 -159.7424011 -40.9247856
-101.5770798 -159.2430115 -38.1243019
-102.6333618 -158.8116150 -35.6590347
142.5602570 -159.3815918 -81.0866852
140.7609253 -158.8950653 -78.2223587
139.1411896 -158.5117645 -75.9165649
105.6786652 -155.7400513 -56.1687126
104.3203583 -155.7431488 -55.9914322
102.9757309 -155.7550201 -55.8670845
101.6014175 -155.7700806 -55.7468452
58.3349762 -160.4814453 -74.9139404
57.0547333 -160.8341675 -76.6269989
-100.5069962 -158.3484344 -40.5835190
-186.6040649 -157.7749329 -25.0620422
142.5969543 -158.0742340 -81.2772751
140.7562408 -157.5853577 -78.3750458
139.1423645 -157.2089233 -76.0916672
105.6990967 -154.4589844 -56.3370667
104.3094482 -154.4585876 -56.1513062
102.9772034 -154.4771729 -56.0464745
101.6125336 -154.4885864 -55.9155502
58.3460541 -159.1470490 -74.9884796
57.0358696 -159.4998932 -76.7087021
-100.4737091 -156.9756775 -40.3353653
-186.5191498 -156.4072876 -24.8380394
140.8046722 -156.3011475 -78.6714554
139.1619873 -155.9191742 -76.3439560
105.7006531 -153.1825256 -56.5390701
104.3299255 -153.1883087 -56.3770256
100.2502136 -153.2250519 -55.9947777
98.9130707 -153.2582703 -55.9756355
89.5763626 -153.6413269 -56.7265549
88.2697220 -153.7186279 -56.9607010
86.9409943 -153.8018646 -57.2283287
85.6341476 -153.8957825 -57.5509300
58.3389053 -157.8273621 -75.1393051
-100.4696579 -155.6118622 -40.1288643
-183.2443695 -154.3493958 -21.2738876
-184.8223572 -154.6832581 -22.8858738
-186.5140076 -155.0705719 -24.7385292
140.8395844 -155.0254669 -79.0213089
139.1875000 -154.6403656 -76.6576691
105.7252808 -151.9153137 -56.7931061
104.3306580 -151.9170227 -56.6000519
100.2619629 -151.9594879 -56.2242355
98.9245758 -151.9872437 -56.2097359
89.5882416 -152.3650360 -56.9454308
88.2833099 -152.4365692 -57.1554337
86.9537964 -152.5226288 -57.4364433
85.6291046 -152.6194916 -57.7789612
58.3439560 -156.5133972 -75.3271103
-100.4553680 -154.2752380 -40.0624123
-183.2174377 -153.0285034 -21.2333794
-184.8190308 -153.3646393 -22.8593483
140.8806915 -153.7608643 -79.4380341
139.2421112 -153.3767090 -77.0708771
105.7265472 -150.6485291 -57.0468483
104.3474121 -150.6490479 -56.8498039
103.0081329 -150.6591492 -56.7210388
101.6529541 -150.6732178 -56.6124878
100.3150711 -150.6987762 -56.5572433
98.9516144 -150.7274170 -56.5070648
97.5965881 -150.7648315 -56.4917030
96.2657318 -150.8024139 -56.5296211
89.6176376 -151.0931396 -57.1855087
86.9560623 -151.2550049 -57.7148323
85.6476440 -151.3490143 -58.0399361
58.3463516 -155.2085724 -75.5700836
-100.4500275 -152.9507446 -40.0654755
-183.2342072 -151.7267303 -21.2884083
-184.8190155 -152.0545502 -22.8875828
140.9312286 -152.4998016 -79.8862686
139.2464142 -152.1137085 -77.4680710
105.7565002 -149.3845825 -57.3386765
104.3888855 -149.3853149 -57.1489944
103.0137024 -149.3976440 -56.9989548
101.6739883 -149.4174347 -56.9300156
100.3259201 -149.4407043 -56.8627167
98.9620743 -149.4654083 -56.8017540
96.2778320 -149.5391235 -56.8288307
89.6327667 -149.8285065 -57.4783745
88.2935638 -149.9078979 -57.7508545
86.9830704 -149.9928894 -58.0211754
85.6419525 -150.0807190 -58.3377914
58.3456497 -153.9153290 -75.8790131
-99.4315262 -152.1535950 -43.1685944
-100.4595871 -151.6336823 -40.1082573
-183.2372894 -150.4291534 -21.3712769
-184.8412933 -150.7582550 -22.9871540
-186.5049438 -151.1195374 -24.7657490
141.0073547 -151.2629089 -80.4917068
139.3245392 -150.8764343 -78.0581360
100.3141708 -148.1787567 -57.1460037
98.9684525 -148.2050323 -57.0961380
97.6391144 -148.2443237 -57.1188393
96.3008881 -148.2794189 -57.1437302
58.3528671 -152.6299591 -76.2416229
57.0621414 -152.9545288 -77.8962173
-99.4502106 -150.8409271 -43.2629509
