-116.9452744 -144.7229614 -39.9145432
-170.8278198 -144.2340393 -29.1925449
-173.7210388 -144.5620880 -30.6850433
-176.6841278 -144.9434814 -32.5038757
-179.7409668 -145.3985443 -34.7369156
123.5993958 -144.8305206 -91.5763855
120.5304565 -144.4407349 -88.8070526
117.5130310 -144.1473999 -86.6049347
114.5821228 -143.9192200 -84.8603516
111.6549683 -143.7509766 -83.3883820
108.7975922 -143.6305847 -82.2657776
105.9549713 -143.5500946 -81.3605652
103.1393127 -143.5030060 -80.6876144
78.6151428 -144.5535889 -83.3610306
75.9529266 -144.8355408 -84.6485901
73.2968292 -145.1625671 -86.2161942
70.6540298 -145.5343475 -88.0565414
68.0274200 -145.9638672 -90.2198181
65.3985977 -146.4637756 -92.8408585
-112.6388626 -143.4210815 -48.6316299
-114.9000549 -142.8869324 -45.1163177
-117.2111816 -142.4501343 -42.1603928
-119.5574646 -142.0846100 -39.6317558
-121.9314728 -141.7707520 -37.4224319
-124.3291016 -141.5077209 -35.4854927
-126.7528076 -141.2835236 -33.8063698
-165.5025635 -141.4099274 -28.8978462
-168.3174438 -141.6579590 -29.9550667
-171.1736908 -141.9447937 -31.2588482
-174.1000671 -142.2849426 -32.8628540
120.9200134 -142.3347778 -92.5577698
117.8527679 -141.9853210 -89.9997711
114.8846970 -141.7333679 -88.0103226
111.9378510 -141.5352325 -86.3782806
109.0521393 -141.4017792 -85.1227112
106.1938782 -141.3054504 -84.1570435
103.3751450 -141.2531433 -83.4127045
78.7902603 -142.2894745 -86.1072769
76.1229401 -142.5789337 -87.4880676
73.4707565 -142.9177246 -89.1526413
70.8241043 -143.3072815 -91.1317825
68.1935577 -143.7627869 -93.5186081
-115.2247086 -140.6924286 -47.9488983
-117.5142365 -140.2244720 -44.7622147
-119.8468399 -139.8336487 -42.0594940
-122.2119751 -139.5086823 -39.7299271
-124.6086960 -139.2346497 -37.7141571
-127.0245285 -139.0029297 -35.9391327
-165.8525543 -139.1360626 -31.0578880
-168.6897278 -139.3914948 -32.2040176
-171.5618286 -139.6910400 -33.5930176
-174.5164490 -140.0501404 -35.3445473
115.2663116 -139.6156769 -91.7852783
112.2737961 -139.3879395 -89.9139252
109.3752213 -139.2256927 -88.4995728
106.4861755 -139.1145325 -87.3575058
103.6497192 -139.0463867 -86.5056763
78.9954910 -140.0744934 -89.2624054
76.3313522 -140.3794556 -90.7381668
73.6750183 -140.7322693 -92.5581360
71.0370026 -141.1493835 -94.7378311
-117.8696213 -138.0538483 -47.8035622
-120.1886902 -137.6329193 -44.8605499
-122.5321808 -137.2870483 -42.3749542
-124.9212189 -136.9970398 -40.2235947
-127.3253937 -136.7539368 -38.3450508
-160.6935730 -136.4864044 -31.7849350
-163.4691467 -136.6703186 -32.5558701
-166.2621307 -136.8982849 -33.5233498
-169.1214294 -137.1666870 -34.7651749
-172.0303345 -137.4836426 -36.3082161
-175.0148926 -137.8680420 -38.2420273
112.6738663 -137.3296814 -94.1252518
109.7404633 -137.1267395 -92.4160690
106.8241425 -136.9873352 -91.1121140
103.9647064 -136.8966675 -90.1368713
79.2370682 -137.9231873 -92.9171677
76.5710678 -138.2454834 -94.5906830
-118.3013992 -135.9723511 -51.4469452
-120.5774765 -135.4945068 -48.1689758
-122.9027939 -135.1184235 -45.4308128
-125.2823944 -134.8045959 -43.1163330
-127.6771622 -134.5458374 -41.1231995
-161.1140137 -134.2645874 -34.3983650
-163.8944550 -134.4623871 -35.2446365
-166.7221222 -134.7004395 -36.3304291
-169.6105347 -134.9864044 -37.7165031
-172.5617981 -135.3339844 -39.4626350
110.1992569 -135.1539307 -97.2676926
107.2389221 -134.9569244 -95.6384430
104.3529663 -134.8370361 -94.4333344
101.4884949 -134.7750854 -93.6071854
98.6598434 -134.7606049 -93.0979538
95.8601532 -134.7847290 -92.8280716
93.0833054 -134.8555450 -92.9141388
90.3442230 -134.9704132 -93.1872940
87.6043777 -135.1233521 -93.7927246
84.8955002 -135.3209381 -94.6326447
82.1983795 -135.5618896 -95.8350983
79.5231628 -135.8637695 -97.3491211
-121.0589447 -133.4553375 -52.1403275
-123.3453827 -133.0200195 -49.0529823
-125.7023468 -132.6743469 -46.4917107
-128.0795441 -132.3896790 -44.3320313
-130.5058136 -132.1619263 -42.4759903
-132.9516144 -131.9745178 -40.9305420
-156.1106567 -131.7807312 -36.2519302
-158.8332062 -131.9123077 -36.7084579
-161.5847626 -132.0856018 -37.3847847
-164.3997803 -132.2971191 -38.3438339
-167.2604218 -132.5570374 -39.5848122
-170.1833191 -132.8738251 -41.1778564
101.9458389 -132.8313446 -98.8202515
99.0937042 -132.7833557 -98.1041718
96.2698212 -132.7897339 -97.7234802
93.4690552 -132.8568726 -97.7661972
90.7193146 -132.9639435 -98.0558167
87.9735336 -133.1313629 -98.7534561
85.2686005 -133.3488464 -99.7462234
-126.2042999 -130.6260681 -50.5239067
-128.5588989 -130.3043518 -48.0668259
-130.9687347 -130.0472260 -46.0485611
-133.4046936 -129.8471680 -44.3416824
-156.6176300 -129.6332245 -39.5171394
-159.3636169 -129.7794800 -40.0653343
-162.1480713 -129.9655609 -40.8734665
-164.9957886 -130.2015076 -41.9964981
-129.1441650 -128.3291626 -52.6906967
-131.5259399 -128.0265961 -50.3276825
-133.9369202 -127.7895660 -48.4073334
-136.4019012 -127.6105576 -46.8227425
-138.8842621 -127.4708099 -45.5273132
-141.4076538 -127.3767090 -44.5116272
-143.9574890 -127.3162537 -43.7356415
-146.5409698 -127.2908173 -43.1959915
-149.1559906 -127.3041534 -42.8796997
-151.8036652 -127.3527374 -42.7922363
-154.4889374 -127.4330673 -42.9457092
-157.2107544 -127.5562592 -43.3554077
-159.9855652 -127.7211685 -44.0364342
-162.8136597 -127.9333191 -45.0396042
-137.0408173 -125.6463699 -51.6230164
-139.5169220 -125.4840927 -50.1305962
-142.0312347 -125.3710938 -48.9894943
-144.5891113 -125.3013992 -48.1489525
-147.1743164 -125.2777863 -47.5693474
-149.8020477 -125.2878113 -47.2748947
-152.4683685 -125.3410950 -47.2282562
-155.1801147 -125.4374771 -47.4858170
-157.9399872 -125.5819626 -48.0487595
-142.8415527 -123.5443039 -54.7529678
99.7324066 -224.8169098 -89.5944977
98.3318329 -224.8132324 -89.4154053
96.9468231 -224.8517761 -89.3644562
95.5687256 -224.9233093 -89.4935608
94.1930389 -225.0581970 -89.7760849
92.8404083 -225.1870880 -90.1671219
106.5594177 -222.8602295 -88.1895447
105.0773315 -222.6933136 -87.4700165
103.6493454 -222.6134644 -86.9135208
102.2227554 -222.5036926 -86.3805161
100.8049622 -222.4676666 -86.0638733
99.3973312 -222.4909973 -85.8888550
98.0090332 -222.5023193 -85.7535629
96.6315155 -222.5490265 -85.7526398
95.2526093 -222.6057739 -85.8426132
93.8875198 -222.7257538 -86.0998383
92.5227356 -222.8385773 -86.4183044
91.1802216 -223.0074463 -86.8581238
89.8447495 -223.2037506 -87.3955307
88.5117950 -223.4489899 -88.0735931
87.1791840 -223.7120056 -88.9376755
110.6086502 -221.1584930 -87.5386887
109.1525497 -220.9520874 -86.5197220
107.6875534 -220.7814178 -85.6197205
106.2295837 -220.6372528 -84.8635788
88.2581787 -221.2873688 -84.9884338
86.9244537 -221.4935455 -85.6723938
111.7730713 -219.2564087 -85.4232025
110.3074265 -219.0506439 -84.4567413
108.8592911 -218.8973389 -83.6101990
107.4044342 -218.7556152 -82.8518448
105.9829407 -218.6801147 -82.2734756
88.0511017 -219.3130798 -82.4538193
86.7105789 -219.5233765 -83.0711517
85.3824615 -219.7514496 -83.7896347
84.0755539 -219.9899139 -84.6123505
82.7630768 -220.2602844 -85.5536804
81.4551926 -220.5700378 -86.6015015
-146.3059998 -217.8552246 -44.0341454
116.0686188 -218.0124512 -86.5514984
114.5450134 -217.7149658 -85.1127167
113.0328217 -217.4689331 -83.8968201
111.5296631 -217.2895203 -82.8961105
82.5771942 -218.2939606 -83.0801697
81.2668610 -218.5812683 -84.0440903
-138.2079010 -216.0909882 -43.5008698
-139.4201965 -215.8716125 -42.5620117
-140.6289063 -215.6990051 -41.7283249
-141.8585815 -215.5784607 -41.0442696
-143.1147614 -215.4773865 -40.4812202
-144.3918762 -215.4062958 -40.0469742
-145.6696472 -215.3828888 -39.7454872
-146.9657898 -215.3863983 -39.5401611
-148.2685547 -215.3833008 -39.3923912
-149.6072083 -215.4248047 -39.3931999
115.7591324 -215.9911804 -83.8078537
114.2874451 -215.7609711 -82.6298676
112.7897797 -215.5671539 -81.6041718
111.2984314 -215.4023438 -80.7156677
82.4108047 -216.4748688 -81.0574341
81.1001205 -216.7108154 -81.8801651
79.7835083 -216.9893341 -82.8325653
78.4837952 -217.2974396 -83.9291763
77.1932678 -217.6237946 -85.1312561
75.8902588 -218.0222168 -86.4786682
74.5838318 -218.4814606 -88.0113144
-133.0187988 -214.8352814 -44.5046196
-134.1537170 -214.5097961 -43.0917358
-135.3139954 -214.2396545 -41.8932953
-136.4987946 -214.0050354 -40.8009605
-137.7035522 -213.8257599 -39.8671951
-138.9179230 -213.6628723 -39.0413322
-140.1383667 -213.5440979 -38.3705368
-141.3871155 -213.4574890 -37.8119125
-142.6374054 -213.3729095 -37.3113976
-143.9269409 -213.3199615 -36.9157982
-145.2053070 -213.2943726 -36.6358948
-146.4993439 -213.2830353 -36.4305305
-147.8066254 -213.3021393 -36.3140640
-149.1257935 -213.3280792 -36.2563858
-150.4645081 -213.3947144 -36.3053131
-151.8096466 -213.4810638 -36.4660339
-153.1637573 -213.5579529 -36.6938858
-154.5448914 -213.6877441 -37.0385513
-155.9610748 -213.8768158 -37.4949265
-157.3880463 -214.0991516 -38.0999222
115.5345306 -214.1444855 -81.6540833
114.0778885 -213.9185638 -80.5787582
74.4391937 -216.4811249 -85.5901642
-130.2399902 -213.2464142 -43.8925934
-131.3798218 -212.8867798 -42.3539734
-132.5419617 -212.5776367 -40.9623108
-133.6958771 -212.3460999 -39.8118515
-155.5207520 -211.8288422 -34.6943741
-156.8966370 -211.9788971 -35.1512451
-158.3063354 -212.1606445 -35.7201958
-159.7490234 -212.3928375 -36.4269104
-161.2341614 -212.6834412 -37.2476807
121.4619522 -213.4591217 -85.2711487
119.9006500 -213.0863190 -83.5600510
118.3235397 -212.8097229 -82.1334152
116.7830429 -212.5644989 -80.8889465
115.3271561 -212.3425293 -79.7972641
113.8714218 -212.1508789 -78.8143311
74.2893448 -214.6151733 -83.5304947
73.0011902 -214.9986725 -84.9265900
71.7032776 -215.4464569 -86.4537201
-127.5786896 -211.8168793 -43.8727188
-128.6924438 -211.4142151 -42.1741409
-129.8158722 -211.0941620 -40.7028503
-130.9720764 -210.8431396 -39.4276886
-132.1519470 -210.5867157 -38.2408714
-133.3348083 -210.3767090 -37.2208862
-155.1463165 -209.9441223 -32.3948212
-156.5202332 -210.0772400 -32.7647476
-157.9097443 -210.2316132 -33.2308769
-159.3068237 -210.3973846 -33.7852325
-160.7788849 -210.6388092 -34.5229187
122.7001648 -211.9296875 -84.7170105
121.2041397 -211.5807495 -83.0482483
119.6733322 -211.2593384 -81.5469666
71.5910645 -213.5525208 -84.4007034
70.2789917 -214.0196991 -85.9799347
-126.0705719 -210.1037292 -42.6009140
-127.1986694 -209.7158203 -40.8937149
-128.3204193 -209.4450378 -39.5183945
-160.3970032 -208.7386475 -32.2252121
-161.8356171 -208.9599609 -32.9086304
-163.2740479 -209.2101135 -33.7216415
-164.7550201 -209.4927521 -34.6710129
124.0402603 -210.4729614 -84.4685364
122.4664230 -210.1058655 -82.6958160
121.0012436 -209.8015137 -81.2144928
119.4910431 -209.5343323 -79.8925781
71.4624023 -211.7811737 -82.6520309
70.1782532 -212.1689453 -84.0887451
68.8913651 -212.6130676 -85.6765289
-123.5085297 -208.9082031 -43.4999123
-124.6111069 -208.4653625 -41.6075592
-125.7361908 -208.1299896 -39.9945374
-126.8870697 -207.8484497 -38.5886421
-128.0339355 -207.5817413 -37.3223953
-160.0812073 -206.9596863 -30.3155365
-161.5037842 -207.1477356 -30.9120522
-162.9202423 -207.3568115 -31.6120720
-164.3741150 -207.5931854 -32.4341812
-165.8774719 -207.8821716 -33.3949432
125.4973068 -209.0905762 -84.5294571
123.8332367 -208.6834259 -82.5993958
122.2977295 -208.3863068 -81.0431519
68.7880478 -210.8064423 -83.9276199
67.4846649 -211.2703247 -85.6123352
-121.0228577 -207.8282471 -44.8938255
-122.0933990 -207.3482361 -42.8051186
-123.1831589 -206.9516602 -40.9818802
-165.5213318 -206.0534515 -31.3656445
126.9289017 -207.7460327 -84.7178116
125.2891235 -207.3261261 -82.7450638
123.6528702 -206.9783173 -81.0128479
122.1236572 -206.6875305 -79.5481415
68.6567764 -209.1234741 -82.4545212
67.3722916 -209.5161743 -83.9814377
66.1033783 -209.9543610 -85.6468201
-119.6248474 -206.3272552 -44.4652710
-120.7078476 -205.8603516 -42.3508263
-121.7987976 -205.4736328 -40.5282364
-122.9233551 -205.1141815 -38.8790512
-165.2047729 -204.2993927 -29.5883732
-166.7138367 -204.5736694 -30.4849072
-168.1819305 -204.8450317 -31.4463959
-169.6791992 -205.1501770 -32.5686874
-171.2328186 -205.5252533 -33.8169327
128.2493134 -206.3864288 -84.8712540
126.6828079 -205.9741516 -82.9406967
125.1131973 -205.6354980 -81.2207718
66.0087585 -208.2324219 -84.1091766
64.7142944 -208.6893311 -85.8647156
-118.2650070 -204.8983459 -44.2764626
-119.3377991 -204.4246216 -42.1174927
-120.4414978 -204.0371399 -40.2574692
-170.8755188 -203.6964722 -31.8784981
129.5660706 -205.0458679 -85.1727829
128.0400696 -204.6594543 -83.2405701
126.5140762 -204.2941895 -81.4947586
124.9301682 -203.9721985 -79.8659744
65.9178162 -206.5579681 -82.7378769
64.6251984 -206.9842987 -84.4024811
63.3438034 -207.4550476 -86.2083511
-116.9359360 -203.5192871 -44.2732773
-117.9905090 -203.0546570 -42.1084824
-119.0909729 -202.6499939 -40.1970024
-120.2291336 -202.2681427 -38.4500198
-170.5807495 -201.9772644 -30.2177925
-172.1481476 -202.3284149 -31.4210243
131.1657104 -203.8956146 -86.1232758
129.3950195 -203.3636017 -83.6849899
127.8964462 -203.0202026 -81.9100494
63.2559471 -205.7681732 -84.8200912
61.9630814 -206.2665253 -86.6942291
-115.6276474 -202.1861420 -44.4563980
-116.6831055 -201.7003021 -42.2120972
-117.7713165 -201.2877350 -40.2673569
-170.3237457 -200.3118591 -28.7604256
-171.8587952 -200.6096802 -29.8700848
-173.4197845 -200.9604797 -31.1073723
-174.9623108 -201.3361664 -32.4359894
130.9399414 -202.1755066 -84.5008698
129.2502289 -201.7309418 -82.3784027
127.7271652 -201.3765259 -80.6649017
63.1794624 -204.1198120 -83.5779572
61.9119759 -204.5645294 -85.3628082
-114.3209229 -200.8975830 -44.8384247
-115.3898468 -200.3910065 -42.5010414
-116.4702072 -199.9647369 -40.4936714
-117.5753021 -199.5986938 -38.7240639
-170.0986481 -198.6878662 -27.4787846
-171.6351166 -198.9845581 -28.5321274
-173.1421204 -199.2809601 -29.6502190
-174.6643677 -199.6220398 -30.8826675
130.7638702 -200.5141602 -83.1766815
63.0977097 -202.5285492 -82.5101852
61.8316269 -202.9393616 -84.1876907
-113.0442123 -199.6477356 -45.3921127
-114.1018906 -199.1374359 -42.9988174
-115.1859360 -198.6956329 -40.8984909
-172.9145050 -197.6519928 -28.3526802
-174.3885193 -197.9499054 -29.4748001
-175.9326324 -198.3064117 -30.7635174
132.3305054 -199.4026184 -84.4047699
130.6173706 -198.9190369 -82.1176224
63.0613480 -200.9329529 -81.5076904
61.7625923 -201.3455811 -83.1407852
60.4752769 -201.7907715 -84.9046860
-111.7907333 -198.4619141 -46.1874695
-112.8392410 -197.9116516 -43.6430664
-113.9248123 -197.4238586 -41.3965378
-115.0198822 -197.0445557 -39.5132370
-172.7200928 -196.0817108 -27.2391663
-174.1910095 -196.3668213 -28.2966442
-175.6936798 -196.6736450 -29.4831009
-177.3116913 -197.0713501 -30.8713303
133.8195496 -198.2637024 -85.5972748
132.1672821 -197.7872314 -83.2699432
130.4979401 -197.3730469 -81.1805344
60.4386063 -200.1835327 -83.8675842
59.1253204 -200.6730957 -85.7731400
-110.5484238 -197.3044891 -47.1329308
-111.5978699 -196.7145233 -44.4505653
-112.6570663 -196.2295380 -42.1338615
-175.4902802 -195.0858002 -28.3402443
-177.0810547 -195.4429016 -29.6646500
135.2888947 -197.1566467 -86.8743134
133.6647034 -196.6615906 -84.4678192
132.0475769 -196.2325745 -82.3119736
130.3848267 -195.8399200 -80.3430099
60.3681107 -198.6439819 -83.0283203
59.0870972 -199.0827179 -84.8207932
57.8049049 -199.5743713 -86.8018723
-110.3733826 -195.5632324 -45.4352531
-111.4189911 -195.0519257 -42.9993820
-112.5021667 -194.6046600 -40.8502617
-175.2899475 -193.5297546 -27.3024578
-176.8632507 -193.8612671 -28.5681419
-178.4855499 -194.2456818 -29.9771347
135.1322021 -195.5521545 -85.7627029
133.5521545 -195.1083984 -83.5309525
57.7623444 -197.9965515 -85.8609924
-109.1748047 -194.4551086 -46.5987778
-110.2113571 -193.9068604 -44.0052795
-178.2801666 -192.6705475 -28.9384060
-179.8276062 -193.0337982 -30.2889481
135.0229950 -194.0151672 -84.8933258
133.4250946 -193.5840454 -82.7129517
57.7058182 -196.4537811 -85.0446472
56.4113808 -196.9466553 -87.0420990
-109.0346832 -192.7794952 -45.1417542
-110.0651093 -192.2982178 -42.7809906
-178.0884552 -191.1248627 -27.9997711
-179.6282349 -191.4679871 -29.3292046
-181.2056427 -191.8602295 -30.8023949
136.6209869 -193.0104065 -86.6591721
134.9166718 -192.4985962 -84.1201553
133.3430328 -192.0953064 -82.0559082
57.6693344 -194.9265442 -84.3160019
56.3833466 -195.3964539 -86.2568512
-107.8035431 -191.7547302 -46.6335335
-108.8674774 -191.1966858 -44.0013123
-109.9365845 -190.7330933 -41.7382202
-181.0202332 -190.3084717 -29.8681450
136.5287476 -191.4928589 -85.8778305
134.8438721 -191.0138702 -83.4831314
133.2670898 -190.6328125 -81.4902649
57.6129684 -193.4443054 -83.7310791
56.3446503 -193.8867798 -85.5918884
-107.6918869 -190.1283875 -45.4000511
-108.7567825 -189.6295624 -42.9491997
-109.8363495 -189.1950378 -40.8139725
-180.8476410 -188.7881165 -29.0173435
136.4296875 -190.0002136 -85.2143555
57.5723190 -191.9755859 -83.2163696
56.2859459 -192.4096680 -85.0467224
55.0212173 -192.8786316 -87.0616302
-106.5195313 -189.1349030 -47.0870705
-107.5820389 -188.5724945 -44.3955612
-180.7365112 -187.3130798 -28.3141117
-182.3366241 -187.6880188 -29.7721119
136.3295593 -188.5320587 -84.6884613
57.5474319 -190.5097504 -82.7392349
56.2660828 -190.9267578 -84.4984894
54.9712105 -191.3972168 -86.4939804
-106.4274139 -187.5632172 -46.0532913
-107.4699554 -187.0615692 -43.5529594
-180.5844116 -185.8358154 -27.6355515
-182.1781616 -186.1981812 -29.0765114
138.0480347 -187.6223755 -86.9454956
136.2753906 -187.1004181 -84.2944641
57.5172729 -189.0665436 -82.3514862
56.2312927 -189.4764404 -84.0762939
-105.2693939 -186.6111755 -47.9496155
-106.3321533 -186.0361633 -45.1722641
-107.3907089 -185.5540161 -42.7665901
-180.4725189 -184.3891907 -27.0692101
-182.0644836 -184.7420654 -28.4846458
-183.7230072 -185.1403198 -30.0579796
137.9710693 -186.1805725 -86.5221634
136.2335510 -185.6848297 -83.9697952
57.4918594 -187.6458435 -82.0516205
56.1865082 -188.0542755 -83.7712097
54.9032326 -188.4892578 -85.6481705
53.6277847 -188.9584808 -87.6589355
-105.1907578 -185.0747375 -47.0747032
-106.2425690 -184.5418091 -44.4333839
-107.3162994 -184.0843201 -42.1263771
-180.3904724 -182.9699707 -26.6071320
-181.9675903 -183.3060455 -27.9627037
139.7255859 -185.3314514 -89.1025391
137.9196777 -184.7610321 -86.2075577
136.2037964 -184.2882233 -83.7174988
54.8923874 -187.0515137 -85.3088913
-105.1222534 -183.5731201 -46.3197021
-180.3034210 -181.5576935 -26.1884346
-181.8670807 -181.8799133 -27.4955769
-183.4874573 -182.2426910 -28.9613037
137.8482361 -183.3498230 -85.9131622
136.1642761 -182.8979187 -83.5173645
54.8610077 -185.6434479 -85.0867004
-104.0069656 -182.6626892 -48.4595947
-105.0460358 -182.1111908 -45.7146187
-180.2296143 -180.1597748 -25.8329735
-181.8283539 -180.4873199 -27.1415558
-183.3995972 -180.8236694 -28.5359840
137.8346558 -181.9750214 -85.7896957
136.1502228 -181.5338593 -83.4273453
89.0309448 -178.9157104 -64.2144318
87.6988983 -178.9877014 -64.3957748
54.8659363 -184.2353363 -84.8896484
-103.9562454 -181.1809540 -47.8206100
-104.9905090 -180.6609192 -45.1777534
-183.3232117 -179.4235229 -28.1825848
-184.9367981 -179.7922668 -29.7159538
-186.5690613 -180.1962585 -31.3923492
137.7923431 -180.6058807 -85.6961441
136.1404419 -180.1819763 -83.4032364
89.0355225 -177.5941772 -64.2608948
87.7069244 -177.6668091 -64.4185333
54.8272476 -182.8507080 -84.7706528
-103.8952408 -179.7465668 -47.3574409
-104.9511414 -179.2344208 -44.7438736
-183.2433167 -178.0329590 -27.8723259
-184.8498230 -178.3904419 -29.3745766
-186.5007935 -178.7913361 -31.0372562
139.5137634 -179.7667236 -88.4174042
137.7913208 -179.2646027 -85.7295227
136.1236267 -178.8423309 -83.4359894
54.8083611 -181.4776459 -84.7112579
-103.8491745 -178.3340149 -46.9891815
-104.9049072 -177.8423462 -44.4492340
-147.1554565 -173.1225281 -15.5447750
-148.4311829 -173.1408997 -15.4769297
-149.7372437 -173.1782532 -15.4496269
-151.0370331 -173.2174988 -15.4653740
-186.3984375 -177.3907928 -30.7271690
-188.1171722 -177.8287964 -32.5484543
139.5354156 -178.4378357 -88.5340424
137.7940369 -177.9354553 -85.8338470
136.1224670 -177.5207825 -83.5613022
54.7986679 -180.1181946 -84.7309875
-102.7580490 -177.4884796 -49.5171356
-103.8261566 -176.9290466 -46.6683998
-104.8691483 -176.4654846 -44.2311935
-147.1626587 -171.8302612 -15.5376091
-148.4317780 -171.8478699 -15.4903841
-149.7290344 -171.8800354 -15.4772339
-151.0274048 -171.9184265 -15.4623108
-186.3613739 -176.0222473 -30.5282059
139.5477295 -177.1201172 -88.7129059
102.5770035 -173.3036804 -64.6679535
101.2010193 -173.3089294 -64.5096054
99.8590012 -173.3306580 -64.4124985
98.4844971 -173.3488770 -64.3129044
97.1311874 -173.3701477 -64.2301331
95.7799530 -173.4100342 -64.2258301
89.0256577 -173.6957397 -64.6709900
87.6920929 -173.7709351 -64.8458710
54.7839928 -178.7713776 -84.8071747
-102.7370605 -176.0906067 -49.2461052
-147.1405640 -170.5261230 -15.5740261
-149.7424622 -170.5931396 -15.5442104
-151.0169983 -170.6191711 -15.4842377
-186.3268738 -174.6621552 -30.3709373
139.5527039 -175.8132172 -88.9462662
102.5836639 -172.0211029 -64.8811111
101.2154312 -172.0329590 -64.7439117
97.1318283 -172.0836182 -64.4223785
95.7823792 -172.1246643 -64.4264984
89.0421906 -172.4054108 -64.8668060
87.7061234 -172.4737396 -65.0174942
54.7968216 -177.4232788 -84.8937149
-102.7329254 -174.7106323 -49.0636978
-147.1572418 -169.2485962 -15.6593065
-148.4488525 -169.2731323 -15.6375446
-149.7506104 -169.3056946 -15.5710735
-151.0433350 -169.3393555 -15.5420609
-186.3040466 -173.3180847 -30.2865772
-187.9608765 -173.7188721 -32.0294342
139.5934143 -174.5206451 -89.2581024
102.6068802 -170.7437439 -65.1301956
101.2547226 -170.7554932 -64.9868546
97.1354904 -170.8040314 -64.6489487
95.7933044 -170.8425598 -64.6568222
91.7234650 -170.9923096 -64.8252106
90.3800201 -171.0554810 -64.9452438
54.7887688 -176.0990295 -85.0870361
-101.6721802 -173.9580383 -52.1241455
-102.7314072 -173.3453827 -48.9371223
-186.2891693 -171.9866943 -30.2630825
-187.9432220 -172.3804169 -31.9953003
139.6489258 -173.2474365 -89.6784515
102.6238708 -169.4711151 -65.4009933
101.2432022 -169.4747772 -65.2292480
99.8695297 -169.4873199 -65.0787735
98.5032272 -169.5054626 -64.9884644
97.1477966 -169.5334778 -64.9349976
95.8083038 -169.5679321 -64.9173508
91.7345734 -169.7171173 -65.0892868
90.3795471 -169.7731781 -65.1807861
54.8033524 -174.7835999 -85.3320389
-101.6675568 -172.6042480 -52.0768967
-102.7263031 -172.0027466 -48.9166946
-186.3030701 -170.6728363 -30.3193417
-187.9335938 -171.0555115 -32.0172691
139.7076416 -171.9878540 -90.1762619
137.9255524 -171.5022583 -87.4496460
136.2711792 -171.0924683 -85.1463089
54.8028259 -173.4841309 -85.6581497
-144.6159363 -165.3904419 -16.1938152
-145.8984528 -165.3999176 -16.0713978
-147.1769257 -165.4180145 -15.9812927
-148.4878845 -165.4492035 -15.9422550
-186.3140564 -169.3644104 -30.4108982
-187.9563446 -169.7478333 -32.1213760
-189.6811523 -170.1750183 -34.0299110
137.9810181 -170.2541962 -87.9857025
136.2897949 -169.8350830 -85.6105194
54.8115616 -172.1872864 -86.0071259
-144.6746216 -164.1349030 -16.4157448
-145.9350739 -164.1416016 -16.2724800
-147.2354584 -164.1641693 -16.1940193
-148.5283356 -164.1926117 -16.1597748
-186.3438110 -168.0686035 -30.5646496
-187.9630585 -168.4433441 -32.2501335
-189.6732483 -168.8640594 -34.1501274
138.0531616 -169.0253296 -88.6320648
136.3410034 -168.5965576 -86.1795044
54.8363190 -170.8961029 -86.3814545
-101.7014389 -168.6528625 -52.4845276
-102.7638626 -168.0776672 -49.3750687
-147.2918701 -162.9210510 -16.4821377
-148.5679932 -162.9390717 -16.3882008
-186.3733215 -166.7834473 -30.7738647
-188.0012512 -167.1563110 -32.4614639
-189.7231293 -167.5751801 -34.3696976
138.1346893 -167.8108368 -89.3711700
136.4282227 -167.3744202 -86.8662415
54.8370628 -169.6205139 -86.8566132
-101.7352448 -167.3608704 -52.7515755
-102.8000793 -166.7903748 -49.6385422
-147.2935944 -161.6653748 -16.7075691
-148.5807953 -161.6839905 -16.6162529
-186.4190979 -165.5111542 -31.0518723
-188.0631104 -165.8816223 -32.7406311
138.2083740 -166.6007843 -90.1375809
136.4994812 -166.1582642 -87.5757370
54.8785667 -168.3489685 -87.3414154
53.5594406 -168.7386932 -89.2181702
-102.8146973 -165.5230713 -50.0175552
-186.4738007 -164.2493439 -31.3855362
-188.1367645 -164.6211548 -33.0946541
136.6119232 -164.9499207 -88.3758469
54.8953247 -167.0934753 -87.9283905
53.6034203 -167.4827881 -89.8000717
-102.8603516 -164.2692566 -50.4606667
-186.5307465 -162.9949951 -31.7643776
-188.1917572 -163.3681335 -33.4924126
136.7316895 -163.7687683 -89.3448181
89.2200317 -161.0571899 -68.1118774
87.8751144 -161.1344604 -68.3334198
54.9167023 -165.8458862 -88.5785980
53.6200371 -166.2440491 -90.5036316
-102.9261475 -163.0315704 -50.9918175
-186.6067810 -161.7516022 -32.2053833
-188.2744904 -162.1260529 -33.9554863
136.7949524 -162.6184692 -90.3778915
89.2444458 -159.8293457 -68.6699829
87.9002228 -159.8999786 -68.8625031
54.9318008 -164.6117859 -89.3001480
53.6363449 -165.0116272 -91.2607040
-102.9923553 -161.8117065 -51.6309776
-186.6934509 -160.5186462 -32.7025375
-188.3620300 -160.8902893 -34.4620438
136.9548340 -161.4686890 -91.5242996
135.2488403 -161.0597382 -89.0544891
133.6143494 -160.6989746 -86.9065933
54.9664307 -163.3858337 -90.0690308
53.6632233 -163.7911224 -92.0833206
-103.0581970 -160.6113739 -52.3844681
-186.8040771 -159.2991333 -33.2822189
-188.4709167 -159.6707764 -35.0564728
137.1295013 -160.3287354 -92.8040009
135.3585052 -159.9057617 -90.1573257
133.7102966 -159.5391388 -87.9311066
55.0032692 -162.1722260 -90.9210052
53.7091064 -162.5817566 -92.9719162
-103.1395340 -159.4067230 -53.1327820
-186.9136963 -158.0883789 -33.9203453
135.5175018 -158.7605286 -91.4034653
133.8233185 -158.3926544 -89.0750961
55.0425949 -160.9705200 -91.8551788
-103.2183304 -158.2318115 -54.0677948
-104.2661209 -157.7189636 -51.0776329
-105.3199081 -157.2722473 -48.4969521
-183.8220673 -156.2371368 -31.5216217
-185.4221191 -156.5487061 -32.9972038
-187.0335388 -156.8903503 -34.6268921
-188.7352295 -157.2639465 -36.4725227
133.9740906 -157.2607269 -90.3372879
55.0725899 -159.7859497 -92.9066391
-104.3616791 -156.5476379 -52.0015106
-105.4006195 -156.0964508 -49.3872910
-183.9398041 -155.0388184 -32.2205658
-185.5588989 -155.3569641 -33.7460861
134.1491089 -156.1524963 -91.7289124
132.4888916 -155.7924805 -89.5097504
130.8700867 -155.4804688 -87.5671692
55.1223907 -158.6094666 -94.0078583
-104.4721756 -155.3895874 -53.0041046
-105.4971771 -154.9293518 -50.3304787
-184.0614471 -153.8531647 -32.9818039
-185.7060547 -154.1768341 -34.5583153
134.3594055 -155.0573730 -93.3336716
132.6433716 -154.6981659 -90.9462967
131.0094299 -154.3595886 -88.8816605
55.1789665 -157.4448090 -95.2073517
-104.5756073 -154.2536926 -54.1801338
-105.6234818 -153.7742310 -51.3266792
-184.2409973 -152.6812134 -33.8609695
-185.8637085 -153.0020294 -35.4315567
132.8147430 -153.6047668 -92.5013275
131.1457977 -153.2586212 -90.2696381
57.8070297 -155.5074463 -92.4312134
56.5159836 -155.8876343 -94.3838425
55.2248573 -156.2955627 -96.5457764
-105.7237396 -152.6426086 -52.5280190
-184.3879395 -151.5160675 -34.7583618
131.3598328 -152.1514587 -91.8579178
57.8830795 -154.3588562 -93.6783981
56.5746994 -154.7498169 -95.7450562
-105.8638077 -151.5191650 -53.7315826
-184.5867310 -150.3658905 -35.7707329
129.8582611 -150.7695618 -91.4011841
128.2910767 -150.4803772 -89.5652695
60.5109711 -152.5362701 -91.5253601
59.2159500 -152.8606262 -93.2255630
57.9157448 -153.2297668 -95.1501999
-105.9913483 -150.4282837 -55.2457886
-107.0679321 -149.9639130 -52.3350716
-108.1106033 -149.5550690 -49.8969994
-181.5975189 -148.6282349 -33.9007378
-183.1613159 -148.9103241 -35.2795486
-184.7622070 -149.2174683 -36.8197632
130.0442810 -149.7157440 -93.1262360
128.4566040 -149.4047699 -91.1759796
60.5890923 -151.3942566 -92.8674850
59.2958374 -151.7356873 -94.6501465
57.9925117 -152.1163483 -96.6827240
-107.2132416 -148.8694916 -53.7663307
-108.2587051 -148.4463806 -51.1799355
-181.7595062 -147.4850464 -34.9363174
-183.3489685 -147.7712097 -36.3794518
130.2836914 -148.6814270 -95.1525955
128.6461945 -148.3581238 -93.0060730
127.0606232 -148.0694733 -91.1223602
125.4758453 -147.8144379 -89.4406662
60.6432800 -150.2762451 -94.3933105
59.3757019 -150.6347504 -96.2314453
-107.3576050 -147.7805481 -55.3295898
-108.4155655 -147.3517151 -52.6043930
-109.4968567 -146.9696045 -50.2126656
-110.5770187 -146.6348877 -48.1580353
-181.9749451 -146.3538666 -36.0927620
-183.5566406 -146.6482849 -37.5796051
130.5530701 -147.6880341 -97.4286575
128.8696899 -147.3410645 -95.0289230
127.2609329 -147.0218201 -92.9684982
125.6565781 -146.7510223 -91.1309052
60.7215347 -149.1805267 -96.0415497
59.4333076 -149.5481262 -98.0335693
-108.5969162 -146.2760925 -54.1545219
-109.6520081 -145.8839417 -51.6964226
-110.7225800 -145.5315247 -49.5001984
-182.1824341 -145.2382660 -37.3186646
-183.8141174 -145.5407562 -38.9130669
127.4929352 -146.0026245 -95.0335083
125.8462677 -145.7102509 -93.0360184
63.4044571 -147.4341736 -94.2426300
62.1170425 -147.7500610 -95.9145584
60.8260880 -148.1058197 -97.8025970
-109.8394241 -144.8130493 -53.2482262
-110.8857346 -144.4428101 -50.9547539
-176.2127380 -143.1384583 -33.6575394
-177.7341309 -143.3502197 -34.7247162
-179.2749481 -143.5878296 -35.9029770
-180.8239594 -143.8477173 -37.1971207
-182.4403992 -144.1342468 -38.6893997
127.7593155 -145.0140839 -97.3999939
126.0678101 -144.7124023 -95.1727142
63.4965553 -146.3520508 -95.9795837
62.1983109 -146.6856384 -97.7961731
-110.0331421 -143.7745667 -55.0284729
-111.0803680 -143.3797455 -52.5628738
-176.4522400 -142.0167236 -34.9014359
-177.9451294 -142.2381439 -35.9770927
-179.5137939 -142.4800568 -37.2345810
-181.0987854 -142.7462158 -38.6221123
126.3210220 -143.7186279 -97.5483322
124.6949463 -143.4281769 -95.5196838
123.1088333 -143.1725159 -93.7228394
66.1936646 -144.6890869 -94.6409454
64.8880157 -144.9738770 -96.1983261
63.6037216 -145.2920532 -97.9000473
-110.2202377 -142.7389832 -57.0527344
-111.2752075 -142.3429260 -54.3928642
-112.3593597 -141.9702301 -51.9724503
-113.4380951 -141.6377869 -49.9279137
-176.6633911 -140.9070587 -36.1988640
-178.1680603 -141.1387787 -37.3332901
124.9817200 -142.4428406 -97.9898224
123.3581009 -142.1849213 -96.0147095
66.2811050 -143.6192932 -96.5764313
64.9962540 -143.9236145 -98.2115555
-111.4898834 -141.3191071 -56.3931961
-112.5742645 -140.9355774 -53.8078690
-113.6416931 -140.5870361 -51.5879440
-176.9112396 -139.8137054 -37.6233826
-178.4467773 -140.0589142 -38.8585358
123.6694412 -141.2132874 -98.6744843
122.0748138 -140.9725037 -96.7767639
120.4613953 -140.7162170 -95.0038757
118.9054260 -140.5067749 -93.5480270
117.3970032 -140.3384247 -92.3484116
69.0113754 -142.0294189 -95.6382294
67.7078781 -142.2964478 -97.0630112
66.4184799 -142.5884247 -98.6330032
65.1222076 -142.9068604 -100.4566650
-112.7802658 -139.9194031 -55.8861504
-113.8655853 -139.5615997 -53.4447784
-114.9585342 -139.2391357 -51.3244400
-116.0600739 -138.9492645 -49.4928207
-177.1884766 -138.7366333 -39.1801872
-178.7462158 -138.9968262 -40.5033798
122.3504486 -140.0372620 -99.5407257
120.7251205 -139.7579346 -97.5531464
119.1323547 -139.5316162 -95.8960571
117.6070023 -139.3383179 -94.5544434
69.1295395 -140.9929352 -97.7737808
67.8314209 -141.2731323 -99.3151550
-114.0893021 -138.5476837 -55.6124954
-115.1849976 -138.2185364 -53.2859497
-116.2794495 -137.9122314 -51.2616081
-177.4658051 -137.6800079 -40.8512115
-179.0601654 -137.9429321 -42.2873726
121.0762100 -138.8010559 -100.4385757
119.4158325 -138.5755310 -98.6219406
117.8417053 -138.3820953 -97.0344315
116.3517838 -138.1891327 -95.6910629
114.8263779 -138.0240479 -94.4772110
74.5143585 -139.0437927 -94.9784546
73.1951218 -139.2435608 -96.0607986
71.8841400 -139.4701538 -97.2458725
70.5641632 -139.7146606 -98.6435013
69.2815933 -139.9999695 -100.1195602
-115.4337311 -137.2144165 -55.4184189
-116.5146179 -136.9010162 -53.2664070
-174.6847534 -136.1591797 -40.1457024
-176.2179260 -136.3882904 -41.3391953
-177.7948151 -136.6455078 -42.7186356
118.1476288 -137.4378510 -99.8899384
116.6125412 -137.2478180 -98.3555450
115.0632629 -137.0612488 -96.9959793
74.6495743 -138.0149994 -97.1682663
73.3359299 -138.2297974 -98.3263931
72.0270386 -138.4664612 -99.6505737
70.7291183 -138.7343140 -101.1430817
69.4172974 -139.0129242 -102.8615952
-116.7710342 -135.9233398 -55.5563622
-174.9883575 -135.1172485 -41.9672623
-176.5280151 -135.3660278 -43.2547493
116.9785004 -136.3170319 -101.5716858
115.3366089 -136.1525421 -99.8452148
113.7985077 -135.9685822 -98.4930573
112.2846298 -135.8075256 -97.2957764
77.4410934 -136.6154938 -97.4540939
76.1252823 -136.8096313 -98.4811249
74.8092804 -137.0188904 -99.6420670
73.4998856 -137.2577820 -100.9265747
-117.0530624 -134.9702148 -58.1932678
-118.1450424 -134.6428833 -55.7571335
-119.2364731 -134.3321838 -53.6713562
-172.2770081 -133.6604462 -41.6541023
-173.7760315 -133.8710632 -42.7299805
-175.3372650 -134.1043701 -44.0014496
-176.9300842 -134.3562317 -45.4493103
114.1272125 -135.0551758 -101.7047577
112.5724869 -134.8997803 -100.3208771
77.6166534 -135.6416168 -100.0263062
76.3034515 -135.8502197 -101.2074051
74.9916382 -136.0886078 -102.5015259
-118.4412003 -133.6930542 -58.5056076
-119.5504379 -133.3916016 -56.1508408
-172.5944672 -132.6453552 -43.6427460
-174.1391907 -132.8723145 -44.8738632
112.9365082 -134.0344391 -103.9055481
111.3805542 -133.8988800 -102.4867783
109.8618164 -133.7509460 -101.2541580
108.3699493 -133.6098633 -100.2340393
106.8760681 -133.5043640 -99.3466034
105.4180908 -133.4165955 -98.6426773
103.9882126 -133.3447266 -98.0565643
83.1269379 -134.0109711 -99.2610855
81.7978058 -134.1631317 -100.0181198
80.4663544 -134.3245697 -100.9002762
79.1477737 -134.5200195 -101.8452911
77.8171692 -134.7183838 -103.0474777
76.4994812 -134.9382629 -104.3853989
-119.8662796 -132.4602814 -59.0728378
-120.9429169 -132.1530457 -56.7586136
-122.0560150 -131.8752289 -54.7977905
-123.1667786 -131.6230774 -53.0483437
-124.3170090 -131.4049377 -51.4458237
-166.9798737 -130.9228058 -41.9855118
-168.4717407 -131.0717468 -42.8230782
-169.9519958 -131.2457123 -43.7222672
-171.4547577 -131.4420013 -44.7331772
-172.9807281 -131.6631317 -45.9169807
110.2638855 -132.8949280 -105.0827789
108.7102585 -132.7279053 -103.7795029
107.1773300 -132.6420746 -102.6938171
105.7078552 -132.5563965 -101.8647919
104.2473602 -132.4681396 -101.1272125
83.3549805 -133.0938568 -102.2620392
82.0221252 -133.2662506 -103.1142349
80.6984863 -133.4393158 -104.1441650
79.3739777 -133.6262207 -105.2661972
-122.4027786 -130.9720154 -57.5600586
-123.4910889 -130.6920013 -55.6385612
-124.6212006 -130.4430237 -53.8806229
-167.3203125 -129.9060059 -44.0825233
-168.8087921 -130.0769653 -44.9636307
106.0731506 -131.7308197 -105.8201370
104.5969696 -131.6604614 -104.8698654
103.1211319 -131.5796814 -104.0937271
101.6468506 -131.5146790 -103.5569992
100.1953735 -131.4781189 -103.0363007
98.7763519 -131.4360352 -102.6597061
97.3731842 -131.4308319 -102.3751602
95.9343643 -131.4382935 -102.2747040
94.5238266 -131.4659424 -102.2782440
93.1392975 -131.4967804 -102.3699188
91.7722168 -131.5620117 -102.4500732
90.3908691 -131.6369019 -102.7571411
89.0128098 -131.7302246 -103.2114944
87.6401825 -131.8413849 -103.7050018
86.3042297 -131.9660187 -104.2618713
84.9626694 -132.0924988 -104.9663544
83.6112289 -132.2240906 -105.8869324
-123.8536377 -129.7997284 -58.6631088
-124.9707260 -129.5420074 -56.6508675
-126.0985718 -129.2950134 -54.9390945
-127.2420654 -129.0749969 -53.3789978
-164.7890167 -128.6130524 -44.8259392
-166.2474365 -128.7592163 -45.5707054
-167.7077179 -128.9212341 -46.4121628
-169.2308960 -129.1056213 -47.4238434
102.0552216 -130.7349701 -107.9344406
100.5809708 -130.6743164 -107.3102264
99.1283646 -130.6211395 -106.8008270
94.8479538 -130.6969299 -106.2137680
93.4643784 -130.7423706 -106.2450256
92.0875854 -130.7857513 -106.4073486
90.7076416 -130.8284302 -106.7740479
89.3339233 -130.9093781 -107.2284775
87.9527435 -131.0285797 -107.8682098
-126.4703217 -128.3923492 -57.9604340
-127.6021271 -128.1715393 -56.1829987
-165.1776886 -127.6434021 -47.2337112
-166.6510773 -127.8086853 -48.0682716
-168.1491089 -127.9875336 -49.0716667
-128.0224457 -127.3361359 -59.5986443
-129.1402588 -127.1037827 -57.7922554
-130.2787018 -126.8849030 -56.1976013
-131.4404755 -126.6853180 -54.8520241
-132.6206360 -126.5207901 -53.6242599
-133.8131256 -126.3928909 -52.4696503
-135.0185852 -126.2627029 -51.5561371
-159.8298340 -126.1874390 -47.3175926
-161.2522430 -126.2930450 -47.8243370
-162.6846008 -126.4170685 -48.4295616
-164.1368713 -126.5596848 -49.1482697
-165.6100159 -126.7238541 -49.9904099
-167.1363983 -126.9034424 -51.0215492
-129.6212769 -126.2818756 -61.7231140
-130.7308960 -126.0722961 -59.7721024
-131.8668060 -125.8497696 -58.1079254
-133.0262909 -125.6593628 -56.7221298
-134.2136383 -125.4875259 -55.4757996
-135.3989716 -125.3455353 -54.3848724
-160.2594910 -125.2572403 -50.0333633
-161.6992645 -125.3796082 -50.6502876
-163.1535034 -125.5247955 -51.3859711
-164.6556854 -125.6752777 -52.2842865
-166.1585236 -125.8351288 -53.2673721
-134.6828918 -124.6876144 -58.9915085
-135.8476563 -124.5346985 -57.7127495
-137.0434113 -124.3766251 -56.6369438
-138.2608337 -124.2556305 -55.6181793
-139.4877930 -124.1468887 -54.7607384
-140.7223663 -124.0586700 -53.9945107
-144.5190125 -123.8920898 -52.3344688
-145.8059540 -123.8646240 -51.9306488
-147.0949402 -123.8445892 -51.6411209
-148.4087524 -123.8397369 -51.4306145
-149.7203674 -123.8556595 -51.2531624
-151.0549011 -123.8682861 -51.2124023
-152.3990021 -123.9032593 -51.2214928
-153.7518463 -123.9451447 -51.3186951
-155.1122894 -124.0030441 -51.4926910
-156.4968567 -124.0781403 -51.7796173
-157.9094238 -124.1699066 -52.1723099
-159.3272247 -124.2739563 -52.6689720
-160.7603607 -124.4016800 -53.2711143
-162.2353516 -124.5444412 -54.0450249
-136.4079132 -123.7521057 -62.0378113
-137.5658264 -123.5575485 -60.5913544
-138.7588654 -123.4157715 -59.4429932
-139.9721375 -123.3575058 -58.3577766
-141.2039337 -123.2525635 -57.5285339
-144.9771118 -123.0382919 -55.6243401
-146.2604370 -123.0014954 -55.1797066
-147.5652161 -122.9761810 -54.8673134
-148.8697205 -122.9711075 -54.6121864
-150.1889038 -122.9787140 -54.4946136
-151.5248413 -123.0061951 -54.4544373
-152.8841248 -123.0407104 -54.5198708
-154.2507629 -123.0888824 -54.6654358
-155.6397400 -123.1628723 -54.9438629
-157.0398407 -123.2609253 -55.3309326
-158.4615479 -123.3684158 -55.8337631
-159.9050903 -123.4748917 -56.4655266
-141.8037720 -122.5051117 -62.0355072
-143.0338135 -122.3872833 -61.1099358
-144.2946472 -122.3395081 -60.3363037
-145.5556641 -122.3166885 -59.6938782
-146.8360291 -122.2708206 -59.1879539
-150.7850800 -122.2346497 -58.5079842
-152.1192322 -122.2764282 -58.5037575
96.5612106 -226.4987640 -91.8640137
100.9200745 -225.4861145 -90.8725052
91.9757767 -226.0325165 -91.8109207
105.0010681 -224.5066071 -90.2715988
104.2984543 -224.4566956 -89.9627991
103.5719147 -224.3825226 -89.5960999
102.8399429 -224.2974396 -89.2450943
102.1254959 -224.2336731 -88.9784012
101.4062424 -224.1965179 -88.8219910
100.7026138 -224.1892242 -88.7236557
91.7465897 -224.6921539 -89.4843750
91.0797501 -224.8536530 -89.7702103
90.3992157 -224.9384155 -89.9943695
89.7263260 -225.0540314 -90.3180695
86.2465439 -224.5761871 -90.7147064
109.8360291 -222.8106384 -89.6102295
109.0633392 -222.6690979 -88.9751663
108.3014908 -222.4840393 -88.3226318
107.5511475 -222.3899841 -87.8602142
86.1147766 -223.3018341 -88.6940384
112.6561890 -222.1533966 -90.3827209
111.8852539 -221.9889832 -89.5753326
85.9870834 -222.1945343 -87.0022583
82.7000961 -223.0639496 -89.6135025
111.6705551 -220.8186951 -87.5883179
85.8593063 -221.1486206 -85.4846725
85.2053452 -221.2720947 -85.8863831
84.5554199 -221.4206848 -86.3681183
83.9184113 -221.5550690 -86.8509750
83.2580795 -221.6803741 -87.3234100
82.5826340 -221.8966675 -87.9240036
81.9307556 -222.1063080 -88.5251541
81.2718887 -222.3263092 -89.1909561
80.4974823 -221.4217987 -88.2268219
-145.5467987 -218.6087646 -45.6799850
-147.3424988 -218.4724426 -44.8670654
116.7496567 -219.8122406 -89.4881287
115.9572525 -219.5803375 -88.5380936
115.1944122 -219.4142456 -87.7307281
114.4388580 -219.2212372 -86.9388885
113.6754303 -219.0589294 -86.2573547
112.8686829 -218.9281921 -85.5641937
80.4123383 -220.3395691 -86.7968063
-140.2100525 -217.8050537 -45.8168449
-140.8044586 -217.7004547 -45.3085403
-141.4042206 -217.6072693 -44.8609657
-142.0051880 -217.5183716 -44.4088745
-142.6248779 -217.4397278 -44.0110931
-143.2434387 -217.3508301 -43.6392021
-143.8728638 -217.2901611 -43.3836365
-144.5234222 -217.1934357 -43.1442566
-145.1307983 -217.0964203 -42.8646698
-147.0809937 -217.1569977 -42.4943810
-147.7261505 -217.2026062 -42.4160271
-148.3959961 -217.2300568 -42.3637161
-149.0553436 -217.2431641 -42.3299065
-149.7471924 -217.2851868 -42.3995934
-150.4250946 -217.3231201 -42.4680710
-151.0901337 -217.3365021 -42.5397644
117.3044205 -218.8272095 -88.5813522
80.3337555 -219.2767639 -85.4043198
-137.4665527 -216.9574432 -45.4953766
-150.7604828 -216.0490875 -40.3805084
-154.9316101 -216.5145721 -41.3695869
117.0786667 -217.7105103 -86.9212799
80.2285843 -218.3286285 -84.2120590
79.5760574 -218.4748840 -84.7257767
78.9374924 -218.6427002 -85.3064804
78.3038940 -218.7993469 -85.9227524
77.6313934 -219.0139465 -86.6327286
76.9738693 -219.2569885 -87.3511887
76.3231430 -219.4845734 -88.0773621
-135.4240417 -216.1261597 -45.1218834
-135.9995575 -215.9573822 -44.4592018
-136.5802307 -215.7851715 -43.8365250
-137.1528778 -215.6038513 -43.2007370
-150.4808197 -214.9368744 -38.5664101
-151.1450806 -214.9751587 -38.6126137
-151.8278198 -215.0376282 -38.7367363
-152.5031128 -215.0821686 -38.8583832
-153.1952362 -215.1245575 -39.0084610
-153.9022369 -215.1901703 -39.1790009
-154.5999908 -215.3257599 -39.4290466
-155.3133240 -215.4309082 -39.6419373
-156.0326843 -215.5428772 -39.9149094
117.7306366 -216.8790436 -86.3717117
116.9348755 -216.6956177 -85.4936447
-158.5961151 -214.8524780 -39.4693413
116.7958145 -215.7231598 -84.1852722
-131.4468689 -214.7268066 -45.4700661
-132.0243225 -214.4765015 -44.6080666
-158.3133087 -213.6914978 -37.7638245
-159.0863953 -213.8831787 -38.2077293
-159.7937622 -213.9899750 -38.5706291
-160.5323639 -214.1373444 -39.0413857
117.3764420 -214.9263458 -83.6675873
116.6762543 -214.7696991 -83.0307388
73.4752731 -217.3397217 -87.3012543
122.1086197 -215.0741577 -87.6356888
117.2909927 -213.9569855 -82.5901947
116.5568924 -213.8495026 -81.9937744
73.4141693 -216.3270416 -86.1394882
72.7648697 -216.5620270 -86.9217911
72.1126404 -216.8141174 -87.7595749
-128.7224731 -213.2192993 -45.1377220
-129.2771606 -212.9824677 -44.2530785
-162.2358856 -212.3959503 -37.1410065
122.7145462 -214.2939606 -87.3126907
-161.9809418 -211.3137207 -35.7267456
123.2755280 -213.4497070 -86.8809586
122.5350952 -213.2676392 -86.0101395
70.6854019 -215.3454742 -87.1516266
-126.0758820 -211.8724060 -45.4793243
-126.6360245 -211.5853424 -44.4202385
-161.7863464 -210.3444366 -34.4942665
123.9858627 -212.7477570 -86.7690048
-125.3317337 -210.9744415 -44.7696915
-166.0463409 -210.2856140 -36.1443977
125.5757065 -212.3042755 -87.8179779
124.6520462 -211.9911957 -86.5979614
123.8622360 -211.8051300 -85.6533890
69.2793350 -213.8981781 -86.6614075
-124.0300446 -210.3930664 -45.2282906
-124.5940170 -210.1051636 -44.1545792
-125.1439209 -209.9038849 -43.2442055
-165.8158569 -209.2676849 -34.8676529
-166.5677948 -209.4449615 -35.3751755
125.3829575 -211.2923889 -86.5832138
67.9224625 -213.4744263 -87.5137405
-167.1260834 -208.6203461 -34.7810516
-167.8669281 -208.7634277 -35.4113655
126.1181488 -210.6032410 -86.6129379
125.2453537 -210.3371277 -85.4828873
67.8651428 -212.5229492 -86.5500183
67.2044525 -212.8100586 -87.4978867
-122.0555649 -209.0074615 -45.3723831
-122.6012268 -208.7336731 -44.2817154
-166.9200745 -207.6393585 -33.6611557
126.8509369 -209.9405823 -86.7054672
66.5197678 -212.1296844 -87.4179459
-166.7582092 -206.7311096 -32.6171608
127.5252991 -209.2518463 -86.7384262
126.6697693 -208.9726563 -85.5907135
66.4830170 -211.1850739 -86.4842300
65.8111343 -211.4778442 -87.4585876
-120.1134491 -207.7465973 -45.9734840
-166.5670624 -205.8153687 -31.5787563
128.1798859 -208.5433807 -86.7475052
65.1196823 -210.8303223 -87.5185318
128.0313568 -207.6047821 -85.7177505
65.0863113 -209.9061737 -86.6383972
64.4172974 -210.1977844 -87.6293869
-118.2004623 -206.5917664 -46.9361458
-118.7417297 -206.2509613 -45.5944519
-172.3564453 -205.3932800 -34.3280602
129.4832153 -207.1763153 -86.8786926
63.7279663 -209.5572510 -87.7217407
-117.5462570 -205.8435059 -46.7801094
-172.1428986 -204.4411469 -33.2800560
130.1806641 -206.5289154 -87.0898209
129.3242645 -206.2415009 -85.8969955
63.7237244 -208.6279144 -86.8604050
63.0747490 -208.9113007 -87.8665848
62.4194717 -209.2035522 -88.9692230
-116.8791809 -205.1277161 -46.7297096
-117.4142609 -204.7961884 -45.3971939
-171.9523163 -203.5194397 -32.3180389
-172.7931213 -203.7657776 -33.0116196
-116.2160721 -204.4472504 -46.7629166
-173.4212494 -203.0702972 -32.7950363
130.8505096 -205.0541840 -86.6521988
62.3274422 -207.4366302 -87.2721252
-115.5438461 -203.7884521 -46.8784218
-116.0793457 -203.4582520 -45.5275841
-173.2435150 -202.1590576 -31.9408016
-174.0312958 -202.3675995 -32.5974236
-114.8972778 -203.1118317 -46.9574585
60.9917870 -206.2378082 -87.8612900
60.3260078 -206.5428619 -89.0224304
-114.2370758 -202.4606171 -47.1233940
-114.7817993 -202.1253204 -45.7438469
132.3824615 -203.0683594 -86.9948349
60.9684677 -205.3608093 -87.1644058
-175.9340057 -200.3624878 -32.2649422
-113.4424820 -200.8964386 -46.3017006
-175.7552338 -199.4792633 -31.4782925
-176.5643158 -199.7044678 -32.1898727
-177.2577057 -199.0721893 -32.2477150
132.9743042 -200.7910919 -86.0876236
132.0910339 -200.5182800 -84.7381516
60.8399811 -202.8928986 -85.2939682
60.1951790 -203.1411591 -86.2469711
59.5260391 -203.4262695 -87.2705078
-111.6589966 -200.0074463 -48.3883820
-112.1907501 -199.6575317 -46.9417191
-177.1073914 -198.2155304 -31.5140953
133.5933075 -199.4047852 -85.9913788
59.4742470 -201.7611694 -86.0309525
58.7994194 -202.0306854 -87.0457916
-110.9718475 -198.4755859 -47.7599831
-178.5130310 -196.9958344 -31.7069454
135.0770264 -199.0524597 -87.7316208
58.1326027 -201.4907837 -87.5875320
135.8754730 -198.5462952 -88.4968948
134.9740753 -198.2252502 -87.0907211
58.1387711 -200.6619263 -87.0500946
57.4940033 -200.9354401 -88.1182556
56.8415756 -201.2274170 -89.2712250
-178.2569733 -195.3480377 -30.4473476
-179.0840912 -195.5628510 -31.1899834
-109.6532822 -196.4277344 -47.8442116
-179.7459412 -194.9599915 -31.3497429
136.5710907 -197.2019501 -88.6338959
56.8321419 -199.5735779 -88.1176910
56.1338463 -199.8970490 -89.3586426
-109.0193863 -195.9280853 -48.5592537
-109.5551071 -195.5757141 -47.0631790
136.4801941 -196.3853302 -88.0280533
56.7991257 -198.7805176 -87.6458664
56.7660866 -197.9932709 -87.1668854
-108.3222122 -194.5415344 -48.4518051
-181.0165253 -192.9688568 -31.1919079
136.3131561 -194.7843628 -86.9711838
-108.2632675 -193.6655426 -47.6276474
136.2665405 -194.0226440 -86.5841293
-107.6478806 -193.1613159 -48.3817863
-108.2035904 -192.8066559 -46.8524742
138.1060638 -193.9194031 -89.3238602
55.3552399 -196.2153168 -88.1284256
54.7166824 -196.4902649 -89.2672119
-182.3310699 -191.0347748 -31.3149223
-183.1676941 -191.2604218 -32.1788521
138.0464172 -193.1271515 -88.7963257
55.3935547 -195.4019012 -87.6554337
-182.1925354 -190.2294312 -30.7990437
55.3884087 -194.6197815 -87.2581940
-182.0894928 -189.4521484 -30.3225060
55.3745232 -193.8695679 -86.9481506
54.7124710 -194.1603394 -88.1146240
54.0733604 -194.4611206 -89.3280029
-106.3204041 -190.5010376 -48.6615753
-106.8632355 -190.1638641 -47.1765022
-182.0114899 -188.7006226 -29.9181595
-182.9120941 -188.9447479 -30.7648563
54.0613174 -193.6499786 -88.8821335
54.0265961 -192.9037476 -88.5634384
53.3601379 -193.1978912 -89.7553864
-105.6901474 -189.2171478 -49.0078506
-183.5907898 -187.6479492 -30.8221111
54.0333748 -192.1519775 -88.2537537
