100.3100739 -241.0943756 -94.5413132
98.8812561 -241.0146790 -94.0814667
97.4816971 -240.9697113 -93.7443695
90.5198517 -241.2694397 -93.9741974
89.1486588 -241.4488220 -94.3880768
87.7979889 -241.5890656 -94.8215179
107.3475494 -239.6047974 -94.9596558
105.8392792 -239.3716431 -93.9927292
104.3620834 -239.1896210 -93.1361694
102.9265060 -239.0679474 -92.4555054
101.4770813 -238.9817505 -91.9151382
100.0467682 -238.9102936 -91.4727097
98.6073456 -238.8728333 -91.1296692
97.2422638 -238.8719482 -90.9131012
90.2894592 -239.1926422 -91.1769867
88.9177475 -239.3242493 -91.4913940
87.5463333 -239.4732513 -91.8960571
86.1855392 -239.6896667 -92.4637375
84.8481598 -239.8938599 -93.0903473
83.5185699 -240.1302948 -93.8451385
82.1753082 -240.4219055 -94.7475128
80.8476715 -240.7799225 -95.7517548
110.0538483 -237.8885651 -94.1069031
108.5601501 -237.6227417 -92.9226456
107.0342026 -237.4042053 -91.9395294
105.5639343 -237.2793427 -91.1732941
81.9849701 -238.3372498 -91.9991379
80.6465607 -238.6033783 -92.8623962
-146.0534973 -235.7950745 -51.0259438
-147.3251953 -235.7277832 -50.5581512
-148.6058044 -235.6651459 -50.1606026
-149.9193268 -235.6467896 -49.9274216
-151.2607727 -235.6497498 -49.8182640
112.7750092 -236.3468628 -93.8695908
111.2342148 -236.0393219 -92.5012360
109.7761230 -235.8007965 -91.3759918
108.2997589 -235.6121368 -90.4250870
106.8064880 -235.4548492 -89.6006088
105.3111267 -235.2917938 -88.8495178
81.8107681 -236.3800964 -89.7226105
80.4542465 -236.6435547 -90.5259705
79.1331329 -236.9181824 -91.4025040
77.8256989 -237.2083130 -92.3909760
76.5102234 -237.5678101 -93.5583344
75.1856232 -237.9823151 -94.8803406
-139.3307343 -234.1928711 -51.1586533
-140.5288544 -233.9372101 -50.0777550
-141.7427521 -233.7407227 -49.1313019
-142.9607086 -233.5721130 -48.3355789
-144.2114563 -233.4600220 -47.7090263
-145.4771118 -233.3461151 -47.1378250
-146.7508850 -233.2824097 -46.7125816
-148.0379639 -233.2499390 -46.3969917
-149.3412781 -233.2326202 -46.1589432
-150.6650238 -233.2313538 -46.0021744
-152.0096130 -233.2973022 -45.9818954
-153.3600922 -233.3492737 -46.0558662
-154.7172546 -233.4457550 -46.2454071
-156.1076508 -233.5955048 -46.5321960
-157.5207672 -233.7659912 -46.9569054
115.6535034 -234.9799500 -94.2270660
114.0817108 -234.6053009 -92.6393738
112.5099335 -234.3307495 -91.3097763
110.9932480 -234.0779572 -90.1489563
76.3395081 -235.5960999 -91.2380142
75.0202942 -235.9329224 -92.3881302
73.7077026 -236.3325806 -93.6776657
72.3955688 -236.8127747 -95.1820984
-135.3074799 -232.7545166 -51.2715073
-136.4599762 -232.4287567 -49.9273529
-137.6417236 -232.1476746 -48.7298241
-138.8435364 -231.9107666 -47.6589508
-155.6259460 -231.4176178 -43.4782524
-157.0264587 -231.5437469 -43.7793961
-158.4114380 -231.7116089 -44.1877213
-159.8283997 -231.9048004 -44.7311592
-161.2846069 -232.1663818 -45.3660889
118.4394608 -233.7476501 -95.0833893
116.8903046 -233.3163910 -93.2762909
115.3770294 -232.9356079 -91.6665497
113.8403320 -232.6596832 -90.3375244
112.2793503 -232.4286957 -89.1968689
110.7783127 -232.2103882 -88.1884842
76.1969376 -233.7288208 -89.2800217
74.8764954 -234.0507355 -90.3321991
73.5604858 -234.3952789 -91.4995270
72.2716904 -234.7439270 -92.7451477
70.9487991 -235.2084961 -94.2390137
-132.5411377 -231.1760712 -50.8364182
-133.7056122 -230.8079681 -49.3092804
-134.8627319 -230.5264893 -48.0287132
-136.0285950 -230.2754211 -46.8972626
-137.2251740 -230.0661011 -45.8932266
-138.4522247 -229.8787842 -44.9843292
-155.2317810 -229.4362488 -41.0246048
-156.6203308 -229.5464478 -41.2654152
-157.9941101 -229.6762543 -41.5964928
-159.3871002 -229.8304596 -42.0283394
-160.8052368 -230.0086517 -42.5422363
-162.2752533 -230.2447815 -43.2151184
-163.7427063 -230.5056152 -43.9710693
118.1455688 -231.7165527 -92.5642700
116.6482162 -231.3718719 -91.0095291
70.8068085 -233.2839966 -92.1311874
69.5062180 -233.7109680 -93.5666275
-129.8772125 -229.7932129 -51.0481758
-131.0060883 -229.3977966 -49.3901329
-132.1464996 -229.0477905 -47.8899078
-133.3221588 -228.7451172 -46.5706139
-163.3147583 -228.4718018 -41.4307594
-164.7660828 -228.7374725 -42.1928101
-166.2472382 -229.0414581 -43.0615845
119.5445938 -230.2047272 -92.1730118
117.9465256 -229.8637390 -90.5772781
116.4467773 -229.5424042 -89.1480103
70.6766663 -231.4709778 -90.3504333
69.3810730 -231.8432312 -91.6649399
68.0563507 -232.3013916 -93.2100906
66.7481537 -232.8049774 -94.8549805
-127.2687531 -228.5448456 -51.7273407
-128.3873749 -228.0819550 -49.8654099
-129.5079956 -227.7139435 -48.2747498
-130.6479340 -227.4087524 -46.8798256
-131.8230591 -227.0982666 -45.5552521
-133.0218353 -226.8378906 -44.3900681
-162.9627533 -226.5811768 -39.3086624
-164.3791351 -226.7877045 -39.9435081
-165.8133240 -227.0202484 -40.6786728
-167.3326111 -227.3373871 -41.6218414
122.5858917 -229.2083435 -93.9322891
120.9704437 -228.7392120 -91.9752884
119.3158569 -228.3458099 -90.2431183
67.9628525 -230.4476318 -91.3756561
66.6727448 -230.8799133 -92.8940048
65.3461761 -231.4136505 -94.6745300
-125.8112030 -226.9298401 -50.9372330
-126.9292297 -226.4621887 -49.0308723
-128.0627899 -226.0953674 -47.4155540
-165.5029755 -225.1891479 -38.7257614
-166.9833069 -225.4452515 -39.5235062
-168.4936218 -225.7351074 -40.4702377
-169.9957275 -226.0492249 -41.4926186
123.8455811 -227.7610779 -93.8390808
122.3138962 -227.2943573 -91.8822327
120.7574539 -226.9054108 -90.1465530
119.1475525 -226.5865784 -88.6272583
67.8421936 -228.7051392 -89.8418045
66.5515442 -229.0934753 -91.2328110
65.2712021 -229.5201721 -92.7867508
63.9439316 -230.0526733 -94.6072845
-123.3167877 -225.8770447 -52.4201202
-124.4028320 -225.3622894 -50.3293800
-125.5038300 -224.9573975 -48.5336304
-126.6539230 -224.5697327 -46.8671722
-127.8031769 -224.2304535 -45.4069786
-165.2179871 -223.4248810 -37.0564690
-166.6685181 -223.6431885 -37.7432594
-168.1592712 -223.8983459 -38.5593071
-169.6479797 -224.1858826 -39.4837151
-171.1523895 -224.5291748 -40.4984818
123.6200562 -225.9187927 -91.9594193
122.1231842 -225.5233459 -90.2086868
65.1528931 -227.7722473 -91.2306824
63.8584785 -228.2269440 -92.8802414
62.5487709 -228.7464447 -94.7056503
-121.9448395 -224.3821716 -52.0894547
-123.0160217 -223.8921661 -49.9916534
-170.8093567 -222.6723328 -38.6659546
-172.3220978 -223.0052948 -39.7425766
125.0349197 -224.5857697 -92.2896423
123.4358749 -224.1708679 -90.3705215
121.9636154 -223.8219757 -88.7876434
65.0738068 -226.0587616 -89.8479462
63.7600250 -226.4955597 -91.3955688
62.4637527 -226.9549103 -93.0883484
-120.5743179 -222.9653625 -51.9973183
-121.6621323 -222.4544220 -49.8227615
-122.7528763 -222.0242157 -47.9656372
-170.5100250 -220.9317780 -37.0713577
-172.0299225 -221.2346191 -38.0685921
-173.5910187 -221.5786591 -39.2081985
126.5951614 -223.3486938 -93.0401840
124.8481979 -222.8332825 -90.7443619
62.3916359 -225.2190857 -91.6620331
-119.2302704 -221.5982819 -52.1169281
-120.3113098 -221.0833435 -49.9079437
-173.2923737 -219.8268738 -37.5990219
-174.8278961 -220.1605835 -38.7398529
-176.3707886 -220.5406342 -40.0338554
128.1317596 -222.1723022 -93.9252396
126.4100189 -221.6219940 -91.5433578
124.7185898 -221.1694183 -89.4793396
62.3006668 -223.5599365 -90.4387970
-117.9214325 -220.2766113 -52.3900032
-118.9903641 -219.7632446 -50.1611252
-120.0958557 -219.3017731 -48.1726341
-173.0779419 -218.1580505 -36.2565918
-174.5908508 -218.4804230 -37.3278351
-176.0845032 -218.8004913 -38.4694786
127.9259338 -220.4317017 -92.4164047
62.2352219 -221.9178314 -89.3361206
60.9192848 -222.3535767 -90.8984680
59.6376114 -222.7997894 -92.5861282
-116.6390762 -218.9882507 -52.8174820
-117.6911774 -218.4639282 -50.5466919
-175.8290558 -217.1109467 -37.0903625
-177.3600311 -217.4703674 -38.2905693
129.3052673 -219.1860046 -93.1275024
127.7898483 -218.7777863 -91.1889801
62.1566925 -220.3329926 -88.4134216
60.8699646 -220.7212830 -89.8614655
59.5463409 -221.1872864 -91.5389328
58.2637177 -221.6592407 -93.2947235
-115.3505554 -217.7921906 -53.5721817
-116.4257965 -217.2092438 -51.0860291
-117.5075073 -216.7187347 -48.9637032
-175.6160889 -215.4848785 -35.8982239
-177.1364899 -215.8129120 -37.0358124
129.1654816 -217.5435486 -91.9520416
127.6574554 -217.1589355 -90.1118622
59.4974937 -219.5644531 -90.5310745
58.2075996 -220.0210571 -92.2263870
56.9016953 -220.5391083 -94.1202393
-114.0845947 -216.6266022 -54.4624863
-115.1691513 -215.9889374 -51.8048706
-175.4186096 -213.8760376 -34.8254051
-176.9069824 -214.1744843 -35.8720360
-178.4984741 -214.5451660 -37.1278458
130.5994873 -216.3824005 -92.9777679
129.0451965 -215.9439392 -90.9271545
127.4897690 -215.5528107 -89.1053085
59.4554863 -217.9740753 -89.6401749
58.1569939 -218.4080963 -91.2605820
56.8580017 -218.8955994 -93.0805359
-113.9015732 -214.8430023 -52.7733879
-114.9901886 -214.2912750 -50.3567429
-175.2500000 -212.3176727 -33.8920097
-176.7377625 -212.6068420 -34.8809128
-178.2816772 -212.9319458 -36.0341873
-179.8906860 -213.3114166 -37.3750000
132.2536163 -215.3642731 -94.5570984
130.5059967 -214.7942810 -92.0311432
56.7867775 -217.3167725 -92.2030640
-112.6842422 -213.7174683 -53.8474274
-113.7376938 -213.1412964 -51.3275375
-114.8350677 -212.6543732 -49.1272125
-178.1168213 -211.3673401 -35.0908127
-179.7161713 -211.7291107 -36.3516617
-181.2538300 -212.0951233 -37.6529465
132.1329346 -213.7715302 -93.6272812
130.3963928 -213.2422791 -91.1970978
56.7444801 -215.7479095 -91.3954468
55.4448013 -216.2366943 -93.2586670
54.1462326 -216.7727203 -95.2988815
-111.4690475 -212.6551666 -55.1441841
-112.5229874 -212.0152893 -52.4251099
-113.5890503 -211.4902802 -50.0941696
-114.7029266 -211.0313110 -48.0261765
-177.9639740 -209.8300018 -34.2496567
-179.5178680 -210.1563110 -35.4134598
-181.0540466 -210.5031738 -36.6662369
-182.6129761 -210.8924103 -38.0438423
131.9909821 -212.1928406 -92.7512894
130.3105316 -211.7132874 -90.4854126
54.1019211 -215.1904602 -94.4508438
-111.3300934 -210.9402618 -53.7134247
-112.3780365 -210.3772583 -51.2230835
-180.9170532 -208.9776001 -35.8375168
-182.4532318 -209.3378296 -37.1571045
-184.0880890 -209.7684631 -38.6730995
133.6825409 -211.2464600 -94.6645889
131.8913879 -210.6641083 -92.0406036
130.2314301 -210.2085571 -89.8725052
54.0770798 -213.6260681 -93.6738815
52.7467804 -214.1839905 -95.7807617
-110.1557846 -209.9070892 -55.1910515
-111.1941605 -209.3094940 -52.5393715
-112.2587051 -208.7943420 -50.2218857
-180.7632599 -207.4480896 -35.0577583
-182.2651062 -207.7838593 -36.2931290
-183.8757782 -208.1887665 -37.7377548
133.5737915 -209.7123108 -93.9744339
54.0242996 -212.1087036 -93.0571518
52.7169533 -212.6361237 -95.1001282
51.3933563 -213.2334900 -97.3659744
-110.0308228 -208.2749634 -54.0374527
-183.7347107 -206.6660767 -36.9813194
-185.4012604 -207.1069794 -38.5569496
133.4814301 -208.2110291 -93.3753662
53.9803543 -210.6125488 -92.5247421
52.6971741 -211.1080322 -94.4746933
51.3995590 -211.6698914 -96.6702271
-108.8381119 -207.3200531 -55.8260345
-109.9204788 -206.6872864 -53.0428085
-183.6098328 -205.1658020 -36.3004684
-185.2249146 -205.5655212 -37.7938919
-186.9397736 -206.0472565 -39.4893646
135.1119690 -207.2793274 -95.4000397
133.3827209 -206.7255402 -92.8339996
51.3616447 -210.1516266 -96.0940399
-108.7375336 -205.7368927 -54.8533821
-109.8084717 -205.1579590 -52.2386818
-183.4886017 -203.6839905 -35.6893005
-185.1102295 -204.0787048 -37.1647301
135.0013123 -205.7870026 -94.8828583
133.3000793 -205.2631836 -92.4118423
51.3242378 -208.6611023 -95.6023483
49.9827843 -209.2424622 -97.8605270
-108.6577454 -204.1803894 -54.0129204
-109.7461395 -203.6199646 -51.4591446
-183.3825378 -202.2273865 -35.1796722
-185.0118103 -202.6144409 -36.6209908
-186.6452179 -203.0300751 -38.1756821
134.9449463 -204.3480988 -94.5555649
133.2943115 -203.8606262 -92.1860580
53.8952103 -206.2307892 -91.3981476
52.6001320 -206.6847076 -93.1947021
51.2813416 -207.1922760 -95.1970444
-107.4963608 -203.2845459 -56.0811958
-108.5732880 -202.6775208 -53.3375778
-109.6610870 -202.1495209 -50.9002495
-186.5135498 -201.5535736 -37.6185303
-188.1465759 -201.9895630 -39.2418633
134.8955383 -202.9257507 -94.2898865
133.1962280 -202.4231873 -91.8837357
53.8828850 -204.7972260 -91.1473465
52.5738449 -205.2489624 -92.9291840
-107.4445267 -201.7608032 -55.3786545
-108.4992294 -201.1974792 -52.7644310
-109.6083984 -200.6831970 -50.3820724
-186.4363403 -200.1180725 -37.1844482
134.8633118 -201.5189514 -94.0958481
133.1843109 -201.0417786 -91.7657318
53.8638802 -203.3861542 -90.9749756
52.5623665 -203.8224182 -92.7187347
51.2347565 -204.3054810 -94.6316986
-107.3844376 -200.2786865 -54.8103676
-186.3708801 -198.6989899 -36.8284912
134.8238678 -200.1255188 -93.9671478
133.1984558 -199.6818542 -91.7568207
53.8511772 -201.9897156 -90.8676147
52.5475960 -202.4177246 -92.5796051
-106.2595367 -199.4323120 -57.1455002
-107.3227921 -198.8228912 -54.3429146
-186.2860107 -197.2837982 -36.5084839
136.5227661 -199.2892761 -96.5202560
134.8036194 -198.7625275 -93.9608612
133.1567383 -198.3129578 -91.7291031
53.8358307 -200.6057281 -90.8167877
52.5333557 -201.0222015 -92.4924850
-106.2279053 -197.9643250 -56.6686859
-107.2873230 -197.3798981 -53.9296341
-186.2348938 -195.8936157 -36.2693748
-187.8216553 -196.2726135 -37.7363739
-189.4788818 -196.7050781 -39.4151344
136.5078278 -197.9419250 -96.6118317
134.8065796 -197.4209137 -94.0540009
133.1659851 -196.9763641 -91.8289337
53.8270454 -199.2330627 -90.8168640
52.5236206 -199.6457367 -92.4816666
-105.1415787 -197.1993103 -59.4111633
-106.1968536 -196.5336151 -56.3253937
-107.2582397 -195.9607239 -53.6185074
-186.1823425 -194.5119934 -36.0720444
-187.7586060 -194.8805389 -37.5113716
-189.4150238 -195.3027649 -39.1582832
136.5169220 -196.6117096 -96.7799454
99.4140625 -192.5019836 -73.0781631
98.0414581 -192.5134277 -72.9221497
93.9289551 -192.5873871 -72.6807861
92.5567627 -192.6262817 -72.6758881
53.8268547 -197.8740997 -90.8786926
52.5215683 -198.2816467 -92.5334549
-105.1048431 -195.7670593 -59.0746384
-106.1676941 -195.1199951 -56.0509872
-107.2281418 -194.5677948 -53.4143028
-149.8057404 -189.3757935 -24.0119724
-151.0890503 -189.3851166 -23.9094963
-189.3963928 -193.9329071 -39.0236130
136.5083618 -195.2850952 -96.9679413
99.4237366 -191.2088928 -73.2827148
98.0617294 -191.2289886 -73.1748810
93.9276428 -191.2971191 -72.9055328
92.5531311 -191.3317871 -72.8736420
53.8210373 -196.5269775 -90.9943237
52.5105667 -196.9303589 -92.6398773
-106.1391296 -193.7342529 -55.8848305
-107.2004700 -193.2002258 -53.3112564
-149.8085938 -188.0666809 -24.0556965
-151.0951843 -188.0870209 -23.9804192
-189.3390045 -192.5626221 -38.9087448
-191.0457764 -193.0167389 -40.7142601
136.5277710 -193.9795074 -97.2495804
134.8419189 -193.4655151 -94.6666260
133.1849365 -193.0304871 -92.4463196
99.4356461 -189.9275665 -73.5434036
98.0605011 -189.9441528 -73.4310226
96.7012177 -189.9595337 -73.3024979
95.2961502 -189.9708252 -73.1704483
93.9166718 -189.9956055 -73.0890274
92.5573425 -190.0388489 -73.0825577
83.0974579 -190.5255127 -73.9900436
81.7487564 -190.6356201 -74.2965851
53.8193588 -195.1869507 -91.1432877
52.5017166 -195.5867920 -92.7838593
-105.0952148 -192.9577179 -58.6524658
-106.1371689 -192.3535156 -55.7530746
-107.1962662 -191.8387299 -53.2483215
134.8631897 -192.1775208 -95.0147171
133.2309570 -191.7516937 -92.8310089
99.4523239 -188.6456757 -73.8124161
98.0717773 -188.6586456 -73.6670074
96.7081146 -188.6775208 -73.5790863
93.9431458 -188.7102356 -73.3342133
92.5652161 -188.7542419 -73.3352814
83.0905151 -189.2501068 -74.2865143
81.7284164 -189.3565216 -74.5860748
53.8295288 -193.8546143 -91.3325729
52.5037422 -194.2536621 -92.9804993
-105.0879517 -191.5937805 -58.6092453
-106.1310730 -191.0004883 -55.7396278
-107.1880341 -190.4996033 -53.2812576
134.9200897 -190.9177246 -95.5033875
133.2685699 -190.4826660 -93.2639236
99.4566040 -187.3640442 -74.0727386
98.0623932 -187.3743591 -73.9240036
95.3322525 -187.4108887 -73.7111206
93.9655075 -187.4435730 -73.6844406
92.5698318 -187.4816895 -73.6450195
53.8315659 -192.5411377 -91.6095963
52.5151215 -192.9343719 -93.2436752
-105.0934525 -190.2463989 -58.6402740
-189.3393707 -188.5640869 -39.0035324
-191.0231934 -188.9929047 -40.7446938
136.7006683 -190.1688843 -98.6349182
134.9888153 -189.6684875 -96.0566101
133.3066711 -189.2183990 -93.7227020
99.4778061 -186.0957184 -74.4170837
98.1174164 -186.1087341 -74.2987366
96.7257309 -186.1263733 -74.1806412
95.3372040 -186.1490784 -74.0726471
93.9812164 -186.1776886 -74.0264816
92.6039963 -186.2133942 -73.9897766
53.8241425 -191.2406158 -91.9514160
52.5141068 -191.6295319 -93.5758667
51.1847763 -192.0458374 -95.3338852
-105.0916672 -188.9286041 -58.8046417
-189.3750916 -187.2603149 -39.1665688
-191.0494537 -187.6840210 -40.9022217
136.7752991 -188.9261322 -99.2476501
135.0198669 -188.4157867 -96.5854950
133.3405609 -187.9631958 -94.2275848
51.1781120 -190.7536163 -95.7465134
-105.1290436 -187.6063080 -58.9486542
-189.4004669 -185.9620056 -39.3610573
-191.0791626 -186.3850098 -41.1075745
135.0858612 -187.1875458 -97.2411880
133.4226532 -186.7373657 -94.8882141
51.2159195 -189.4608459 -96.1582794
-105.1508865 -186.3151245 -59.2420540
-189.4308929 -184.6755219 -39.6107941
-191.1195831 -185.0991211 -41.3734093
135.1845093 -185.9872742 -98.0525970
133.4960022 -185.5256500 -95.6293716
51.2351303 -188.1868591 -96.6708984
-105.1794434 -185.0359344 -59.5952873
-189.5076904 -183.4095154 -39.9570694
-191.1623077 -183.8241272 -41.6936073
-192.9341431 -184.2892303 -43.6637421
135.2755432 -184.7907104 -98.8968353
133.5798645 -184.3288727 -96.4383240
51.2680969 -186.9206696 -97.2147522
-105.2294922 -183.7789764 -60.0565758
-189.5718536 -182.1495361 -40.3377075
-191.2464447 -182.5656738 -42.0973206
135.3756714 -183.6119080 -99.8274612
133.6516418 -183.1356659 -97.2767029
88.6376953 -180.0987854 -76.2977600
87.2907104 -180.1729736 -76.4352417
51.2948418 -185.6672668 -97.8332062
49.9371529 -186.1264496 -99.8977661
-104.2583160 -183.2121277 -64.0124741
-105.2982483 -182.5381165 -60.5944366
-189.6432190 -180.9006805 -40.7758675
-191.3336945 -181.3194275 -42.5625038
133.7587738 -181.9623413 -98.2335815
88.6814728 -178.8782043 -76.8577728
87.3169022 -178.9353638 -76.9858017
51.3200569 -184.4304199 -98.5374069
49.9929390 -184.8853455 -100.5929031
-105.3473511 -181.3069611 -61.2042313
-189.7281952 -179.6642456 -41.2774963
-191.4190826 -180.0846405 -43.0849380
133.8887329 -180.8087158 -99.3144684
51.3220825 -183.2059631 -99.3486557
-105.4143372 -180.1017914 -61.9374161
-106.4618530 -179.5215912 -58.9398994
-107.5123978 -179.0251923 -56.3749924
-189.8277893 -178.4415283 -41.8488770
134.0066528 -179.6744537 -100.4790955
51.3621864 -181.9911346 -100.1682968
50.0250969 -182.4581909 -102.3275299
-105.4961243 -178.9111633 -62.7627602
-106.5290375 -178.3273010 -59.7261467
-107.5845032 -177.8193359 -57.0883331
-189.9444275 -177.2319336 -42.4963989
-191.6616211 -177.6479950 -44.3333588
134.1685638 -178.5425720 -101.7484360
132.4320221 -178.0803223 -99.1711121
130.7547455 -177.6765442 -96.9105835
54.0083847 -179.9527130 -97.3256683
52.6958885 -180.3510742 -99.1231003
51.3943443 -180.7897339 -101.0997314
-106.6324921 -177.1398621 -60.5256042
-107.6816559 -176.6222839 -57.8258667
-186.8294830 -175.3071136 -40.0755577
-188.4380341 -175.6518250 -41.5515289
-190.0855560 -176.0344849 -43.2114944
132.5744781 -176.9585114 -100.4315643
130.8760376 -176.5474243 -98.1042252
54.0309334 -178.7540283 -98.2616196
52.7470779 -179.1564941 -100.0552368
51.4327927 -179.6042480 -102.1098633
-105.6754074 -176.5841980 -64.7355499
-106.7143631 -175.9839172 -61.5276031
-107.7674103 -175.4452515 -58.7009544
-186.9549866 -174.1104736 -40.7772903
-188.5689392 -174.4604187 -42.2915001
131.0300140 -175.4404907 -99.4625244
54.0810585 -177.5666199 -99.2250137
52.7696342 -177.9815063 -101.1356812
-106.8348694 -174.8313293 -62.5265579
-107.8654099 -174.2864380 -59.6568298
-187.0765991 -172.9258118 -41.5362968
-188.7110596 -173.2819366 -43.0984688
131.1540985 -174.3534851 -100.8617477
54.1281052 -176.3958740 -100.3093414
52.8192139 -176.8154449 -102.2698898
-107.9845276 -173.1414795 -60.6817055
-187.2427216 -171.7546997 -42.3979645
131.3466034 -173.2863007 -102.4956894
129.6807404 -172.8715210 -100.1218567
128.0508270 -172.5032654 -98.0493927
54.1819000 -175.2382355 -101.4924622
-107.0451431 -172.6025696 -65.0878601
-108.1220551 -172.0149231 -61.8319168
-109.1590347 -171.5159454 -59.1580620
-110.2434235 -171.0808868 -56.7977028
-184.2069702 -169.9580383 -40.5158768
-185.7883911 -170.2596741 -41.8372459
-187.3958130 -170.5933838 -43.2956009
131.5912933 -172.2360535 -104.3072433
129.8654175 -171.8093719 -101.7595978
128.2122192 -171.4254456 -99.5470810
54.2238274 -174.0979614 -102.7702026
-108.2504730 -170.9059448 -63.1273994
-109.2975922 -170.3985138 -60.3443947
-110.3662262 -169.9482880 -57.8982964
-184.3789673 -168.7976685 -41.4346390
-185.9445496 -169.1054688 -42.7686577
-187.5822144 -169.4435120 -44.2938194
130.1034851 -170.7586823 -103.5737991
128.3905029 -170.3691101 -101.2002716
126.7331085 -170.0108795 -99.1071472
125.1433640 -169.7050781 -97.3518524
56.8974686 -172.1805115 -100.4269714
55.5976448 -172.5583191 -102.1804428
54.2816849 -172.9759216 -104.1536179
-109.4367599 -169.3008423 -61.6685066
-110.4999771 -168.8341980 -59.1185265
-184.5479736 -167.6509705 -42.4160919
-186.1433105 -167.9659271 -43.8171616
128.5966339 -169.3330231 -103.0165558
126.9116821 -168.9574127 -100.7822571
125.2997131 -168.6344910 -98.8859253
56.9554520 -171.0561829 -101.7709885
55.6466141 -171.4468536 -103.6300354
54.3317947 -171.8747559 -105.7237396
-109.5767059 -168.2147522 -63.0942001
-110.6464233 -167.7401428 -60.4295616
-184.7426147 -166.5164948 -43.4865150
-186.3230438 -166.8379822 -44.9127502
-188.0003662 -167.1840363 -46.5423927
127.1015320 -167.9261475 -102.5745316
125.4952698 -167.5771332 -100.6046066
59.6524773 -169.2451019 -99.9566650
58.3474426 -169.5789337 -101.4900284
57.0323830 -169.9418182 -103.2360077
55.7303276 -170.3589935 -105.1904373
-110.8090820 -166.6635742 -61.8627853
-184.9410400 -165.3941040 -44.6271782
-186.5655060 -165.7254333 -46.1450729
127.3330383 -166.9185181 -104.6304779
125.6596680 -166.5612335 -102.4083099
59.7131119 -168.1330719 -101.4161072
58.3982964 -168.4795380 -103.0599976
57.1057014 -168.8607941 -104.8850403
-110.9915924 -165.6161499 -63.4679298
-185.1617584 -164.2908325 -45.8645554
125.9068680 -165.5575409 -104.5333023
124.2791824 -165.2265320 -102.5238113
122.6589890 -164.9321289 -100.6596909
59.7880020 -167.0409393 -102.9983521
58.4813614 -167.4041290 -104.7297974
-111.1680145 -164.5835419 -65.2787476
-112.2146835 -164.1049805 -62.5452805
-113.2878876 -163.6693726 -60.0757713
-182.2405548 -162.5927277 -44.4597816
-183.7926178 -162.8816223 -45.7416229
-185.3941956 -163.1952972 -47.1997604
124.4855957 -164.2527161 -104.6541977
122.8896332 -163.9177856 -102.6950684
59.8869133 -165.9707794 -104.6867752
-112.4064636 -163.0843048 -64.3317719
-113.4803772 -162.6281433 -61.7040062
-182.4592743 -161.4980469 -45.7695541
-184.0357666 -161.7977600 -47.1337891
124.8047485 -163.3022003 -107.1842270
123.0994720 -162.9533234 -104.8648148
121.4754028 -162.6358337 -102.9322586
119.9089508 -162.3591003 -101.3087616
62.5945740 -164.2419739 -103.2595673
61.2691002 -164.5661621 -104.8555374
59.9699478 -164.9285583 -106.5999603
-112.6147232 -162.0854797 -66.3492584
-113.6842346 -161.6165619 -63.5447388
-114.7555313 -161.1887665 -61.0633850
-115.8572388 -160.8139038 -58.9222145
-179.5729065 -159.8820496 -44.7199478
-181.1195068 -160.1389313 -45.8813324
-182.7116089 -160.4202271 -47.2038803
-184.3163605 -160.7332153 -48.6571426
123.3980942 -162.0058136 -107.4420929
121.6937866 -161.6799622 -105.2048492
120.0899429 -161.3868103 -103.3890839
62.6860161 -163.1885071 -105.1286545
61.3768616 -163.5341492 -106.8185806
60.0732498 -163.9178772 -108.7274780
-113.9042511 -160.6273499 -65.6345520
-114.9679413 -160.1771545 -62.9582558
-116.0485840 -159.7819824 -60.6911774
-179.8153381 -158.7986755 -46.1315842
-181.3924713 -159.0671387 -47.3740501
-182.9737854 -159.3624420 -48.7435646
-184.6237488 -159.6851501 -50.3246346
122.0117569 -160.7401428 -107.8744965
120.3640442 -160.4298096 -105.8633194
118.7712784 -160.1577454 -104.1018219
117.2202911 -159.9243011 -102.5710449
65.4218140 -161.5475464 -104.1170883
64.1016464 -161.8429718 -105.5632935
62.7909012 -162.1710205 -107.1838531
-115.1718597 -159.1722717 -65.0186844
-116.2748260 -158.7810516 -62.5626106
-180.0813599 -157.7391663 -47.6627960
120.6185226 -159.5210266 -108.5020676
118.9987411 -159.2361603 -106.5642548
117.4666748 -158.9648590 -104.9894714
65.5392990 -160.5223999 -106.1861649
64.2220612 -160.8428192 -107.7276001
62.9032669 -161.1873322 -109.5068283
-116.5182724 -157.8133392 -64.6821213
-180.3868256 -156.6973419 -49.3519745
117.7237930 -158.0786133 -107.6138153
116.1133270 -157.7986908 -105.8918762
114.5587692 -157.5604095 -104.4279785
113.0294952 -157.3730774 -103.1614075
111.5384598 -157.2087402 -102.1135712
68.3068314 -158.9591064 -105.6142273
66.9810257 -159.2352295 -106.9876862
65.6621857 -159.5480499 -108.4964523
64.3459778 -159.8820648 -110.2007523
-116.7985001 -156.8824158 -67.1561890
-117.8578949 -156.4599609 -64.5502777
-118.9367294 -156.0748901 -62.2811584
-177.5794067 -155.1482086 -48.6615105
-179.1238708 -155.3992615 -49.8368187
-180.7070923 -155.6809998 -51.1915054
118.0682220 -157.1808014 -110.7391510
116.4137192 -156.9091034 -108.7340622
114.8178253 -156.6591644 -107.0544052
113.2620468 -156.4380493 -105.6206131
111.7456207 -156.2533112 -104.4156036
68.4399261 -157.9810028 -107.9226227
67.1100082 -158.2788849 -109.4585800
-118.1553574 -155.5486145 -67.0492096
-119.2152328 -155.1392517 -64.5590744
-177.8898621 -154.1277313 -50.4603004
-179.4440155 -154.3973236 -51.7361870
-181.0612488 -154.6944580 -53.2289619
113.5548782 -155.5204773 -108.4867477
111.9986725 -155.3461914 -107.0722733
110.4735489 -155.1573792 -105.8520126
108.9607086 -155.0042572 -104.7791977
73.8940048 -156.0328674 -105.6351776
72.5701981 -156.2532654 -106.6094742
71.2318115 -156.4879150 -107.7760391
69.9068146 -156.7510681 -109.0885773
68.5863342 -157.0500336 -110.5720367
67.2536545 -157.3566132 -112.2681732
-119.5129547 -154.2368317 -67.1953125
-120.5951462 -153.8343964 -64.7101440
-121.6856613 -153.4890137 -62.6309738
-122.7961731 -153.1801453 -60.8083458
-123.9405823 -152.9217987 -59.1191788
-178.2321167 -153.1328125 -52.4763031
-179.8326111 -153.4239960 -53.9101105
113.8826370 -154.6700287 -111.7540741
112.3067169 -154.4893494 -110.1608353
110.7531128 -154.2882843 -108.7777176
109.1979523 -154.0974121 -107.5238571
74.0511780 -155.0745087 -108.0812759
72.7160645 -155.3006897 -109.2029877
71.3835907 -155.5552063 -110.5113525
70.0754089 -155.8536682 -111.9751129
-121.9647675 -152.5565643 -65.0740967
-123.0854416 -152.2432709 -63.0248604
-124.1992188 -151.9484100 -61.2838783
-178.6223297 -152.1738281 -54.7244377
111.1057053 -153.4333496 -112.1724777
109.4846115 -153.2650146 -110.6423569
107.9526138 -153.0950470 -109.4069595
106.4579086 -152.9366455 -108.3608246
104.9897614 -152.8092194 -107.4875412
103.4946442 -152.7100067 -106.7198029
102.0253601 -152.6313477 -106.1143799
100.5738220 -152.5758362 -105.5893250
99.1434479 -152.5375824 -105.1044693
97.7104645 -152.5175781 -104.7241821
82.3294907 -153.0936432 -105.9570465
80.9750824 -153.2314606 -106.5030746
79.6156158 -153.3798981 -107.1381912
78.2660217 -153.5420074 -107.8859253
76.9017944 -153.7319336 -108.7736893
75.5528717 -153.9277344 -109.8195038
74.2400665 -154.1573639 -110.8721848
-123.4148865 -151.3442993 -65.6640167
-124.5098419 -151.0208740 -63.6983757
-125.6452713 -150.7383118 -61.8872299
-126.7833481 -150.4831390 -60.3323021
-175.8557281 -150.6852417 -54.3741112
-177.4229584 -150.9528503 -55.6840515
108.2976837 -152.2633972 -113.0494156
106.7653961 -152.1135559 -111.7345505
105.2829361 -151.9837036 -110.7099915
103.7659454 -151.8618011 -109.7797775
102.2835999 -151.7635193 -109.0601807
100.8028870 -151.6925659 -108.3993759
99.3677063 -151.6259003 -107.8513641
97.9329529 -151.5742188 -107.4784088
82.5137405 -152.1639709 -108.6126404
81.1549835 -152.3091125 -109.2373581
79.8100281 -152.4610901 -109.9707260
78.4521027 -152.6439362 -110.8011703
77.1021729 -152.8465881 -111.8100815
75.7658463 -153.0746918 -112.9315338
-124.8283539 -150.1112976 -66.4401855
-125.9634476 -149.8350677 -64.4704056
-127.0971756 -149.5535583 -62.6870537
-176.2721863 -149.7613983 -56.8650284
105.6144485 -151.2665253 -114.6018677
99.6466904 -150.7982483 -111.0645905
98.1949005 -150.7298889 -110.5804749
96.7434311 -150.7068787 -110.1795578
95.3101501 -150.6868744 -109.9761353
93.8848495 -150.6940460 -109.7642517
92.4623718 -150.7096558 -109.6338577
91.0507660 -150.7419739 -109.6332169
89.6463013 -150.7993317 -109.7353973
88.2503204 -150.8589630 -109.9456482
86.8693848 -150.9365845 -110.2207947
85.4848785 -151.0347900 -110.5960159
84.1060257 -151.1557922 -111.0957794
82.7294846 -151.2972717 -111.7345734
81.3824539 -151.4553223 -112.4772568
-126.3326263 -148.9833069 -67.4923630
-127.4479294 -148.6730652 -65.4421768
-128.5829010 -148.4039612 -63.7136459
-129.7304535 -148.1624451 -62.1785278
-167.5867310 -147.5818329 -53.3303528
-169.0432739 -147.7458649 -54.0373840
-170.5360718 -147.9237671 -54.8738708
-172.0456085 -148.1210022 -55.8353844
-173.5819855 -148.3477631 -56.9393921
-175.1445160 -148.5972290 -58.2310410
99.9661789 -150.0755920 -114.9837036
98.4960480 -149.9982605 -114.3526993
97.0502930 -149.9518585 -113.8776550
95.6076050 -149.9261322 -113.5710907
94.1615448 -149.9062805 -113.2745361
92.7403030 -149.9169769 -113.0955963
91.3311005 -149.9559937 -113.1374283
89.9233017 -149.9960327 -113.3284454
88.5263748 -150.0748596 -113.4283905
87.1347580 -150.1450500 -113.7693405
85.7472610 -150.2402649 -114.1971436
84.3751297 -150.3703918 -114.7991714
83.0210800 -150.5516663 -115.4952850
81.6475296 -150.7011108 -116.4020920
-128.9602966 -147.5483093 -66.7103500
-130.0888367 -147.2951660 -64.9770508
-167.9691772 -146.6354675 -55.6808128
-169.4606934 -146.8096619 -56.5242615
-170.9603119 -147.0203552 -57.4816628
93.0961304 -149.2014465 -117.5797195
-130.4972229 -146.4679565 -68.2789383
-131.6340485 -146.2151031 -66.4885101
-132.8000183 -145.9801941 -64.8949432
-133.9682922 -145.7657013 -63.5280418
-135.1618805 -145.5823669 -62.2635536
-162.5711823 -145.1634827 -55.7816887
-164.0068359 -145.2764587 -56.2727089
-165.4443054 -145.4140015 -56.8395729
-166.9217529 -145.5643768 -57.5584145
-168.4094849 -145.7412109 -58.3802872
-169.8906555 -145.9429016 -59.3155937
-133.2344513 -145.1965637 -68.3370209
-134.3882294 -144.9658203 -66.7361755
-135.5623474 -144.7532501 -65.3000488
-162.9945068 -144.2588501 -58.4420776
-164.4439850 -144.3911743 -59.0263100
-165.9176483 -144.5447540 -59.7362785
-167.3931274 -144.7185669 -60.5331688
-168.9243011 -144.8895264 -61.5325089
-136.0484009 -143.9862061 -68.9932861
-137.2050629 -143.7957001 -67.5214996
-138.3963470 -143.6108093 -66.2569962
-139.6031189 -143.4531860 -65.1364441
-140.8219604 -143.3078918 -64.1938171
-142.0535736 -143.1908875 -63.2957153
-143.2998962 -143.0907288 -62.5305824
-152.3878784 -142.8453827 -59.7816429
-153.7109833 -142.8688049 -59.6750565
-155.0729370 -142.9000549 -59.6665077
-156.4434052 -142.9398956 -59.7696915
-157.8096771 -143.0092163 -59.9050293
-159.2057495 -143.0864410 -60.1772079
-160.6163940 -143.1832581 -60.5357780
-162.0308228 -143.2955780 -60.9870567
-163.4908600 -143.4235687 -61.5856628
-164.9623718 -143.5735474 -62.2930145
-138.9220581 -142.8662262 -70.3241653
-140.1156311 -142.7029572 -68.9815216
-141.3261871 -142.5740814 -67.7958374
-142.5338745 -142.4290924 -66.7986298
-143.7779236 -142.3168488 -65.9356995
-152.8427734 -142.0091095 -62.8859978
-154.1779175 -142.0270844 -62.7977409
-155.5452271 -142.0591278 -62.8344879
-156.9404297 -142.1173401 -62.9770279
-158.3149719 -142.2021179 -63.2082291
-159.7388916 -142.2955017 -63.5759048
-161.1548004 -142.3997192 -64.0106659
-162.6087646 -142.4921875 -64.5915222
-144.3508606 -141.6000061 -70.1869812
-145.6114197 -141.4862823 -69.2954483
-146.8731384 -141.4471893 -68.5522003
-148.1425629 -141.3765564 -67.8991547
-149.4236450 -141.3188629 -67.3975830
-150.7400208 -141.2926025 -67.0482178
-152.0623169 -141.2837524 -66.8237305
-153.4138489 -141.3031616 -66.7004318
-154.7460327 -141.3060913 -66.6370773
-154.1524353 -140.7404938 -71.9197235
100.4325180 -244.2253265 -99.5148087
89.8715973 -244.5256958 -99.1628647
102.4224854 -243.1044617 -98.1736145
101.6866760 -242.9611206 -97.7256088
100.9185257 -242.8845215 -97.4349060
100.1969757 -242.8221741 -97.1734619
89.6949005 -243.1674042 -96.9265137
89.0289459 -243.2791748 -97.1348190
88.3461380 -243.4338379 -97.4833832
87.6655121 -243.5596619 -97.8452377
86.9876175 -243.6534271 -98.1160507
104.4513397 -242.0890961 -97.2436600
86.8410187 -242.3522034 -96.1374359
107.2104263 -241.3260345 -97.3357468
106.4492798 -241.1869049 -96.7852173
105.7137756 -241.0732880 -96.2979355
104.9830246 -240.9514465 -95.8226852
104.2427063 -240.8333893 -95.3648834
86.7187119 -241.1898499 -94.4336166
83.3534927 -241.8906097 -96.4464264
82.6955338 -242.0662994 -96.9068832
82.0306778 -242.2468567 -97.4315033
81.3525238 -242.4747772 -98.0843735
108.7321548 -240.0816498 -95.9683456
110.7179031 -239.7261658 -96.9979324
109.9564819 -239.5599823 -96.2531204
109.1700897 -239.3708191 -95.4614792
108.4046249 -239.2320099 -94.8688583
111.2601929 -238.6798859 -95.9022141
77.0599213 -240.2199860 -96.8059235
-145.2779999 -236.6054840 -52.7020264
113.4667206 -238.1689453 -96.6737671
112.6363373 -237.9226990 -95.7749634
111.8598022 -237.7194366 -95.0026169
111.0795288 -237.5048218 -94.2348328
79.5915375 -238.3271484 -92.9219360
78.9427109 -238.4867249 -93.4281845
78.2880096 -238.6478271 -93.9912720
77.6370697 -238.8275299 -94.5866089
76.9790421 -239.0434723 -95.2151642
76.3218155 -239.2835846 -95.8911438
75.6459885 -239.5406189 -96.6535110
-140.7053986 -236.0316925 -53.7873230
-141.2850800 -235.8837280 -53.1130371
-141.8720703 -235.7604065 -52.5383377
-142.4717255 -235.6481934 -52.0354424
-143.0669861 -235.5118561 -51.4930840
-143.6669006 -235.3667145 -51.0059128
-144.2943115 -235.2767944 -50.6725616
-144.9237518 -235.1825104 -50.3259315
-152.0915833 -234.9738159 -48.6679802
-154.8195343 -235.2207794 -48.9100838
-155.5130463 -235.3466949 -49.1201210
-156.2148132 -235.4264069 -49.3115578
114.0798187 -237.2122040 -95.8470154
74.2269211 -238.9138184 -96.7439575
-138.5876007 -235.1350861 -53.2091942
115.5292816 -236.5158691 -95.9955063
114.6972046 -236.2698059 -95.0850372
113.8756943 -236.0746307 -94.2684784
74.1512756 -237.7603149 -95.2083130
73.4795074 -238.0554352 -95.9599533
-137.1190338 -234.2044525 -52.4305573
-137.7042084 -233.9633942 -51.6876526
-138.2950287 -233.7743683 -51.0253372
-134.5935059 -233.7133789 -53.5124092
118.3051453 -235.2688293 -96.7731934
117.5354996 -235.0369110 -95.8314133
116.7264328 -234.7708282 -94.8263626
71.3713226 -236.6474762 -95.6874466
70.7181625 -236.9307404 -96.5575867
-133.1744995 -232.8981171 -53.1523781
-133.7584991 -232.6201782 -52.2490005
-134.3356476 -232.4328156 -51.4870415
-162.2672729 -231.8101044 -45.1192551
-163.0198212 -231.9553833 -45.5304794
-163.7720184 -232.1130829 -45.9948387
-164.5202942 -232.2868195 -46.5161667
69.9939423 -236.1274719 -96.0232697
69.9477234 -235.0711060 -94.7983780
69.2584915 -235.3787537 -95.6930389
-130.4624329 -231.4387970 -53.1306534
-131.0197754 -231.1802521 -52.1702919
-131.5946655 -230.9358521 -51.2523537
-164.7385559 -230.2248230 -43.8797874
-165.4753113 -230.4016571 -44.3368874
119.4692841 -232.5691223 -94.5800247
-129.1468811 -230.7491150 -53.2540703
120.1505737 -231.7538757 -94.2601166
119.2868652 -231.5044250 -93.2766876
68.4632034 -233.6208801 -94.2563705
67.8131027 -233.8724823 -95.0997086
67.1601028 -234.1544342 -96.0153275
-128.3885803 -229.8187561 -52.5259171
-128.9433441 -229.5512238 -51.5601082
-167.2913818 -228.7912598 -43.1661072
-168.0532684 -228.9682007 -43.7043877
-168.8221588 -229.1547394 -44.3058395
121.5551605 -230.2522125 -93.9430161
120.7408142 -230.0254364 -92.9916611
65.7342834 -232.7364502 -95.6707916
-126.3355255 -228.4081573 -52.5462990
-170.7133179 -227.7228699 -43.6723328
64.3854523 -232.3442688 -96.6575317
-125.0626068 -227.8888245 -53.2253609
-171.2564392 -226.8681488 -42.8950539
123.6466904 -229.0552063 -94.8491287
64.3504105 -231.3287964 -95.5559082
63.6800880 -231.6538391 -96.5517960
-124.3570404 -227.0258026 -52.7902374
-124.9118729 -226.7687531 -51.7448044
-171.0543365 -225.8657990 -41.7581558
62.9712791 -230.9877930 -96.5522461
124.9890976 -227.6559601 -94.9262314
62.9579697 -229.9888000 -95.5503616
62.2691498 -230.3396454 -96.6694946
-121.8948593 -226.1426849 -54.7678223
-122.4347458 -225.8043213 -53.4982491
-172.1981659 -224.3200378 -40.8293610
-172.9913940 -224.5261993 -41.4658508
-173.7996216 -224.7431641 -42.1506958
125.7720642 -227.0394287 -95.1771545
124.8683624 -226.7220306 -93.9391098
-121.1908798 -225.3791199 -54.6272125
-173.5875702 -223.7625732 -41.1086540
124.7503357 -225.7941284 -92.9887390
61.5202713 -228.7407684 -95.7174530
-120.5242691 -224.6490021 -54.4962883
-121.0612717 -224.3052216 -53.2146721
-173.4125671 -222.8143005 -40.1562729
-174.2492523 -223.0543671 -40.8441277
-175.0280151 -223.2540131 -41.5233688
61.4973412 -227.8074799 -94.8969727
60.8973999 -228.0659027 -95.8882141
128.1605225 -225.2414551 -96.5104675
127.2312164 -224.8646851 -95.0253448
126.3253174 -224.5478516 -93.6704559
61.4610367 -226.9063263 -94.1402740
-119.1573181 -223.2495270 -54.4876404
-119.6942673 -222.9082489 -53.1929054
128.8497925 -224.6118927 -96.8706512
128.0649719 -224.3375854 -95.6173477
61.4355125 -226.0144501 -93.3613510
-118.4703598 -222.6106567 -54.6716347
-177.6974792 -221.3742828 -41.5741577
127.8787613 -223.3673859 -94.5675888
61.4001160 -225.1427002 -92.6041718
-117.8446045 -221.8879700 -54.6638870
-118.3869934 -221.5323639 -53.3197517
-177.5115967 -220.4470367 -40.6785202
-178.3293762 -220.6819305 -41.4120636
61.3333435 -224.3223267 -91.9796066
-117.1802139 -221.2509308 -54.8570938
-177.3162079 -219.5192566 -39.7979279
61.2848434 -223.4930878 -91.3682556
60.6490211 -223.7140503 -92.1827621
60.0190620 -223.9371033 -93.0392075
59.3621025 -224.2049255 -94.0160217
58.7039948 -224.4883423 -95.0133820
58.0158119 -224.8261566 -96.1144791
-117.0646133 -220.2332916 -53.6834030
-177.1771393 -218.6635895 -39.0285721
-178.0014191 -218.8989258 -39.7029228
129.2258148 -221.2746582 -94.5062943
58.6692352 -223.6164398 -94.3161087
-178.6729431 -218.2458191 -39.6702538
129.8391418 -220.6066589 -94.7199478
129.0769348 -220.3659973 -93.6742477
58.6434212 -222.7659912 -93.6660843
57.9634628 -223.0695953 -94.6698303
57.3077393 -223.3655548 -95.6957855
-115.7797852 -219.0167847 -54.2968063
-178.5164795 -217.3685913 -38.9666710
-179.3634186 -217.6078949 -39.7076378
-178.3625336 -216.4944611 -38.2727432
130.4572449 -219.1429291 -94.4151230
57.2526436 -221.6523895 -94.4408264
56.5723877 -221.9558258 -95.4809570
-114.4786224 -217.8640594 -55.2177277
-178.2464447 -215.6696167 -37.6478615
-179.0722809 -215.8858337 -38.3390045
-179.9142761 -216.1100006 -39.0852013
-180.7393646 -216.3478241 -39.8572578
130.3300476 -218.2665863 -93.7212906
55.8886452 -221.4191589 -96.0097580
-179.7750397 -215.2567596 -38.4664192
131.1771240 -217.7768402 -94.4778519
130.3326874 -217.4963531 -93.2733383
55.9096718 -220.5384216 -95.3700333
55.2251167 -220.8623962 -96.4997940
54.5590591 -221.1782074 -97.6690292
-179.6610107 -214.4392090 -37.8841705
132.0371704 -217.2939453 -95.3266373
55.8964691 -219.7001648 -94.8197174
55.2321358 -219.9952087 -95.8923569
-113.1497192 -215.7704773 -55.2034035
131.8845367 -216.4240417 -94.6335907
55.8554535 -218.8979645 -94.3349609
-112.5477524 -215.1934967 -55.7222519
-113.0743942 -214.8452301 -54.3110123
55.8239136 -218.0990448 -93.8696136
-111.9382401 -214.6638947 -56.3460350
-182.5184174 -212.8303680 -38.9807549
55.8018150 -217.2905121 -93.4095306
55.1487160 -217.5691071 -94.4431152
54.4901657 -217.8561096 -95.5065613
53.8330879 -218.1582031 -96.5882111
53.1602821 -218.4778442 -97.7583923
-111.8725967 -213.7568054 -55.4901619
-182.3917694 -212.0042725 -38.4365921
-183.1907196 -212.2278137 -39.1631088
-183.9590149 -211.6672974 -39.5264282
-184.8006439 -211.9134674 -40.3950348
133.5091095 -213.8720856 -95.5286484
53.1256981 -216.8365784 -96.7543564
52.4715424 -217.1575928 -97.9683990
-183.8076630 -210.8357697 -38.9847374
133.4600677 -213.0824585 -95.0964966
53.1359215 -216.0086517 -96.2491074
-110.5745773 -211.8639221 -56.1641541
133.3695068 -212.2748718 -94.6287766
53.1059494 -215.2101593 -95.8021011
-110.5253601 -210.9787598 -55.3957176
-109.2935486 -210.0492249 -57.1907692
-185.1475372 -208.1678314 -38.7506676
134.9520721 -210.5642853 -96.1971359
-109.2241516 -209.2314301 -56.5995903
134.8847504 -209.7820129 -95.8284378
-109.1843185 -208.3791656 -55.9377747
134.7520142 -208.9814606 -95.3823166
50.3808632 -212.5522156 -98.7082138
49.7207985 -212.8924408 -100.0415039
135.5736084 -208.5317535 -96.4156189
134.7490692 -208.2525024 -95.1581268
50.4105110 -211.7445526 -98.2884216
50.3567276 -210.9906006 -97.9978256
-186.4097900 -204.7876282 -38.5476799
50.3680840 -210.2060242 -97.6317902
-186.3599854 -204.0473480 -38.2435265
-187.1546173 -204.2590027 -39.0196190
-188.0147705 -204.5055237 -39.8757477
-107.8626938 -205.0449524 -56.3086967
-187.9075623 -203.7360840 -39.5358200
-107.8270874 -204.2676392 -55.9038391
-187.8332520 -202.9836884 -39.2392082
-188.6656647 -203.2217865 -40.0981789
-189.5406647 -203.4782257 -41.0332527
136.2801056 -205.1411743 -96.6208572
136.2564850 -204.4234772 -96.4757690
136.2173462 -203.7031708 -96.3145905
51.5965691 -205.9714508 -94.4342194
50.9206848 -206.2315369 -95.4488525
-187.6649017 -200.7860718 -38.4591675
-188.4846497 -201.0036774 -39.2657318
136.1462860 -202.9671631 -96.1126480
51.5939102 -205.2451324 -94.2786865
-106.6092758 -201.8749542 -57.3888245
-187.6449432 -200.0738525 -38.2542725
136.1575775 -202.2741699 -96.0482483
50.2360573 -205.0405731 -96.1673813
-106.6073837 -201.1024170 -57.0198021
-187.5717316 -199.3439178 -38.0085106
136.1180115 -201.5585632 -95.9234924
50.2289352 -204.3277740 -96.0794220
-106.5618744 -200.3795013 -56.8047714
-187.5326996 -198.6302948 -37.8204460
136.1271210 -200.8728790 -95.8996201
51.5549355 -203.1212158 -94.0151978
50.9004288 -203.3596802 -94.9750290
50.2297401 -203.6106110 -95.9778748
-187.5124359 -197.9274597 -37.6741066
136.9877930 -200.4599457 -97.1981888
136.0517578 -200.1558685 -95.7772827
51.5479393 -202.4106903 -93.9261093
-187.4626617 -197.2192230 -37.5252266
-188.2825470 -197.4291992 -38.3195343
-189.1148224 -197.6485596 -39.1718636
-189.9779510 -197.8890381 -40.0878716
-190.8458252 -198.1340332 -41.0176315
51.5357513 -201.7068176 -93.8539200
-190.7997894 -197.4186401 -40.8606758
51.5261879 -201.0106964 -93.8171310
-190.7769165 -196.7147064 -40.7244911
51.4994583 -200.3298035 -93.8346481
51.5115623 -199.6354218 -93.8224945
137.8642120 -197.3865509 -98.8962479
51.5168839 -198.9483643 -93.8340149
51.5094490 -198.2689514 -93.8730316
-190.6395721 -193.9236908 -40.3118248
-191.5408936 -194.1798248 -41.3127174
-192.4544067 -194.4464874 -42.3694038
137.8804016 -196.0606537 -99.1030045
51.5046844 -197.5902557 -93.9175644
-105.3613739 -194.5256195 -58.0381165
137.8894196 -195.4082489 -99.2567902
51.5078049 -196.9093018 -93.9618378
-105.3582382 -193.8274994 -57.9559402
137.9628448 -194.7841034 -99.5471878
51.5079765 -196.2337494 -94.0227966
-104.2745209 -193.8435516 -61.2134743
137.8970642 -194.1053467 -99.5749664
51.5107231 -195.5604858 -94.0974274
-104.2806625 -193.1337738 -61.0951767
138.0241089 -193.4992828 -99.9554138
137.0287170 -193.1578827 -98.2508011
136.1453247 -192.8688049 -96.8082275
95.6932220 -189.0208130 -73.4236755
94.9309540 -188.9962006 -73.2522888
51.5065269 -194.8941956 -94.2020950
-104.2720642 -192.4506226 -61.0695381
136.1432495 -192.2178040 -96.9511948
95.6066513 -188.3490448 -73.4544144
94.9686661 -188.3634033 -73.4207230
51.5100517 -194.2304077 -94.3194504
-104.2663727 -191.7703552 -61.0634193
136.1876068 -191.5942841 -97.2304153
97.0564499 -187.7205811 -73.8299637
96.3693161 -187.7223663 -73.7447205
51.5299225 -193.5664673 -94.4364090
-104.2674103 -191.0908966 -61.0660095
137.0753784 -191.2206268 -98.8046341
136.2560272 -190.9815216 -97.5778122
97.0947952 -187.0895386 -74.0358124
96.3425827 -187.0855103 -73.8987961
51.5121384 -192.9177704 -94.6224213
50.8291512 -193.1331177 -95.5330582
-104.2697372 -190.4182587 -61.0978813
-104.2693100 -189.7545013 -61.1702042
-192.3502808 -188.3525085 -42.2582664
-104.2840042 -189.0870209 -61.2243690
-192.3867493 -187.7070465 -42.3823357
-104.3091736 -188.4183044 -61.2708855
-192.3464661 -187.0418091 -42.4297485
-104.3217545 -187.7623901 -61.3797836
-192.3920898 -186.4025726 -42.5816574
136.4046173 -187.8710938 -99.0662460
-104.3185730 -187.1218109 -61.5637856
-192.4326172 -185.7646027 -42.7426643
136.4514313 -187.2651062 -99.4463577
-104.3443756 -186.4698792 -61.6925163
-192.4192505 -185.1157837 -42.8603325
136.5361023 -186.6719818 -99.9281158
50.2146339 -188.8352661 -97.9924469
-104.3439713 -185.8406067 -61.9319611
136.5767517 -186.0769348 -100.3724747
50.2062225 -188.2073669 -98.3025665
136.6239929 -185.4792023 -100.7918167
50.2470322 -187.5690460 -98.5465164
50.2647705 -186.9395905 -98.8432465
-104.4457397 -183.9639587 -62.6925697
-192.6922302 -181.3518829 -44.1725769
135.0221100 -182.5997162 -99.8586884
-104.0302048 -182.5028076 -65.5835114
-104.5556412 -182.1189880 -63.6176949
-192.7374420 -180.7362823 -44.4461670
135.1205750 -182.0285645 -100.4579163
-192.7470703 -180.1110382 -44.6816406
136.0938263 -181.7064209 -102.4305725
135.2105865 -181.4555817 -101.0426559
50.2953033 -183.8551483 -100.7338333
-191.0301361 -179.0461884 -42.9930649
50.3206940 -183.2443085 -101.1210861
-191.1507874 -178.4501038 -43.3721619
-192.0058594 -178.6606750 -44.2961731
135.3725128 -180.3362274 -102.3450546
-104.6653290 -179.7165833 -65.2234039
135.4708252 -179.7880554 -103.0547791
-104.7104721 -179.1265259 -65.6651230
50.4057808 -181.4385223 -102.4518661
49.6731949 -181.6872711 -103.6899185
-105.8091278 -177.8596497 -62.5532532
-191.2734985 -176.6316986 -44.3277817
50.3966331 -180.8459015 -102.9957047
-105.8665619 -177.2812958 -63.0434952
-191.4022980 -176.0397186 -44.7579384
50.4265442 -180.2472992 -103.4921112
-189.7898254 -175.0409088 -43.3552589
50.4145737 -179.6610870 -104.0864944
-189.8665009 -174.4509125 -43.7627144
-190.6953735 -174.6445007 -44.6260109
133.2036591 -176.2437286 -102.2446060
132.2545319 -176.0218658 -100.8563080
51.7808380 -178.6094818 -102.3974762
51.1131020 -178.8371735 -103.4967957
-189.9707489 -173.8699799 -44.2139320
-190.8101807 -174.0621490 -45.0932541
132.3381042 -175.4781036 -101.5876083
51.7860756 -178.0234528 -102.9841537
-106.0568161 -175.0021515 -65.2948227
-189.9895020 -173.2722321 -44.5771103
132.4123993 -174.9464264 -102.3739624
51.7947655 -177.4362640 -103.5799637
-106.1102982 -174.4492035 -65.9854889
-106.6446075 -174.1267853 -64.1926956
-107.1727142 -173.8287964 -62.5627365
-188.4257050 -172.3076172 -43.3334160
133.5028839 -174.6811829 -104.8335953
132.5969086 -174.4159241 -103.3245697
-107.2261353 -173.2718964 -63.1874466
-188.4922943 -171.7217255 -43.7616539
-189.3405762 -171.9015503 -44.5878029
53.1927757 -175.8429108 -102.6395798
52.4969444 -176.0548859 -103.7267227
-188.5634460 -171.1406250 -44.2192688
-189.4691010 -171.3222351 -45.1149750
132.7925720 -173.3801880 -105.1452484
53.2013359 -175.2626343 -103.2928314
-188.6792603 -170.5698395 -44.7311401
53.2104988 -174.6908569 -103.9575806
-107.4054337 -171.6165009 -65.2037811
-188.8303680 -169.9926758 -45.2999420
-107.4480743 -171.0755005 -66.0110626
131.3374329 -171.3203735 -104.9808807
53.2542419 -173.5765533 -105.4048233
-108.6044464 -169.9524384 -63.4418869
-187.3060150 -168.5003052 -44.6789474
-188.1461182 -168.6704407 -45.4893456
53.2926750 -173.0223541 -106.1671677
-108.1315079 -169.6945801 -65.8139801
-108.6657104 -169.4046631 -64.1808548
-187.4146576 -167.9353485 -45.2359390
129.8562469 -169.8730621 -104.3684692
